# .PCD v0.7 - Point Cloud Data file format
VERSION 0.7
FIELDS x y z rgb
SIZE 4 4 4 4
TYPE F F F F
COUNT 1 1 1 1
WIDTH 1027
HEIGHT 1
VIEWPOINT 0 0 0 1 0 0 0
POINTS 1027
DATA ascii
-0.90723264 0.60277009 -1.0808446 1.3840148e-39
0.31056598 -1.7378718 -1.0709463 9.1237604e-39
0.31639239 -1.7513222 -1.0708981 1.0966588e-38
0.32331079 -1.7642398 -1.0708419 1.0229384e-38
0.32943833 -1.7790804 -1.0707908 8.9393678e-39
0.33636156 -1.7904297 -1.0707353 1.0229029e-38
0.34256074 -1.8037219 -1.0706843 6.3586104e-39
0.35016572 -1.816265 -1.0706235 1.068929e-38
0.35782668 -1.8287809 -1.0705622 9.214877e-39
-0.89598811 0.58991897 -1.0807573 2.6747523e-39
0.20772462 -1.5273581 -1.0717881 1.2074381e-38
0.21436919 -1.5404092 -1.071734 9.8624087e-39
0.22012711 -1.5538932 -1.071686 9.1244835e-39
0.22737683 -1.5666491 -1.0716277 1.2258415e-38
0.23461759 -1.5794095 -1.0715693 1.1705605e-38
0.23722704 -1.5945246 -1.0715436 9.1244863e-39
0.24411818 -1.6074425 -1.0714877 9.7694956e-39
0.25267041 -1.6183816 -1.0714207 8.4791169e-39
0.2611163 -1.6315769 -1.0713534 8.110333e-39
0.26812229 -1.6444443 -1.0712967 9.9531624e-39
0.27448738 -1.6576507 -1.0712445 1.1335741e-38
0.28152692 -1.6704979 -1.0711876 9.6769384e-39
0.28562984 -1.6848656 -1.0711514 1.1705604e-38
0.2915445 -1.6982729 -1.0711023 9.7691326e-39
0.29840362 -1.7112195 -1.0710467 8.9393748e-39
0.30478135 -1.7244009 -1.0709945 9.4918269e-39
0.57101452 -2.2289312 -1.0688337 1.2258053e-38
0.050618812 -1.2129749 -1.0730708 1.2258059e-38
0.056828517 -1.2262383 -1.0730196 1.1521211e-38
0.077712454 -1.2649283 -1.0728506 7.0050686e-39
0.09085834 -1.2911007 -1.0727433 8.2032503e-39
0.097582996 -1.3041129 -1.0726886 9.032648e-39
0.10436755 -1.3170959 -1.0726335 9.3099523e-39
0.1102578 -1.3305151 -1.0725847 7.4656852e-39
0.11737513 -1.3433357 -1.0725272 1.0690371e-38
0.12381484 -1.3564869 -1.0724746 9.7691354e-39
0.12707666 -1.3712809 -1.0724441 1.2258773e-38
0.13402176 -1.3841857 -1.0723878 9.3092349e-39
0.14280416 -1.3961933 -1.0723187 1.0507417e-38
0.15104106 -1.4083071 -1.0722535 8.6645843e-39
0.15721795 -1.4216141 -1.0722026 9.953884e-39
0.1648175 -1.4341657 -1.0721418 1.0230834e-38
0.17132151 -1.4472938 -1.0720886 8.4791169e-39
0.17827733 -1.4601856 -1.0720323 1.0138637e-38
0.18391019 -1.4737791 -1.0719852 8.0184989e-39
0.18871497 -1.4877535 -1.071944 1.0045722e-38
0.19477703 -1.5010889 -1.0718939 7.7422721e-39
0.20132995 -1.5141847 -1.0718405 9.0322893e-39
0.57662684 -2.2321942 -1.0687916 1.1797078e-38
0.07127542 -1.2517759 -1.0729033 8.2950886e-39
0.084466755 -1.2779261 -1.0727957 9.9546071e-39
0.58150029 -2.2301033 -1.0687572 1.382466e-38
-1.7961735 2.2491949 -1.0880414 1.0695405e-38
-1.3698096 1.4336846 -1.0845778 1.0417383e-38
-1.3585715 1.4083949 -1.0844848 1.1339342e-38
-1.3505101 1.3950914 -1.0844203 1.3736429e-38
-1.3432689 1.3814414 -1.0843616 1.2076543e-38
-1.3363211 1.3679518 -1.0843049 1.2906305e-38
-1.3313611 1.3545954 -1.084263 1.2722274e-38
-1.3233135 1.3426745 -1.0841991 1.2814109e-38
-1.3153726 1.3298697 -1.0841358 1.1799956e-38
-1.308408 1.3169748 -1.0840793 1.3459839e-38
-1.3007461 1.3044198 -1.084018 9.9567679e-39
-1.790114 2.2535558 -1.0879995 1.1617001e-38
-1.293486 1.2916689 -1.0839596 1.1246782e-38
-1.2863172 1.2788733 -1.0839018 1.21691e-38
-1.2790172 1.266142 -1.083843 1.3275083e-38
-1.2710422 1.2537495 -1.0837797 1.0141156e-38
-1.2653033 1.2402469 -1.0837319 1.2353128e-38
-1.2595539 1.2289846 -1.0836848 1.060213e-38
-1.2500752 1.2150904 -1.0836098 1.2168739e-38
-1.2433941 1.202057 -1.0835555 9.5879826e-39
-1.236261 1.1892443 -1.0834979 1.1984705e-38
-1.2290303 1.176479 -1.0834396 1.0601772e-38
-1.2221324 1.1635513 -1.0833837 1.0325185e-38
-1.0877264 0.90326548 -1.0822904 4.6101318e-39
-1.0802143 0.89063758 -1.0822301 3.5016263e-39
-1.0768712 0.87591326 -1.0821992 2.0272207e-39
-1.0540674 0.83822209 -1.0820166 4.0569636e-39
-0.99990457 0.73439735 -1.0815766 5.7168465e-39
-0.99294943 0.7195664 -1.0815194 4.1491649e-39
-0.93810946 0.617908 -1.0810753 4.6097955e-40
-0.93269074 0.60265934 -1.0810291 1.1077909e-39
-1.7825847 2.2505279 -1.0879436 1.2169459e-38
-1.2148849 1.1507943 -1.0833253 9.6801754e-39
-1.207769 1.137973 -1.0832679 8.8504189e-39
-1.2006233 1.1251662 -1.0832101 1.2168377e-38
-1.1903174 1.1139891 -1.0831304 8.6660277e-39
-1.1854247 1.0998021 -1.0830884 9.7720095e-39
-1.1795894 1.0865135 -1.0830401 9.7720109e-39
-1.1721122 1.0740745 -1.0829802 1.1338972e-38
-1.1641927 1.0598011 -1.0829163 9.7720081e-39
-1.1590766 1.0476549 -1.0828737 1.0048238e-38
-1.1538398 1.0338572 -1.0828294 9.0344473e-39
-1.1465731 1.0211283 -1.0827708 9.6798167e-39
-1.1375481 1.0093026 -1.0827 1.0047879e-38
-1.1302394 0.99657536 -1.0826411 7.7437084e-39
-1.1269438 0.98179895 -1.0826106 8.0202981e-39
-1.1160887 0.9708932 -1.0825269 7.2834548e-39
-1.0961306 0.93175143 -1.0823643 8.5731104e-39
-1.09144 0.91900766 -1.0823245 1.115603e-38
-1.0661769 0.86490017 -1.0821166 1.1978201e-39
-1.0590298 0.85209417 -1.0820589 3.4108726e-39
-1.0460767 0.82582772 -1.081953 4.6108591e-39
-1.0391575 0.81291044 -1.081897 4.1502369e-39
-1.0290341 0.80161208 -1.0818185 4.0569692e-39
-1.022692 0.78840268 -1.0817664 5.254795e-39
-1.015466 0.77565718 -1.0817082 5.1629553e-39
-1.0078199 0.76313156 -1.081647 5.4406212e-39
-1.0042372 0.74848247 -1.0816144 4.8874474e-39
-0.99740815 0.73552126 -1.0815589 3.5041486e-39
-0.99037421 0.72315043 -1.0815023 4.5183019e-39
-0.94950885 0.64499074 -1.0811703 1.8435525e-39
-0.92499387 0.6080718 -1.0809758 3.6914265e-40
0.32769233 -1.8114138 -1.0707886 7.096174e-39
0.34807089 -1.8503504 -1.070623 6.6348427e-39
0.35480332 -1.8633586 -1.0705683 8.2940011e-39
-1.1089684 0.95807421 -1.0824693 7.8366271e-39
-1.1016395 0.94535685 -1.0824106 8.7578618e-39
0.25147286 -1.6530837 -1.0714135 1.0413782e-38
0.25773528 -1.6663213 -1.071362 1.1243907e-38
0.26486766 -1.6791345 -1.0713044 1.2165504e-38
0.27087292 -1.6924977 -1.0712548 9.0322921e-39
0.27400792 -1.7073648 -1.0712253 9.031569e-39
0.28408772 -1.7186365 -1.0711471 8.018866e-39
0.28781524 -1.7332029 -1.0711133 1.0045365e-38
0.29539394 -1.7457668 -1.0710527 1.0414148e-38
0.30274373 -1.7584406 -1.0709937 1.0045002e-38
0.31005406 -1.7709649 -1.0709349 1.1888555e-38
0.31518397 -1.7849302 -1.0708913 7.8333803e-39
0.32221389 -1.7977934 -1.0708345 1.0044635e-38
0.33537459 -1.8239586 -1.0707271 9.6754965e-39
0.34157377 -1.8372272 -1.0706761 7.740826e-39
0.36876345 -1.8891337 -1.0704553 1.2717229e-38
0.54801917 -2.229686 -1.069 1.115207e-38
0.14143616 -1.4297874 -1.0723132 8.756424e-39
0.14732288 -1.4432083 -1.0722643 9.032648e-39
0.15386452 -1.4563097 -1.072211 7.8344691e-39
0.16096404 -1.4691391 -1.0721537 7.8341076e-39
0.16822141 -1.4818913 -1.0720953 9.9542442e-39
0.175035 -1.4948601 -1.07204 1.1797076e-38
0.18148951 -1.508004 -1.0719872 9.4014361e-39
0.18763901 -1.5212967 -1.0719364 1.0414864e-38
0.19232054 -1.5353533 -1.0718961 1.0138637e-38
0.19982742 -1.5468531 -1.0718364 7.650438e-39
0.20592169 -1.5591044 -1.0717866 9.9538854e-39
0.21202277 -1.5746481 -1.0717353 9.7698557e-39
0.22040334 -1.5864912 -1.0716691 1.1059873e-38
0.22560899 -1.60053 -1.071625 9.3092377e-39
0.23187049 -1.6137681 -1.0715735 1.1059513e-38
0.238728 -1.6267155 -1.0715178 8.3869226e-39
0.24517547 -1.6398629 -1.0714651 1.2441725e-38
0.55284739 -2.2275078 -1.068966 1.4469302e-38
0.021278441 -1.1951956 -1.0732914 1.0599616e-38
0.028785706 -1.2052616 -1.0732325 1.0692169e-38
0.034850702 -1.2185189 -1.0731825 1.1060232e-38
0.04248308 -1.2336909 -1.0731202 1.1244263e-38
0.048803013 -1.2469187 -1.0730684 1.2443166e-38
0.062491897 -1.2728184 -1.0729573 1.0046082e-38
0.068403803 -1.2862608 -1.0729083 9.5854658e-39
0.075534366 -1.2990634 -1.0728507 7.926306e-39
0.083912775 -1.3117673 -1.0727842 9.5851043e-39
0.090513133 -1.3257571 -1.0727299 9.9542442e-39
0.099548675 -1.3360659 -1.0726597 9.770576e-39
0.10380587 -1.3503846 -1.0726223 7.7419134e-39
0.11081896 -1.3632452 -1.0725657 9.2163204e-39
0.11645142 -1.3768048 -1.0725186 1.2166578e-38
0.12224501 -1.3902712 -1.0724704 7.6504352e-39
0.12880655 -1.4033631 -1.0724169 1.1613404e-38
0.13555564 -1.4163632 -1.0723621 9.8624115e-39
0.56339347 -2.2319376 -1.0688876 1.1888555e-38
-1.8181525 2.2549667 -1.0882033 1.0326622e-38
-1.810886 2.2524459 -1.0881495 1.0603211e-38
-1.3711596 1.3999779 -1.0845721 1.0693974e-38
-1.3642844 1.3870391 -1.0845164 9.4961485e-39
-1.3565668 1.3745115 -1.0844548 1.1247504e-38
-1.3502095 1.3613199 -1.0844027 1.1616284e-38
-1.3435187 1.3482913 -1.0843482 1.4013011e-38
-1.3362694 1.3355352 -1.0842898 1.2999218e-38
-1.3280127 1.3232945 -1.0842243 1.3367642e-38
-1.320421 1.3083432 -1.0841625 1.0694327e-38
-1.3164833 1.2962545 -1.0841284 1.3551672e-38
-1.3073283 1.284483 -1.0840567 1.0232993e-38
-1.3006305 1.2714577 -1.0840021 1.2814465e-38
-1.2925398 1.2591121 -1.0839379 1.2629719e-38
-0.99947321 0.68678153 -1.0815516 3.9647708e-39
-1.8034675 2.2474101 -1.0880935 1.0326264e-38
-1.2856497 1.2461809 -1.083882 9.8645723e-39
-1.2786291 1.233313 -1.0838252 1.272227e-38
-1.2714084 1.2205429 -1.0837671 1.0417738e-38
-1.2606819 1.2095872 -1.0836842 8.9429747e-39
-1.2561518 1.1954098 -1.0836447 1.0141155e-38
-1.2477987 1.1832689 -1.0835787 9.4032326e-39
-1.2414089 1.1700749 -1.0835264 1.1984705e-38
-1.2343724 1.1572294 -1.0834695 9.6798139e-39
-1.22777 1.1441474 -1.0834156 9.2191986e-39
-1.2233402 1.1308483 -1.0833774 1.0325543e-38
-1.2151152 1.1176633 -1.0833118 1.087836e-38
-1.2077659 1.1049559 -1.0832528 8.9426132e-39
-1.193608 1.0792775 -1.0831383 8.4819923e-39
-1.187246 1.0660884 -1.0830861 8.1132098e-39
-1.1805652 1.0530547 -1.0830318 8.2054083e-39
-1.1098961 0.90822768 -1.0824534 8.4809119e-39
-1.1026241 0.89549208 -1.0823947 4.4228651e-39
-1.0946083 0.88099557 -1.08233 2.3030929e-39
-1.0893434 0.86945796 -1.0822866 9.208773e-40
-1.0784312 0.85607219 -1.0822014 5.5317098e-40
-1.0729034 0.84489298 -1.0821562 1.8367239e-40
-1.045426 0.7931267 -1.0819334 3.6892615e-39
-1.0179813 0.74134457 -1.0817108 5.532821e-39
-1.0114121 0.72825652 -1.0816571 5.0718386e-39
-0.99483031 0.70394659 -1.0815258 3.7810956e-39
-0.98917246 0.68675977 -1.0814769 3.7803796e-39
-1.7965435 2.2477708 -1.0880435 1.0970911e-38
-1.1998304 1.0925347 -1.0831895 9.4954268e-39
-1.1726884 1.0406048 -1.0829691 9.0344473e-39
-1.1649667 1.028079 -1.0829073 7.8366257e-39
-1.1582408 1.0150675 -1.0828526 9.1266429e-39
-1.1488338 1.00343 -1.0827792 8.0206569e-39
-1.1417402 0.99061519 -1.0827218 9.7720123e-39
-1.1379253 0.97610003 -1.0826876 7.7437112e-39
-1.12853 0.96446913 -1.0826141 9.6805299e-39
-1.1232874 0.95066482 -1.0825698 1.0048596e-38
-1.1155608 0.93819451 -1.0825081 1.1524444e-38
-1.10867 0.92528248 -1.0824522 1.1983621e-38
-1.0633345 0.83326864 -1.0820816 5.5388984e-40
-1.0574192 0.81986153 -1.0820324 2.7730015e-40
-1.0511264 0.8066386 -1.0819809 4.7034135e-39
-1.0375992 0.78065228 -1.0818709 3.5967072e-39
-1.0301647 0.76798654 -1.0818112 4.240999e-39
-1.0233916 0.75499803 -1.0817562 5.6242922e-39
-1.0039353 0.71561134 -1.0815972 4.7952461e-39
-0.99629194 0.70304751 -1.0815359 3.8736542e-39
-0.98921722 0.69118965 -1.0814793 3.0442494e-39
-0.98214328 0.67722392 -1.0814216 3.5967058e-39
0.28886041 -1.7656194 -1.0710911 9.2163218e-39
0.29554445 -1.7786514 -1.0710366 1.2533567e-38
0.30166516 -1.7919582 -1.070986 9.8606108e-39
0.30822414 -1.8050512 -1.0709325 1.1242465e-38
0.31489414 -1.8180901 -1.0708783 8.6624221e-39
0.32185513 -1.8309869 -1.0708219 9.2148728e-39
0.32758057 -1.8444866 -1.0707743 7.0958153e-39
0.33157063 -1.8589307 -1.0707387 9.7684138e-39
0.33888137 -1.8716406 -1.0706799 1.1518686e-38
0.34534273 -1.8847879 -1.0706271 1.0689644e-38
0.19899157 -1.5813626 -1.0718267 9.4014319e-39
0.20573248 -1.594367 -1.0717719 1.2257338e-38
0.21195205 -1.6076255 -1.0717207 9.9538854e-39
0.21834184 -1.620801 -1.0716684 9.3999928e-39
0.22193031 -1.6354295 -1.0716357 1.0966957e-38
0.23140737 -1.6470126 -1.0715616 1.3455514e-38
0.2381705 -1.660006 -1.0715066 1.1243905e-38
0.24408114 -1.6716554 -1.0714586 8.6631466e-39
0.25070909 -1.6864409 -1.0714037 1.1151351e-38
0.25910708 -1.6986043 -1.0713372 8.0177828e-39
0.26313189 -1.7129998 -1.0713016 7.9255858e-39
0.27351767 -1.7241209 -1.0712211 9.3077971e-39
0.27616075 -1.7392293 -1.0711951 9.5847456e-39
0.28215903 -1.752596 -1.0711455 1.161197e-38
0.53391492 -2.2330916 -1.0691006 1.1797078e-38
0.082269073 -1.3450353 -1.0727808 7.9266606e-39
0.088937595 -1.3580747 -1.0727266 9.7698529e-39
0.10923664 -1.3970501 -1.0725616 9.216326e-39
0.11540904 -1.410332 -1.0725108 9.9549644e-39
0.1216444 -1.4235827 -1.0724596 1.1612688e-38
0.12686084 -1.4395852 -1.0724143 9.3088761e-39
0.13650647 -1.4488178 -1.0723403 8.9404538e-39
0.14087118 -1.4634222 -1.072302 8.9404552e-39
0.14891492 -1.4753953 -1.0722382 8.8482609e-39
0.15548952 -1.4884864 -1.0721846 9.5851057e-39
0.16179532 -1.5017178 -1.0721328 1.1429014e-38
0.16913232 -1.5144101 -1.0720738 1.1059874e-38
0.17697756 -1.5268264 -1.0720112 1.0967677e-38
0.17975467 -1.5418689 -1.0719842 1.0691452e-38
0.18628153 -1.5549775 -1.0719309 9.8616912e-39
0.19265485 -1.5681612 -1.0718786 1.0875121e-38
0.53759408 -2.2321846 -1.0690745 1.2073663e-38
0.016113101 -1.2143816 -1.0733202 1.1153149e-38
0.022073321 -1.2277666 -1.0732708 1.1797795e-38
0.029221429 -1.2405721 -1.0732131 1.087548e-38
0.036460817 -1.2533332 -1.0731548 1.2166581e-38
0.049835064 -1.2793941 -1.073046 9.5854644e-39
0.056617454 -1.2923782 -1.0729909 1.1704885e-38
0.062643081 -1.3057313 -1.0729412 8.0192205e-39
0.07003358 -1.3184187 -1.0728817 7.18982e-39
0.075869203 -1.3318646 -1.0728332 1.1520487e-38
0.095992483 -1.3709258 -1.0726695 8.111412e-39
0.10317093 -1.3837166 -1.0726117 1.0967677e-38
0.5434112 -2.2280498 -1.0690342 1.1613048e-38
-1.8308328 2.2507887 -1.0882934 1.0233702e-38
-1.3884987 1.3909848 -1.0846937 1.1523368e-38
-1.3710225 1.3670262 -1.0845561 1.0786168e-38
-1.3635887 1.3543601 -1.0844964 1.0693974e-38
-1.3568879 1.3413363 -1.0844419 1.3552032e-38
-1.827228 2.2505629 -1.0882672 1.0046786e-38
-1.3495644 1.3286164 -1.0843829 1.106347e-38
-1.3428456 1.3156013 -1.0843283 1.0048959e-38
-1.3349999 1.3031362 -1.0842657 1.106275e-38
-1.3286831 1.2899249 -1.084214 1.3459476e-38
-1.3185778 1.2786409 -1.0841354 1.0970916e-38
-1.3118554 1.265627 -1.0840808 1.0232993e-38
-1.3070185 1.2512114 -1.0840392 1.1708119e-38
-1.2993482 1.2391045 -1.0839779 1.244604e-38
-1.2927516 1.2244656 -1.0839235 1.1339338e-38
-1.2872978 1.212333 -1.0838784 1.0970914e-38
-1.2785231 1.2003462 -1.0838093 9.3117544e-39
-1.2718225 1.1873224 -1.0837548 9.5883385e-39
-1.2646875 1.1745105 -1.0836971 1.1984706e-38
-1.2578001 1.1615777 -1.0836413 9.4954282e-39
-1.2509989 1.1486028 -1.083586 1.1892506e-38
-1.244115 1.1356683 -1.0835303 9.2191972e-39
-1.1158193 0.88869447 -1.0824873 3.8689738e-39
-1.111225 0.87529296 -1.0824478 1.1978285e-39
-1.1035975 0.86211973 -1.0823866 2.7586802e-40
-1.0987659 0.84745294 -1.0823448 2.7622676e-40
-0.99776649 0.66951084 -1.0815314 3.3197601e-39
-1.0007857 0.65538365 -1.0815467 3.2268456e-39
-0.99586689 0.6374374 -1.0815028 2.7665892e-39
-1.8226295 2.2539775 -1.0882355 1.0417017e-38
-1.2363983 1.1231402 -1.0834686 9.5879798e-39
-1.2266189 1.1116763 -1.0833925 1.0969838e-38
-1.2197946 1.0987225 -1.0833371 9.3110355e-39
-1.2136606 1.0853996 -1.0832865 9.1270058e-39
-1.2076049 1.072024 -1.0832365 9.0348074e-39
-1.1993746 1.0598136 -1.0831711 8.1124938e-39
-1.1937118 1.0462335 -1.0831239 8.0199366e-39
-1.1881313 1.0339347 -1.0830779 8.204688e-39
-1.1815774 1.019508 -1.0830238 1.0417379e-38
-1.1757977 1.0059787 -1.0829756 9.1270002e-39
-1.1674055 0.99479127 -1.0829097 1.1984339e-38
-1.1597079 0.98137575 -1.0828478 1.1708111e-38
-1.1542302 0.96891809 -1.0828024 1.0970548e-38
-1.1459446 0.95546204 -1.0827361 1.1615916e-38
-1.1382687 0.94291407 -1.0826749 1.1523722e-38
-1.131901 0.92972785 -1.0826225 7.927378e-39
-1.1252433 0.91668296 -1.0825684 1.1431531e-38
-1.1221625 0.90543598 -1.0825409 5.3459018e-39
-1.0870728 0.83799547 -1.0822557 1.105986e-39
-1.0805694 0.82438171 -1.0822024 9.2159616e-40
-1.0720524 0.80991191 -1.082134 1.9364684e-39
-1.0643314 0.79983586 -1.0820733 1.7531533e-39
-1.0568851 0.78720742 -1.0820137 3.5037927e-39
-1.0514326 0.77141255 -1.0819669 3.5956296e-39
-1.0463078 0.75964737 -1.0819244 3.6878224e-39
-1.03863 0.74713099 -1.081863 3.4112383e-39
-1.0315192 0.73430723 -1.0818057 4.2409976e-39
-1.0238802 0.7217412 -1.0817444 2.950979e-39
-1.0210532 0.70672148 -1.0817171 4.4264734e-39
-1.0104178 0.69572324 -1.081635 5.1629567e-39
-0.9951492 0.67071158 -1.0815129 4.0576867e-39
-0.99114335 0.6557259 -1.081477 3.7803782e-39
-1.0023513 0.68336576 -1.0815709 2.952058e-39
-0.99541909 0.67045492 -1.0815147 3.4126774e-39
0.25649387 -1.7329639 -1.0713404 1.1059516e-38
0.26218987 -1.746478 -1.071293 8.5709524e-39
0.26870945 -1.7595903 -1.0712398 8.9390118e-39
0.27469388 -1.7734202 -1.0711901 1.0505617e-38
0.27850544 -1.7874988 -1.071156 1.1888553e-38
0.28791142 -1.7995131 -1.0710822 1.0414142e-38
0.29684743 -1.8134216 -1.0710112 9.5851015e-39
0.30028674 -1.8257004 -1.0709807 1.0321589e-38
0.30802661 -1.8376074 -1.070919 1.1796357e-38
0.3173953 -1.8497908 -1.0708456 1.0136476e-38
0.32087106 -1.8644855 -1.0708138 9.0319319e-39
0.50974602 -2.2291923 -1.0692776 1.0968037e-38
0.13970621 -1.4966682 -1.0722952 8.5713125e-39
0.14601961 -1.509881 -1.0722433 9.1248464e-39
0.15284829 -1.5228425 -1.0721879 9.769134e-39
0.15885702 -1.5362039 -1.0721382 8.9397335e-39
0.16610025 -1.5489631 -1.0720799 9.7698543e-39
0.16884282 -1.5640129 -1.0720531 9.1241248e-39
0.17857632 -1.5754623 -1.0719773 1.1612684e-38
0.18248425 -1.5899389 -1.0719424 1.1980747e-38
0.1904763 -1.6022829 -1.0718788 9.4932674e-39
0.19825312 -1.6147474 -1.0718167 1.1059511e-38
0.20495199 -1.6288338 -1.0717617 1.0137556e-38
0.21051328 -1.6413459 -1.0717157 1.0045001e-38
0.22076003 -1.652539 -1.0716363 1.1243184e-38
0.22638643 -1.6661381 -1.0715894 1.262612e-38
0.2309157 -1.6802708 -1.07155 1.0229752e-38
0.23751955 -1.6933421 -1.0714961 1.2902345e-38
0.24351397 -1.7067105 -1.0714465 1.2994539e-38
0.24991655 -1.7198797 -1.0713941 1.3639546e-38
0.5226357 -2.2383809 -1.06918 1.2442443e-38
-0.0045594117 -1.2086066 -1.0734726 1.2719393e-38
0.0018192433 -1.2217877 -1.0734203 1.1613405e-38
0.0063027497 -1.2359347 -1.0733814 1.1613045e-38
0.015028712 -1.2479291 -1.0733126 1.1244266e-38
0.019168658 -1.2622757 -1.0732762 1.115243e-38
0.025477711 -1.2755016 -1.0732243 9.1252066e-39
0.032402672 -1.2884127 -1.0731682 8.7571429e-39
0.042635992 -1.2996318 -1.0730889 8.480556e-39
0.048729252 -1.3129522 -1.0730386 1.115279e-38
0.055419084 -1.3259813 -1.0729842 9.032648e-39
0.06004962 -1.3400639 -1.0729442 8.5716684e-39
0.066249914 -1.3533623 -1.0728931 9.8624045e-39
0.074435703 -1.3655978 -1.0728283 9.3088761e-39
0.07959199 -1.3794403 -1.0727845 8.4791183e-39
0.086740419 -1.3922307 -1.0727268 8.0185003e-39
0.094669163 -1.4046038 -1.0726638 9.6773013e-39
0.10222457 -1.4199032 -1.0726019 9.7698557e-39
0.10968418 -1.4298012 -1.0725434 1.0323031e-38
0.11428189 -1.4439003 -1.0725036 9.1244863e-39
0.12091946 -1.4569548 -1.0724496 1.2349891e-38
0.12695657 -1.4703025 -1.0723996 8.8482581e-39
0.13342467 -1.4834399 -1.0723467 8.6635067e-39
0.52363539 -2.2305272 -1.0691763 1.1981469e-38
0.53012538 -2.2315519 -1.0691289 1.1705242e-38
-1.848665 2.2544532 -1.0884243 9.1248212e-39
-1.4059919 1.3984118 -1.0848238 1.1338981e-38
-1.3988583 1.3855993 -1.0847663 1.2168377e-38
-1.3923767 1.3724685 -1.0847133 1.1891436e-38
-1.3824865 1.3610951 -1.0846364 1.2998503e-38
-1.3768518 1.3475024 -1.0845894 1.3644229e-38
-1.3716733 1.3344747 -1.0845459 1.1523733e-38
-1.3630886 1.3215858 -1.0844778 1.0693611e-38
-1.356143 1.3086814 -1.0844215 1.1707402e-38
-1.3486178 1.2960598 -1.0843612 9.3110369e-39
-1.3424233 1.282789 -1.0843102 1.235313e-38
-1.3353558 1.2699441 -1.0842532 1.3091052e-38
-1.329024 1.2567402 -1.0842012 1.106311e-38
-1.3263628 1.2416443 -1.084175 1.2445683e-38
-1.315378 1.230812 -1.0840904 1.0048961e-38
-1.3082786 1.2179826 -1.084033 1.2353487e-38
-1.1192163 0.85401857 -1.082496 9.1835496e-41
-1.8429921 2.2550037 -1.0883834 9.400692e-39
-1.3004822 1.2054933 -1.0839708 9.4035913e-39
-1.2907993 1.1939834 -1.0838954 1.1800313e-38
-1.2843629 1.1808134 -1.0838426 9.4954254e-39
-1.2787843 1.1675392 -1.0837961 1.0693967e-38
-1.2740195 1.1531324 -1.0837551 1.0140795e-38
-1.2648484 1.1410822 -1.083683 1.0970194e-38
-1.2596654 1.1275914 -1.0836393 1.041738e-38
-1.2504338 1.1158602 -1.083567 9.0348074e-39
-1.243494 1.102953 -1.0835108 1.1062388e-38
-1.2261746 1.0624334 -1.0833666 1.0970553e-38
-1.2190275 1.0496505 -1.0833089 1.1983984e-38
-1.2121871 1.0367109 -1.0832535 9.9564022e-39
-1.2034103 1.0247512 -1.0831845 8.4816322e-39
-1.1959869 1.0120798 -1.0831249 1.0325179e-38
-1.1890723 0.99916035 -1.0830687 1.0141147e-38
-1.1368781 0.89362323 -1.0826422 4.3313883e-39
-1.1287214 0.88205212 -1.0825777 3.7774901e-39
-1.1251742 0.86740494 -1.0825453 1.5666054e-39
-1.1102892 0.84355271 -1.0824265 2.7622676e-40
-1.1012989 0.83017439 -1.0823553 5.5245491e-40
-1.0964388 0.81622887 -1.0823135 2.6736747e-39
-1.0889056 0.80363488 -1.0822532 3.5952736e-39
-1.0741725 0.77823699 -1.0821348 3.6878252e-39
-0.99883312 0.62808359 -1.08152 2.8580645e-39
-0.97672921 0.58138251 -1.0813385 2.5807574e-39
-0.97048157 0.57062733 -1.0812883 2.6725915e-39
-1.8405114 2.2618191 -1.0883687 1.0417732e-38
-1.2353611 1.090628 -1.0834461 8.5738306e-39
-1.2286572 1.0776057 -1.0833917 1.0694325e-38
-1.1815724 0.98652643 -1.0830086 9.2184784e-39
-1.1739665 0.97394413 -1.0829477 9.8642037e-39
-1.167424 0.96268046 -1.0828952 9.8642023e-39
-1.1591535 0.94846147 -1.0828286 1.1615199e-38
-1.1507329 0.93648392 -1.0827621 1.1154224e-38
-1.1445379 0.92317951 -1.0827112 1.0786163e-38
-1.1377052 0.91022944 -1.0826558 1.0695052e-38
-1.0805213 0.79143244 -1.0821869 2.213414e-39
-1.0666221 0.76562762 -1.0820744 3.1350073e-39
-1.0601588 0.75248796 -1.0820215 3.4112369e-39
-1.0527557 0.7411716 -1.0819627 2.3052495e-39
-1.0427417 0.72839963 -1.0818843 2.8580631e-39
-1.037919 0.71662694 -1.081844 3.2282904e-39
-1.0323877 0.70086503 -1.0817965 3.1353759e-39
-1.0222987 0.68762064 -1.0817174 4.1495222e-39
-1.016169 0.67619199 -1.0816677 3.50415e-39
-1.0097533 0.66302896 -1.0816152 3.8725724e-39
-1.0025542 0.65024841 -1.0815573 3.5034325e-39
-0.99598986 0.63718331 -1.0815036 4.3328331e-39
-0.98962241 0.62399769 -1.0814515 3.5041528e-39
-0.98316652 0.61046273 -1.0813985 2.3974465e-39
-0.95701504 0.55979168 -1.0811857 4.0551644e-39
-0.95306712 0.55136383 -1.0811533 2.7550649e-40
0.29356101 -1.845656 -1.0710202 8.478398e-39
0.30026951 -1.8586762 -1.0709656 1.0597814e-38
0.30643442 -1.8719614 -1.0709149 9.3095936e-39
0.19706403 -1.64834 -1.0718099 1.0414501e-38
0.20319381 -1.6616423 -1.0717595 9.8613269e-39
0.21004933 -1.6745907 -1.0717038 1.1981109e-38
0.21725634 -1.6873676 -1.0716457 1.3731744e-38
0.22365031 -1.700541 -1.0715934 8.4787567e-39
0.2305073 -1.7134887 -1.0715377 1.1151351e-38
0.23290347 -1.7287185 -1.0715134 1.1519769e-38
0.24213432 -1.7428606 -1.07144 1.0045003e-38
0.2505087 -1.752539 -1.0713749 9.3081559e-39
0.25778824 -1.7652529 -1.0713164 1.1519771e-38
0.26199004 -1.7795938 -1.0712793 9.3999914e-39
0.26836756 -1.7927754 -1.071227 1.1243184e-38
0.27444395 -1.8061039 -1.0711769 1.0414142e-38
0.28110704 -1.819146 -1.0711226 1.3270766e-38
0.28695303 -1.832587 -1.0710741 9.1237688e-39
0.49654371 -2.2309406 -1.0693725 1.1060233e-38
0.10066043 -1.4509785 -1.0725991 8.4791169e-39
0.10713901 -1.4641106 -1.072546 1.0046443e-38
0.11313706 -1.4774772 -1.0724965 9.0322879e-39
0.12005699 -1.4903942 -1.0724404 9.7698543e-39
0.12620634 -1.503687 -1.0723897 1.0414864e-38
0.13129799 -1.5175329 -1.0723466 8.3869212e-39
0.13907602 -1.5293394 -1.0722848 9.1252038e-39
0.14400582 -1.5439513 -1.0722423 1.0875123e-38
0.15245241 -1.5534639 -1.0721768 1.0137556e-38
0.1584114 -1.5694398 -1.0721262 8.9397363e-39
0.16705024 -1.5814716 -1.0720581 1.0137555e-38
0.17178875 -1.5954993 -1.0720173 1.087476e-38
0.17804962 -1.6087378 -1.0719658 1.0323027e-38
0.18399268 -1.6221312 -1.0719167 7.8344663e-39
0.19070511 -1.6351492 -1.0718621 1.1797795e-38
0.50239891 -2.2327642 -1.0693293 1.1981466e-38
-0.0058475593 -1.2422537 -1.0734667 1.1613045e-38
0.0040361206 -1.253636 -1.0733898 1.1612685e-38
0.0069718994 -1.2685853 -1.0733615 1.0599978e-38
0.014617546 -1.2811481 -1.0733004 1.1060953e-38
0.021184389 -1.2942371 -1.0732468 7.55932e-39
0.0295515 -1.3064191 -1.0731806 8.4805574e-39
0.037584376 -1.3187449 -1.0731168 9.5861847e-39
0.044517849 -1.3316442 -1.0730606 8.4798357e-39
0.04813629 -1.3462598 -1.0730277 9.5854588e-39
0.05430926 -1.3595413 -1.0729768 9.6780146e-39
0.060559291 -1.372785 -1.0729254 8.018859e-39
0.067662753 -1.3856122 -1.0728681 9.2159616e-39
0.074588373 -1.3985264 -1.072812 7.834109e-39
0.081020504 -1.4116813 -1.0727594 9.6772985e-39
0.087871403 -1.4246318 -1.0727038 1.0506702e-38
0.094172902 -1.4378505 -1.0726521 1.1060233e-38
0.50895774 -2.228889 -1.0692836 1.2166218e-38
-1.868718 2.2465196 -1.0885661 7.7408077e-39
-1.4264079 1.4043119 -1.0849745 1.1800675e-38
-1.4196471 1.3913171 -1.0849196 1.0970201e-38
-1.406113 1.3653342 -1.0848095 1.2076903e-38
-1.3923988 1.339439 -1.0846983 1.0140805e-38
-1.8624098 2.2507281 -1.0885222 8.4787371e-39
-1.4124557 1.3785329 -1.0848616 1.3459477e-38
-1.3988857 1.3525672 -1.0847514 1.1062388e-38
-1.3847073 1.3268987 -1.0846369 1.1339339e-38
-1.3741353 1.3158618 -1.0845551 1.1154944e-38
-1.3698249 1.3018141 -1.0845175 1.0878358e-38
-1.3640628 1.2880423 -1.0844694 1.1339338e-38
-1.3561958 1.2767041 -1.0844073 1.0878717e-38
-1.3487453 1.2630097 -1.084347 1.1063108e-38
-1.3432307 1.2499616 -1.084301 1.2169096e-38
-1.3367133 1.2362632 -1.0842475 1.2537877e-38
-1.328643 1.2231399 -1.084183 1.0970554e-38
-1.3240298 1.2097939 -1.0841435 9.7720137e-39
-1.3135639 1.1986785 -1.0840626 1.189215e-38
-1.3067595 1.1857052 -1.0840073 8.3898023e-39
-1.2932385 1.159716 -1.0838974 9.7720109e-39
-1.1520921 0.88642579 -1.0827491 4.0540854e-39
-1.1473351 0.87441808 -1.0827092 1.8421147e-39
-1.140292 0.85847533 -1.0826509 2.4889191e-39
-1.1316017 0.8475436 -1.0825828 1.751354e-39
-0.99980575 0.5873704 -1.0815085 2.7665864e-39
-1.857639 2.2526052 -1.0884886 8.7545995e-39
-1.2995077 1.1729504 -1.0839489 9.0344515e-39
-1.2856382 1.147131 -1.0838366 1.1431171e-38
-1.2786033 1.1342703 -1.0837796 8.9426132e-39
-1.2718185 1.1212872 -1.0837246 1.1062392e-38
-1.2635958 1.1086385 -1.0836591 9.4028696e-39
-1.255568 1.0966883 -1.0835954 9.4032312e-39
-1.249704 1.0832283 -1.0835466 8.2968836e-39
-1.2425402 1.070475 -1.0834889 1.0693604e-38
-1.2390487 1.0558101 -1.083457 1.2814104e-38
-1.2320049 1.0429537 -1.0834 1.2721548e-38
-1.2249345 1.0301102 -1.0833428 9.6798125e-39
-1.2151606 1.0186397 -1.0832667 9.8642051e-39
-1.2104428 1.0058988 -1.0832267 1.07858e-38
-1.2048113 0.99097741 -1.0831791 1.0508853e-38
-1.1948348 0.97962344 -1.0831015 1.0232626e-38
-1.1878233 0.96675134 -1.0830449 9.9563994e-39
-1.1809168 0.95382792 -1.0829889 9.5879742e-39
-1.1742909 0.94076747 -1.082935 1.1615558e-38
-1.1669021 0.92807949 -1.0828755 1.0417015e-38
-1.1609753 0.91467798 -1.0828265 1.0232629e-38
-1.1557193 0.89980668 -1.0827816 6.5440862e-39
-1.1201879 0.8369053 -1.0824952 3.6878252e-40
-1.1138785 0.82368726 -1.0824435 2.1204995e-39
-1.1107806 0.80882293 -1.0824142 3.8718591e-39
-1.1021221 0.79702795 -1.0823461 3.7796621e-39
-1.094619 0.78155971 -1.0822846 3.3186825e-39
-1.0858792 0.77219748 -1.0822169 2.7658675e-39
-1.0809886 0.75822961 -1.082175 2.3970836e-39
-1.0751202 0.74516046 -1.0821265 2.9506161e-39
-1.0657928 0.73301393 -1.0820534 8.2975927e-40
-1.0672719 0.71578723 -1.0820562 2.6733131e-39
-1.058943 0.70361423 -1.0819904 2.3063257e-39
-1.0477602 0.69306964 -1.0819044 3.2272016e-39
-1.0398933 0.68047774 -1.0818417 3.4119516e-39
-1.0018717 0.61775929 -1.0815374 4.0573252e-39
-0.99516332 0.60473782 -1.0814828 3.9647708e-39
-0.98940378 0.58732373 -1.0814331 2.9506175e-39
-0.98251808 0.56183285 -1.0813715 3.4101579e-39
-0.97582597 0.55408317 -1.0813195 6.1767415e-39
-0.96651709 0.53705359 -1.0812442 5.9923502e-39
-1.0555084 0.7217859 -1.0819737 1.382933e-39
-1.0505368 0.70787108 -1.0819314 3.042453e-39
-1.0279914 0.67006683 -1.0817506 2.4892792e-39
-1.0220364 0.65663576 -1.0817013 3.7807509e-39
-1.0160422 0.64323813 -1.0816518 3.5041528e-39
-1.0087192 0.63054001 -1.0815929 3.7803824e-39
-1.0023583 0.61733615 -1.0815407 4.3331946e-39
-0.99439937 0.6049732 -1.0814774 4.056965e-39
-0.98872173 0.59026754 -1.0814295 3.5037899e-39
-0.98273522 0.57800496 -1.0813805 3.4115942e-39
-0.97619069 0.56489825 -1.0813271 2.5821951e-39
-0.96906871 0.5538063 -1.0812703 5.9923502e-39
0.24746178 -1.7871144 -1.0713811 8.7549849e-39
0.25357145 -1.8004267 -1.0713308 8.2021699e-39
0.26125616 -1.8129704 -1.0712694 9.9538854e-39
0.27389213 -1.8393917 -1.0711657 1.2164777e-38
0.27667338 -1.8544319 -1.0711386 1.0597813e-38
0.28580847 -1.8653772 -1.0710673 1.0505977e-38
0.29389432 -1.878457 -1.0710028 1.1336101e-38
0.30005312 -1.8917724 -1.0709521 1.2165141e-38
0.13759479 -1.5637355 -1.0722797 9.1241248e-39
0.14360167 -1.5770978 -1.0722301 1.1797075e-38
0.15056199 -1.589995 -1.0721737 9.4929059e-39
0.15746649 -1.6029193 -1.0721178 9.4932688e-39
0.1637769 -1.6161338 -1.0720659 1.0045721e-38
0.16691488 -1.6310012 -1.0720364 1.0783285e-38
0.17395397 -1.6438422 -1.0719795 9.5851043e-39
0.18196301 -1.6561717 -1.0719157 9.7691368e-39
0.18973976 -1.6688694 -1.0718536 9.1241234e-39
0.19591358 -1.6819347 -1.0718029 9.3081573e-39
0.20207648 -1.6952474 -1.0717522 1.1612689e-38
0.21024631 -1.7097236 -1.0716863 1.1427936e-38
0.21763144 -1.7201521 -1.071628 1.0414505e-38
0.22150335 -1.7346071 -1.0715934 1.1427936e-38
0.22819905 -1.7476335 -1.0715389 1.1335384e-38
0.23457901 -1.7608137 -1.0714866 8.2025314e-39
0.24111113 -1.7739199 -1.0714333 9.7687767e-39
0.26811114 -1.825919 -1.0712137 1.2810149e-38
0.48137501 -2.2313659 -1.0694823 1.1152429e-38
-0.040270291 -1.2106013 -1.0737305 1.2995257e-38
-0.033031058 -1.2233626 -1.0736722 1.2811224e-38
-0.026446957 -1.2364434 -1.0736185 1.1429014e-38
-0.020376619 -1.2497748 -1.0735685 1.0507418e-38
-0.013716949 -1.2628185 -1.0735142 1.2350968e-38
-0.0067217518 -1.2756988 -1.0734576 1.0323031e-38
-0.0018005882 -1.289607 -1.0734155 1.2350252e-38
0.003230138 -1.303522 -1.0733727 1.0415222e-38
0.01043224 -1.3163048 -1.0733147 1.0230471e-38
0.02091201 -1.3273885 -1.0732337 9.9546015e-39
0.027347308 -1.3405418 -1.0731809 7.5578822e-39
0.033819675 -1.3536772 -1.0731281 8.2032489e-39
0.040191971 -1.3668613 -1.0730759 9.0322907e-39
0.043629054 -1.3815795 -1.0730442 9.3085174e-39
0.053989768 -1.3927155 -1.0729641 9.8613339e-39
0.06098064 -1.405598 -1.0729074 1.0322309e-38
0.067101538 -1.4189047 -1.072857 1.1060593e-38
0.071351856 -1.4331914 -1.0728196 9.6776573e-39
0.079838581 -1.4456789 -1.0727524 9.4017892e-39
0.08542686 -1.4588832 -1.0727057 9.584747e-39
0.091273464 -1.4723586 -1.0726572 1.0691093e-38
0.10002748 -1.4852782 -1.072588 1.0690732e-38
0.10782922 -1.4967359 -1.0725261 1.1704521e-38
0.11553753 -1.5092304 -1.0724646 9.2166819e-39
0.11817233 -1.5243324 -1.0724386 7.6493604e-39
0.1249377 -1.5373244 -1.0723835 1.0322309e-38
0.13121778 -1.5505537 -1.072332 1.115171e-38
0.49034277 -2.2371657 -1.0694146 1.2165857e-38
0.49383208 -2.2324071 -1.0693915 1.152121e-38
-1.8880872 2.2539723 -1.0887098 7.3727525e-39
-1.8811761 2.2463088 -1.0886562 7.3720336e-39
-1.4470022 1.4097929 -1.0851263 1.1062755e-38
-1.44137 1.3965387 -1.0850794 1.2814105e-38
-1.4349546 1.3833621 -1.085027 1.1062394e-38
-1.426685 1.3698906 -1.0849608 1.2537881e-38
-1.4153008 1.344044 -1.0848664 1.2445683e-38
-1.4086102 1.3310128 -1.0848119 1.0325546e-38
-1.3985939 1.3196913 -1.0847342 1.0417743e-38
-1.3921714 1.3065318 -1.0846816 1.0325189e-38
-1.3842857 1.2940861 -1.0846188 1.1154944e-38
-1.3774157 1.2811449 -1.0845631 9.7723738e-39
-1.3509384 1.2288907 -1.0843472 1.0509936e-38
-1.8745116 2.2440851 -1.088607 7.6482548e-39
-1.3704548 1.2682478 -1.0845066 9.3113971e-39
-1.3626581 1.2557589 -1.0844444 1.0233709e-38
-1.3565491 1.2424463 -1.0843941 1.0233351e-38
-1.3433392 1.2163051 -1.0842865 1.189251e-38
-1.3359095 1.2036369 -1.0842267 9.4032312e-39
-1.3288732 1.1920403 -1.0841703 1.0970197e-38
-1.3220843 1.1777529 -1.0841148 1.0324829e-38
-1.3159233 1.1644394 -1.0840639 8.5738306e-39
-1.3083169 1.1518829 -1.0840031 1.2076179e-38
-1.3020208 1.1386378 -1.0839514 1.1984343e-38
-1.2944345 1.1260854 -1.0838907 1.0232629e-38
-1.2881501 1.1155871 -1.0838404 9.9560392e-39
-1.2792461 1.1010108 -1.0837691 1.2998139e-38
-1.2734158 1.0867579 -1.0837203 1.0509214e-38
-1.2690437 1.073243 -1.0836823 1.1799236e-38
-1.2605677 1.0611626 -1.0836154 1.1523365e-38
-1.2558672 1.0470803 -1.0835748 1.1246777e-38
-1.2450879 1.0361383 -1.0834917 1.2814102e-38
-1.2379804 1.0233129 -1.0834343 1.0601407e-38
-1.1743374 0.89136076 -1.0829126 4.2377536e-39
-1.1661148 0.8811841 -1.0828483 3.5019948e-39
-1.1587383 0.86435777 -1.0827872 9.2123603e-40
-1.1543188 0.85222262 -1.0827496 2.6729488e-39
-1.1456479 0.84024012 -1.0826813 3.1346556e-39
-1.1401373 0.82659841 -1.082635 2.4892834e-39
-1.1341026 0.8132177 -1.0825852 1.9361082e-39
-1.1255379 0.80137199 -1.0825177 2.9502588e-39
-1.117326 0.78890419 -1.0824524 4.2406388e-39
-1.1102957 0.77604103 -1.0823957 4.0562448e-39
-1.1075692 0.76097715 -1.082369 3.3190455e-39
-1.0973741 0.74975926 -1.0822899 3.7800194e-39
-1.090149 0.73699129 -1.0822318 3.4112327e-39
-1.0827205 0.72432268 -1.082172 2.581472e-39
-1.0763429 0.71114099 -1.0821199 2.6733131e-39
-0.97156847 0.50157046 -1.0812645 5.5208917e-40
-1.871835 2.2512732 -1.0885907 8.3861814e-39
-1.230792 1.0105273 -1.0833764 8.9429649e-39
-1.223682 0.9977029 -1.0833189 1.2168014e-38
-1.2159473 0.98518366 -1.0832572 1.0693243e-38
-1.2062992 0.97369194 -1.0831819 1.0140429e-38
-1.2032553 0.96078372 -1.083154 9.7716494e-39
-1.1971917 0.94535416 -1.0831031 9.5872581e-39
-1.1895486 0.93281645 -1.0830418 1.0600691e-38
-1.1810298 0.91829664 -1.0829735 1.0509216e-38
-1.1731521 0.90839469 -1.0829117 1.1339697e-38
-1.0750682 0.72823906 -1.0821184 2.581472e-39
-1.0683492 0.69874811 -1.0820563 2.3063257e-39
-1.0604606 0.68630385 -1.0819933 3.2272044e-39
-1.0533314 0.67265725 -1.0819355 2.6736719e-39
-1.0455045 0.66101474 -1.0818734 2.7655046e-39
-1.0386409 0.64807039 -1.0818177 2.4896379e-39
-1.0310735 0.63546944 -1.0817572 2.0279423e-39
-0.99425828 0.57214355 -1.0814612 2.6740306e-39
-0.99127108 0.55715048 -1.0814328 1.7520757e-39
-0.98502713 0.5438835 -1.0813814 3.7796593e-39
-0.97781259 0.53111041 -1.0813234 5.8998014e-39
-1.022681 0.62327111 -1.0816907 1.751717e-39
-1.0165071 0.60999012 -1.0816399 4.4253888e-39
-1.0095847 0.59707451 -1.0815837 4.1491593e-39
-1.0027428 0.58411956 -1.0815282 3.8732955e-39
-0.99641925 0.57091165 -1.0814764 3.8725738e-39
-0.96937668 0.5189333 -1.0812566 5.6235705e-39
-0.96284872 0.5058251 -1.0812033 5.163307e-39
-0.95617235 0.49278939 -1.081149 5.8072345e-39
0.18125126 -1.6895059 -1.0719057 1.0322311e-38
0.1875204 -1.7027401 -1.0718542 9.9538882e-39
0.19476858 -1.715497 -1.0717958 1.1704522e-38
0.20144255 -1.7285339 -1.0717415 9.400713e-39
0.20728986 -1.7419739 -1.0716929 1.0137196e-38
0.21118607 -1.7564445 -1.0716581 1.0690729e-38
0.21997763 -1.7684554 -1.0715889 8.4787581e-39
0.22581932 -1.781848 -1.0715404 9.123766e-39
0.23163284 -1.7953485 -1.0714921 9.5843826e-39
0.24087995 -1.8070509 -1.0714197 9.584747e-39
0.24754363 -1.820093 -1.0713654 9.492194e-39
0.25364125 -1.8337097 -1.0713151 1.1611606e-38
0.26139614 -1.8458748 -1.0712532 1.050598e-38
0.26612517 -1.8599066 -1.0712125 1.1519408e-38
0.27318308 -1.872756 -1.0711555 1.1704162e-38
0.27873871 -1.8863385 -1.0711091 1.3178207e-38
0.28504372 -1.8995556 -1.0710573 1.0136833e-38
0.46111545 -2.2385497 -1.0696257 1.115171e-38
0.085252568 -1.4919465 -1.0726919 1.0597818e-38
0.091559 -1.5051628 -1.0726402 7.9259445e-39
0.098715119 -1.5179645 -1.0725825 8.4791169e-39
0.11149547 -1.5443151 -1.0724778 8.9397349e-39
0.11836694 -1.5572556 -1.072422 1.1612685e-38
0.12402031 -1.5707905 -1.0723748 1.1613045e-38
0.13016079 -1.5822215 -1.0723251 1.2903421e-38
0.13837902 -1.596308 -1.0722591 8.7560639e-39
0.1446045 -1.6095835 -1.0722079 8.5713139e-39
0.15159781 -1.6224542 -1.0721514 1.0230109e-38
0.15564238 -1.6368277 -1.0721155 1.1889273e-38
0.16245657 -1.6497962 -1.0720601 9.5851057e-39
0.16893154 -1.6629304 -1.0720072 1.0322311e-38
0.17532741 -1.676103 -1.0719548 1.0045359e-38
0.46592262 -2.2372017 -1.0695916 1.2258052e-38
-0.069619 -1.1928573 -1.0739514 1.1704882e-38
-0.061780177 -1.2052826 -1.0738889 1.087584e-38
-0.055150304 -1.2183441 -1.0738349 1.2165859e-38
-0.048347466 -1.2313181 -1.0737796 1.1428654e-38
-0.04024129 -1.2437789 -1.0737151 1.1429014e-38
-0.034603175 -1.2571868 -1.0736681 1.0875839e-38
-0.026955789 -1.2671567 -1.0736082 1.2166216e-38
-0.020366566 -1.2826227 -1.0735533 1.3087455e-38
-0.014719713 -1.2963262 -1.0735061 1.2257697e-38
-0.0077247294 -1.3092065 -1.0734495 1.133646e-38
-0.0019602121 -1.3226873 -1.0734016 1.1797075e-38
0.0085192509 -1.3337767 -1.0733205 1.1243903e-38
0.015509097 -1.3466498 -1.073264 8.0188576e-39
0.021855997 -1.3598666 -1.0732119 7.558241e-39
0.029461753 -1.3724216 -1.073151 7.9270221e-39
0.032199059 -1.3874863 -1.0731243 9.032648e-39
0.042321384 -1.3987522 -1.0730457 8.1106945e-39
0.049074791 -1.4117539 -1.0729908 9.5851015e-39
0.055168588 -1.4251071 -1.0729406 1.1704879e-38
0.05889469 -1.439634 -1.0729069 1.0967676e-38
0.065647766 -1.4526323 -1.072852 1.0046799e-38
0.072034858 -1.4658093 -1.0727998 8.2025314e-39
0.078933872 -1.4787364 -1.0727438 1.1612689e-38
0.10557216 -1.5309122 -1.0725268 9.2170421e-39
0.47355223 -2.2344654 -1.0695375 1.1705241e-38
-1.9025732 2.2463787 -1.0888114 6.5393709e-39
-1.8959332 2.2450898 -1.0887626 7.0918216e-39
-1.4341627 1.3507844 -1.0850062 1.3182889e-38
-1.4273003 1.3378395 -1.0849506 1.2814465e-38
-1.4205271 1.3248509 -1.0848956 1.0048959e-38
-1.4097806 1.3139009 -1.0848126 9.8642093e-39
-1.4040856 1.3003389 -1.0847652 9.2192001e-39
-1.3999873 1.2885177 -1.08473 1.1892509e-38
-1.3927693 1.2731857 -1.0846707 9.8642079e-39
-1.3874056 1.2594531 -1.0846255 1.1431531e-38
-1.3784041 1.247689 -1.0845549 1.2537521e-38
-1.3712233 1.2340513 -1.0844966 1.0602133e-38
-1.3672922 1.2203892 -1.0844618 1.2445325e-38
-1.3573481 1.209038 -1.0843847 1.235313e-38
-1.3568954 1.1927696 -1.0843738 1.1707037e-38
-1.3425431 1.1836752 -1.0842656 1.1707762e-38
-1.3360478 1.1540837 -1.0842052 1.143045e-38
-1.3247504 1.1434591 -1.0841184 1.3642783e-38
-1.3180027 1.1304601 -1.0840635 1.2813742e-38
-1.3111767 1.117503 -1.0840081 1.0877634e-38
-1.3030063 1.1052063 -1.0839432 1.060105e-38
-1.174136 0.85851288 -1.0828961 1.1059902e-39
-1.1682761 0.84507889 -1.0828475 3.6874595e-39
-1.1611385 0.83226818 -1.0827899 3.5952736e-39
-1.9035065 2.2621791 -1.0888253 6.9978155e-39
-1.8939379 2.248801 -1.0887499 7.0914629e-39
-1.3489017 1.1968658 -1.0843178 7.8366257e-39
-1.3347162 1.1712008 -1.0842032 9.126287e-39
-1.3285476 1.1579174 -1.0841525 9.4028724e-39
-1.2947222 1.092955 -1.0838776 1.0877638e-38
-1.2876616 1.0801067 -1.0838205 1.0232269e-38
-1.2811346 1.0669982 -1.0837672 1.2905583e-38
-1.2738596 1.0542547 -1.0837085 1.2906299e-38
-1.2665244 1.0415403 -1.0836495 1.2352764e-38
-1.2575952 1.0271794 -1.0835782 9.4035857e-39
-1.2529104 1.0155654 -1.0835389 1.2168014e-38
-1.2461283 1.0025761 -1.0834838 1.0877637e-38
-1.2405306 0.98896301 -1.0834371 9.2191958e-39
-1.2303156 0.97774112 -1.0833579 1.0232628e-38
-1.1995814 0.91120291 -1.0831046 9.863852e-39
-1.192036 0.89862072 -1.0830442 7.0061434e-39
-1.1870612 0.88882995 -1.0830036 4.4221434e-39
-1.1803665 0.87176627 -1.0829474 3.5023535e-39
-1.1522963 0.82028925 -1.0827203 4.0569692e-39
-1.1437433 0.80609107 -1.0826517 1.3829344e-39
-1.1353658 0.79596353 -1.0825864 1.0141547e-39
-1.1299499 0.7803188 -1.08254 4.6098095e-40
-1.1225863 0.76968378 -1.0824819 4.6098095e-40
-1.1181489 0.75548422 -1.0824431 3.134657e-39
-1.1085302 0.74232674 -1.0823674 2.1201394e-39
-1.1049271 0.72929418 -1.0823354 2.3048893e-39
-1.0955759 0.71761835 -1.0822622 1.1063476e-39
-1.0889472 0.70455927 -1.0822082 9.1838299e-41
-1.0838048 0.69073176 -1.0821645 2.3967276e-39
-1.888871 2.2509964 -1.0887141 7.7375567e-39
-1.2224545 0.96528357 -1.0832952 1.0048236e-38
-1.2157263 0.95227313 -1.0832405 9.4028682e-39
-1.2083852 0.93956172 -1.0831814 9.3106726e-39
-1.2024074 0.92618501 -1.083132 1.152193e-38
-1.125962 0.78428155 -1.082513 6.4536941e-40
-1.0737038 0.6794104 -1.0820862 2.7658829e-40
-1.0662959 0.66794378 -1.0820273 3.0420914e-39
-1.0585072 0.65498102 -1.0819649 3.226847e-39
-1.0500422 0.64216989 -1.0818977 3.0424516e-39
-1.0430883 0.62926912 -1.0818413 2.3048893e-39
-1.0390464 0.61553466 -1.0818057 1.9357495e-39
-1.0331477 0.60136801 -1.0817566 1.3829358e-39
-1.0269362 0.58808148 -1.0817055 2.3048935e-39
-1.016544 0.57695377 -1.081625 3.0431789e-39
-1.0136465 0.56197631 -1.0815971 3.0424544e-39
-1.003558 0.54994035 -1.0815185 2.3048893e-39
-0.99972391 0.53620857 -1.0814844 2.7658661e-39
-0.99354666 0.52290034 -1.0814335 4.7008939e-39
-0.98335356 0.51168168 -1.0813545 5.8990784e-39
-0.97688258 0.49854574 -1.0813017 5.6221412e-39
-0.96997869 0.48562104 -1.0812457 5.5313721e-39
-0.96242148 0.47301513 -1.0811852 5.1615133e-39
-0.95523775 0.46022692 -1.0811272 4.8860012e-39
0.2522361 -1.8671151 -1.0713099 1.078293e-38
0.25853556 -1.8803349 -1.0712582 9.7687753e-39
0.26499176 -1.8934779 -1.0712054 9.1237632e-39
0.27158391 -1.9065547 -1.0711516 7.9248585e-39
0.12898524 -1.6176798 -1.0723174 7.7422721e-39
0.13556324 -1.6307636 -1.0722637 1.1613049e-38
0.14209485 -1.64387 -1.0722103 1.0598174e-38
0.14813423 -1.6572163 -1.0721605 7.7415532e-39
0.15464066 -1.6703351 -1.0721074 9.2156001e-39
0.15830056 -1.6849357 -1.0720742 9.216319e-39
0.16819637 -1.6963075 -1.0719972 9.6769356e-39
0.1743117 -1.7084892 -1.0719473 9.8602493e-39
0.18047547 -1.7225182 -1.0718962 1.0505977e-38
0.18835452 -1.7353089 -1.0718333 1.2164416e-38
0.19631204 -1.7476771 -1.07177 8.2018097e-39
0.19994958 -1.7622807 -1.0717368 1.0413782e-38
0.20579998 -1.7757195 -1.0716883 1.2717591e-38
0.2123047 -1.7888391 -1.0716351 9.7687753e-39
0.21900684 -1.8018621 -1.0715805 8.9393734e-39
0.23050517 -1.8124387 -1.0714924 8.3865625e-39
0.23518148 -1.8265374 -1.0714521 1.0322309e-38
0.23981176 -1.8405907 -1.0714122 1.1611249e-38
0.2462777 -1.8537292 -1.0713592 1.2072228e-38
0.44801021 -2.2378654 -1.0697211 1.1612686e-38
-0.041687753 -1.2773299 -1.0737102 1.1889632e-38
-0.035246644 -1.2904805 -1.0736575 1.3825376e-38
-0.028515568 -1.3034894 -1.0736028 1.2533924e-38
-0.022132652 -1.3166684 -1.0735506 1.2533924e-38
-0.015811278 -1.3298774 -1.0734986 1.0597814e-38
-0.0093278289 -1.3430071 -1.0734457 1.2442442e-38
-0.0021438685 -1.3557953 -1.0733876 1.2441364e-38
0.0045452658 -1.3688246 -1.0733333 1.3086731e-38
0.0080004139 -1.3835222 -1.0733016 1.1151348e-38
0.018613303 -1.3945471 -1.0732194 7.9266648e-39
0.02540808 -1.4075251 -1.0731643 6.7284831e-39
0.039265137 -1.4333504 -1.073052 1.1244983e-38
0.045651156 -1.4465278 -1.0729998 8.8486183e-39
0.051726609 -1.4598567 -1.0729496 9.8616898e-39
0.058601312 -1.4727957 -1.0728939 9.8616898e-39
0.064905733 -1.4860129 -1.0728421 9.8616884e-39
0.068470411 -1.5006683 -1.0728096 9.3088761e-39
0.077085458 -1.5126761 -1.0727417 9.4939891e-39
0.084800653 -1.5278033 -1.0726788 9.7698529e-39
0.091951281 -1.5379475 -1.0726223 1.1336817e-38
0.099824168 -1.5503584 -1.0725596 1.0598896e-38
0.10600691 -1.563647 -1.0725087 9.953168e-39
0.1135442 -1.5762423 -1.0724483 9.7691382e-39
0.11737296 -1.5907592 -1.0724139 1.0691092e-38
0.12294368 -1.6043344 -1.0723673 9.6765783e-39
0.45152152 -2.2331493 -1.0696979 1.2258052e-38
-0.080859676 -1.1986831 -1.0740302 1.1797436e-38
-0.074505188 -1.2118759 -1.0739781 1.0875482e-38
-0.067667805 -1.224833 -1.0739226 1.1797076e-38
-0.061158057 -1.2379501 -1.0738693 1.2258054e-38
-0.054275293 -1.2508851 -1.0738136 1.0966961e-38
-0.047983985 -1.2641088 -1.0737619 1.0230832e-38
0.033010233 -1.4201092 -1.0731034 1.0321948e-38
0.46143961 -2.2367451 -1.0696243 1.1797438e-38
-1.9258759 2.2616549 -1.0889871 6.3528076e-39
-1.4379804 1.315801 -1.0850179 1.0233348e-38
-1.4275767 1.3046862 -1.0849373 9.8645667e-39
-1.4203752 1.2919066 -1.0848793 9.2192001e-39
-1.3524442 1.162119 -1.0843275 1.1154222e-38
-1.915244 2.2585094 -1.0889087 6.9048996e-39
-1.9043522 2.2453721 -1.0888238 6.4464592e-39
-1.4128079 1.2793056 -1.0848187 1.2353487e-38
-1.4050479 1.2667986 -1.0847567 9.9564022e-39
-1.398366 1.2537656 -1.0847024 1.0048598e-38
-1.3912227 1.2409577 -1.0846447 1.2906302e-38
-1.3839645 1.2282058 -1.0845863 9.4954268e-39
-1.3774263 1.2151027 -1.0845329 1.2168739e-38
-1.3707746 1.2031401 -1.0844792 1.1338616e-38
-1.3658758 1.1881518 -1.0844368 1.1707037e-38
-1.3550353 1.1772515 -1.0843533 1.1338614e-38
-1.3452057 1.1658225 -1.0842768 1.1154222e-38
-1.3321148 1.1231582 -1.0841624 1.3366556e-38
-1.3242885 1.1106837 -1.0841 1.0877634e-38
-1.3147577 1.0991057 -1.0840255 1.2905936e-38
-1.3094828 1.0852394 -1.083981 1.1799234e-38
-1.3014281 1.072958 -1.083917 1.0416659e-38
-1.2947031 1.0599458 -1.0838623 1.0140073e-38
-1.2879854 1.0469304 -1.0838077 1.253716e-38
-1.27393 1.0212018 -1.0836939 1.1983984e-38
-1.2667701 1.008402 -1.0836362 1.2444241e-38
-1.2599868 0.99541849 -1.083581 1.207582e-38
-1.206467 0.89118594 -1.0831454 4.7930853e-39
-1.1946261 0.86544782 -1.0830477 1.5662439e-39
-1.1895124 0.85287291 -1.083005 1.8428294e-39
-1.1819105 0.83796901 -1.0829431 2.8569813e-39
-1.1734978 0.8258059 -1.0828764 3.5956296e-39
-1.1665354 0.81290978 -1.0828202 3.7796635e-39
-1.1327432 0.74793136 -1.0825455 2.7623376e-40
-1.1254276 0.7352075 -1.0824866 2.4889247e-39
-1.1185858 0.72225261 -1.0824311 2.6733103e-39
-1.110597 0.69344097 -1.08236 2.1205009e-39
-1.9182271 2.2698805 -1.0889355 6.9978155e-39
-1.2799344 1.0345653 -1.0837436 1.0693606e-38
-1.2523898 0.98283207 -1.0835203 9.3106726e-39
-1.2427963 0.97127825 -1.0834453 9.9560406e-39
-1.2364291 0.95808166 -1.0833931 1.0877998e-38
-1.2309813 0.94501817 -1.0833477 9.3106768e-39
-1.2251329 0.93090296 -1.0832988 9.1262828e-39
-1.2174371 0.91644424 -1.0832365 9.956405e-39
-1.2122232 0.90467066 -1.0831933 9.4957911e-39
-1.1982712 0.87889159 -1.0830803 2.11798e-39
-1.1578386 0.80085993 -1.0827515 1.1063476e-39
-1.1519371 0.7896564 -1.0827037 6.4536941e-40
-1.143317 0.77532721 -1.0826346 3.6878532e-40
-1.1374655 0.76430732 -1.0825872 3.6842939e-40
-1.1070849 0.71167803 -1.082343 2.5811203e-39
-1.1003989 0.69862849 -1.0822884 1.6591654e-39
-1.0980043 0.68341488 -1.0822642 2.3967304e-39
-1.089321 0.67387068 -1.0821968 1.751717e-39
-1.0839843 0.65757477 -1.0821507 3.9647666e-39
-1.0732814 0.64659798 -1.0820682 2.1204981e-39
-1.0678076 0.63297552 -1.0820222 2.0279409e-39
-1.064049 0.61841643 -1.0819882 2.7651472e-39
-0.96868634 0.4369399 -1.0812141 6.1767401e-39
-1.0526625 0.60777873 -1.0819008 1.3829344e-39
-1.045561 0.59495038 -1.0818435 1.3829344e-39
-1.0383679 0.58216673 -1.0817856 2.3970892e-39
-1.0286577 0.5706808 -1.08171 1.6595185e-39
-1.0246483 0.55627424 -1.0816742 2.4885631e-39
-1.0182984 0.54307926 -1.0816222 3.5034283e-39
-1.0110291 0.53033274 -1.0815637 3.5034297e-39
-1.0041856 0.51737869 -1.0815082 5.8987154e-39
-0.99410629 0.50610226 -1.08143 5.5302987e-39
-0.98745108 0.49305105 -1.0813758 5.438103e-39
-0.98037618 0.48022389 -1.0813185 4.9782011e-39
-0.97481447 0.46659905 -1.081272 5.1615105e-39
-0.97127032 0.45394665 -1.0812405 5.1615091e-39
-0.96147943 0.44045636 -1.0811634 5.0693149e-39
-0.95467198 0.4274846 -1.0811082 5.1625895e-39
0.1795274 -1.7563838 -1.0718876 9.4003529e-39
0.18621252 -1.7694153 -1.0718331 1.1611965e-38
0.19218272 -1.7827954 -1.0717838 1.4099445e-38
0.19847932 -1.7960166 -1.071732 1.041378e-38
0.20485766 -1.8094788 -1.0716797 1.2164418e-38
0.20931852 -1.8233905 -1.071641 9.0312103e-39
0.21609801 -1.8363693 -1.0715859 1.1887833e-38
0.22234449 -1.8496478 -1.0715345 1.1979667e-38
0.23140438 -1.861514 -1.0714635 1.1150269e-38
0.23819871 -1.8764342 -1.0714074 1.0229033e-38
0.24660316 -1.8865111 -1.0713419 9.8602493e-39
0.2532523 -1.8995609 -1.0712876 1.0875121e-38
0.26011738 -1.9124999 -1.071232 9.3077971e-39
0.42122522 -2.2235355 -1.0699217 1.1613049e-38
0.082665987 -1.5592456 -1.0726799 9.493266e-39
