# .PCD v0.7 - Point Cloud Data file format
VERSION 0.7
FIELDS x y z rgb
SIZE 4 4 4 4
TYPE F F F F
COUNT 1 1 1 1
WIDTH 1037
HEIGHT 1
VIEWPOINT 0 0 0 1 0 0 0
POINTS 1037
DATA ascii
2.8918388 1.2682077 -1.0536155 2.3418052e-38
2.8941932 1.2529725 -1.0535914 2.3418052e-38
2.8966436 1.2375519 -1.0535665 2.3418052e-38
2.9066677 1.2109736 -1.0534818 2.3418052e-38
2.9038241 1.1737709 -1.0534853 2.3418052e-38
2.9031284 1.1590532 -1.0534835 2.3418052e-38
2.8956878 1.140406 -1.053529 2.3418052e-38
2.8954961 1.105418 -1.0535144 2.3418052e-38
2.902812 1.0594597 -1.0534403 2.3418052e-38
2.8966126 1.0239029 -1.0534688 2.3418052e-38
2.8981304 1.0075326 -1.0534505 2.3418052e-38
2.9087048 0.94731784 -1.0533463 2.3418052e-38
2.9136872 0.91737437 -1.0532964 2.3418052e-38
2.9177103 0.90301841 -1.0532608 2.3418052e-38
2.9217708 0.87110466 -1.0532166 2.3418052e-38
2.9250329 0.85644847 -1.0531863 2.3418052e-38
2.9253621 0.83131552 -1.0531722 2.3418052e-38
2.923481 0.80663323 -1.0531747 2.3418052e-38
2.9193482 0.78612006 -1.0531952 2.3418052e-38
2.9112804 0.75021309 -1.0532373 2.3418052e-38
2.917913 0.70408404 -1.0531679 2.3418052e-38
2.916923 0.6879968 -1.0531679 2.3418052e-38
2.9164562 0.6705693 -1.0531634 2.3418052e-38
2.9185729 0.65892261 -1.0531425 2.3418052e-38
2.9200506 0.63573182 -1.0531213 2.3418052e-38
2.9284494 0.61056644 -1.0530488 2.3418052e-38
2.9240515 0.59187222 -1.0530722 2.3418052e-38
2.9169631 0.57577693 -1.0531162 2.3418052e-38
2.9132249 0.53714538 -1.0531256 2.3418052e-38
2.9117491 0.52375543 -1.0531301 2.3418052e-38
2.9127331 0.5016709 -1.0531129 2.3418052e-38
2.9169643 0.45698375 -1.0530617 2.3418052e-38
2.9187946 0.44051015 -1.0530411 2.3418052e-38
2.9212399 0.42525634 -1.0530162 2.3418052e-38
2.9228888 0.40860841 -1.0529966 2.3418052e-38
2.9231412 0.3784467 -1.0529809 2.3418052e-38
2.9232166 0.36015508 -1.0529721 2.3418052e-38
2.9184828 0.34144717 -1.0529978 2.3418052e-38
2.9209745 0.3098883 -1.0529653 2.3418052e-38
2.9184518 0.29186356 -1.0529752 2.3418052e-38
2.9176047 0.27424896 -1.0529734 2.3418052e-38
2.9344158 0.21745846 -1.0528257 2.3418052e-38
2.9298108 0.16587844 -1.0528353 2.3418052e-38
2.9318156 0.13384509 -1.0528061 2.3418052e-38
2.9330907 0.11587751 -1.0527885 2.3418052e-38
2.9517195 0.06167319 -1.0526288 2.3418052e-38
2.9249301 0.0145167 -1.0528015 2.3418052e-38
2.9318955 -0.030409731 -1.0527302 2.3418052e-38
2.9540973 -0.08621183 -1.0525438 2.3418052e-38
2.9566796 -0.10096769 -1.0525184 2.3418052e-38
2.9548297 -0.11953632 -1.0525233 2.3418052e-38
2.9507024 -0.15373105 -1.0525374 2.3418052e-38
2.9533801 -0.16882533 -1.0525112 2.3418052e-38
2.9545434 -0.18554077 -1.0524951 2.3418052e-38
2.9430256 -0.22109741 -1.0525621 2.3418052e-38
2.947408 -0.25411355 -1.0525154 2.3418052e-38
2.9483216 -0.27033883 -1.0525013 2.3418052e-38
2.9498744 -0.28817132 -1.0524819 2.3418052e-38
2.9590194 -0.33029512 -1.0523963 2.3418052e-38
2.9612436 -0.35440108 -1.0523691 2.3418052e-38
2.9604325 -0.36071473 -1.0523721 2.3418052e-38
2.9566193 -0.39810547 -1.0523827 2.3418052e-38
2.9608648 -0.42870942 -1.0523379 2.3418052e-38
2.9611473 -0.43240586 -1.0523342 2.3418052e-38
2.9573593 -0.46272808 -1.0523477 2.3418052e-38
2.9507015 -0.48408172 -1.0523862 2.3418052e-38
2.945627 -0.49897394 -1.0524161 2.3418052e-38
2.9448543 -0.53581518 -1.0524049 2.3418052e-38
2.9446614 -0.56797999 -1.0523914 2.3418052e-38
2.9473116 -0.58414739 -1.0523649 2.3418052e-38
2.9519668 -0.59751898 -1.052325 2.3418052e-38
2.9525754 -0.61481708 -1.0523129 2.3418052e-38
2.9533045 -0.63046187 -1.0523002 2.3418052e-38
2.9551904 -0.64651597 -1.0522792 2.3418052e-38
2.9582372 -0.66128504 -1.0522504 2.3418052e-38
2.9543297 -0.67212147 -1.0522736 2.3418052e-38
2.9443893 -0.70160389 -1.0523323 2.3418052e-38
2.943538 -0.71064198 -1.0523342 2.3418052e-38
2.9547362 -0.76333779 -1.0522292 2.3418052e-38
2.9560714 -0.8271879 -1.0521901 2.3418052e-38
2.9799387 -0.89745498 -1.0519849 2.3418052e-38
2.981931 -0.91102803 -1.0519642 2.3418052e-38
2.9868765 -0.94322288 -1.0519137 2.3418052e-38
2.9793835 -0.97395658 -1.0519539 2.3418052e-38
2.9791515 -0.98164296 -1.0519521 2.3418052e-38
2.9768534 -0.99790353 -1.0519614 2.3418052e-38
2.9776857 -1.0137889 -1.051948 2.3418052e-38
2.9736369 -1.0660231 -1.0519533 2.3418052e-38
2.9745879 -1.0821668 -1.0519392 2.3418052e-38
2.9777045 -1.1130197 -1.0519024 2.3418052e-38
2.9886594 -1.140377 -1.0518104 2.3418052e-38
2.9919789 -1.2046117 -1.0517569 2.3418052e-38
2.995647 -1.2360734 -1.0517159 2.3418052e-38
3.0018768 -1.2491676 -1.0516648 2.3418052e-38
3.0015974 -1.2588351 -1.0516626 2.3418052e-38
2.9954429 -1.2841216 -1.0516956 2.3418052e-38
2.986923 -1.3078586 -1.0517464 2.3418052e-38
2.9809752 -1.3258244 -1.0517812 2.3418052e-38
2.9811296 -1.3622237 -1.0517634 2.3418052e-38
2.9822805 -1.3737088 -1.0517499 2.3418052e-38
2.9840949 -1.3904196 -1.051729 2.3418052e-38
2.9877353 -1.4050475 -1.0516959 2.3418052e-38
2.9880614 -1.4136626 -1.0516896 2.3418052e-38
2.9840214 -1.4565945 -1.0516992 2.3418052e-38
2.9860766 -1.4888045 -1.0516696 2.3418052e-38
2.9878962 -1.5073885 -1.051648 2.3418052e-38
2.9971182 -1.530871 -1.0515703 2.3418052e-38
2.9920309 -1.5665482 -1.0515908 2.3418052e-38
3.0020409 -1.5955546 -1.051505 2.3418052e-38
3.0028467 -1.6037711 -1.0514954 2.3418052e-38
2.9956777 -1.6471797 -1.0515275 2.3418052e-38
2.9927502 -1.6647755 -1.0515406 2.3418052e-38
2.9775925 -1.7237837 -1.0516233 2.3418052e-38
2.977545 -1.7402153 -1.0516162 2.3418052e-38
2.991365 -1.7821037 -1.0514969 2.3418052e-38
2.9980597 -1.7957704 -1.0514423 2.3418052e-38
3.0158257 -1.835688 -1.051295 2.3418052e-38
3.0187702 -1.8676052 -1.0512592 2.3418052e-38
3.0187244 -1.9005278 -1.0512443 2.3418052e-38
3.027384 -1.928892 -1.0511686 2.3418052e-38
3.0184102 -1.9510336 -1.0512234 2.3418052e-38
3.0107217 -1.9913385 -1.0512607 2.3418052e-38
3.0097256 -2.0228333 -1.0512534 2.3418052e-38
3.0147102 -2.0514359 -1.0512042 2.3418052e-38
3.0279262 -2.0774143 -1.0510967 2.3418052e-38
3.0294967 -2.093112 -1.051078 2.3418052e-38
3.0207915 -2.1165278 -1.0511304 2.3418052e-38
3.0173833 -2.1341355 -1.0511472 2.3418052e-38
3.0067453 -2.1432533 -1.0512201 2.3418052e-38
2.9859128 -2.2143168 -1.0513384 2.3418052e-38
2.97598 -2.2185602 -1.0514085 2.3418052e-38
2.9128475 -2.2454967 -1.0518537 2.3418052e-38
2.9019399 -2.2423823 -1.0519341 2.3418052e-38
2.7973042 -2.2300572 -1.0526981 2.3418052e-38
2.7861366 -2.220943 -1.0527833 2.3418052e-38
2.7527342 -2.2000461 -1.0530348 2.3418052e-38
2.7353811 -2.1970305 -1.0531621 2.3418052e-38
2.6861503 -2.2019413 -1.0535166 2.3418052e-38
2.6635857 -2.1995957 -1.0536813 2.3418052e-38
2.6347973 -2.1993899 -1.05389 2.3418052e-38
2.6185119 -2.1987178 -1.0540082 2.3418052e-38
2.6040237 -2.2001822 -1.0541127 2.3418052e-38
2.5774808 -2.2019246 -1.0543042 2.3418052e-38
2.5494657 -2.2072513 -1.0545049 2.3418052e-38
2.5438647 -2.2079403 -1.054545 2.3418052e-38
2.5153682 -2.2097249 -1.0547508 2.3418052e-38
2.4529686 -2.2256866 -1.0551957 2.3418052e-38
2.4056604 -2.2344348 -1.0555346 2.3418052e-38
2.3817699 -2.2299631 -1.0557098 2.3418052e-38
2.3561618 -2.2273538 -1.0558965 2.3418052e-38
2.3285239 -2.2244992 -1.0560981 2.3418052e-38
2.2787871 -2.2186069 -1.0564613 2.3418052e-38
2.2498486 -2.2187364 -1.056671 2.3418052e-38
2.2440817 -2.2191975 -1.0567126 2.3418052e-38
2.2214172 -2.2189286 -1.056877 2.3418052e-38
2.2097476 -2.2194176 -1.0569614 2.3418052e-38
2.1841633 -2.2186153 -1.0571471 2.3418052e-38
2.1488395 -2.2200594 -1.0574024 2.3418052e-38
2.1155503 -2.2228558 -1.0576425 2.3418052e-38
2.1080444 -2.2245233 -1.0576961 2.3418052e-38
2.0724106 -2.2274244 -1.0579531 2.3418052e-38
2.0530329 -2.2208159 -1.0580965 2.3418052e-38
2.0099471 -2.2246997 -1.0584071 2.3418052e-38
2.0043154 -2.2253287 -1.0584476 2.3418052e-38
1.9905051 -2.2283726 -1.0585462 2.3418052e-38
1.9815807 -2.227026 -1.0586115 2.3418052e-38
1.9786842 -2.2267332 -1.0586327 2.3418052e-38
1.9460884 -2.227407 -1.0588686 2.3418052e-38
1.9264884 -2.22259 -1.0590129 2.3418052e-38
1.903993 -2.21474 -1.0591795 2.3418052e-38
1.8564138 -2.2120092 -1.0595256 2.3418052e-38
1.84806 -2.2127066 -1.0595858 2.3418052e-38
1.8425826 -2.2136011 -1.059625 2.3418052e-38
1.8331267 -2.2149639 -1.059693 2.3418052e-38
1.8219312 -2.2163548 -1.0597736 2.3418052e-38
1.8014548 -2.2185681 -1.0599209 2.3418052e-38
1.7747344 -2.2170117 -1.0601152 2.3418052e-38
1.7546195 -2.2167482 -1.0602611 2.3418052e-38
1.7236556 -2.2163911 -1.0604858 2.3418052e-38
1.7087901 -2.2177896 -1.0605928 2.3418052e-38
1.6738179 -2.2141097 -1.060848 2.3418052e-38
1.6555299 -2.2152159 -1.0609801 2.3418052e-38
1.6484751 -2.2163556 -1.0610306 2.3418052e-38
1.6037921 -2.2159653 -1.0613546 2.3418052e-38
1.5926069 -2.217375 -1.0614351 2.3418052e-38
1.5819162 -2.217509 -1.0615125 2.3418052e-38
1.5625314 -2.2187307 -1.0616524 2.3418052e-38
1.546061 -2.2197504 -1.0617715 2.3418052e-38
1.5255998 -2.2183561 -1.0619203 2.3418052e-38
1.511555 -2.2207966 -1.0620209 2.3418052e-38
1.4712255 -2.2249832 -1.0623113 2.3418052e-38
1.4558108 -2.2254589 -1.0624229 2.3418052e-38
1.4402796 -2.222856 -1.0625367 2.3418052e-38
1.4296172 -2.2228119 -1.0626138 2.3418052e-38
1.4096736 -2.222986 -1.0627583 2.3418052e-38
1.39455 -2.2260299 -1.0628666 2.3418052e-38
1.3727239 -2.2279677 -1.0630238 2.3418052e-38
1.3702163 -2.2273784 -1.0630423 2.3418052e-38
1.3498631 -2.221699 -1.0631922 2.3418052e-38
1.339082 -2.2195909 -1.0632715 2.3418052e-38
1.3290758 -2.2178226 -1.0633448 2.3418052e-38
1.3166726 -2.2175446 -1.0634348 2.3418052e-38
1.3053027 -2.2185988 -1.0635167 2.3418052e-38
1.2891762 -2.2207611 -1.0636327 2.3418052e-38
1.2822573 -2.2220194 -1.0636822 2.3418052e-38
1.2644501 -2.228843 -1.0638082 2.3418052e-38
1.2422047 -2.2301664 -1.0639689 2.3418052e-38
1.2344497 -2.2303431 -1.0640249 2.3418052e-38
1.2195885 -2.2313612 -1.0641322 2.3418052e-38
1.2030915 -2.2335126 -1.0642508 2.3418052e-38
1.1704452 -2.2321303 -1.0644879 2.3418052e-38
1.1450473 -2.2272191 -1.0646743 2.3418052e-38
1.1245629 -2.225852 -1.0648234 2.3418052e-38
1.1116005 -2.2241628 -1.0649183 2.3418052e-38
1.0931616 -2.2227116 -1.0650524 2.3418052e-38
1.0676769 -2.2192578 -1.0652387 2.3418052e-38
1.0359395 -2.2199712 -1.0654685 2.3418052e-38
0.99294919 -2.2375562 -1.0657719 2.3418052e-38
0.97051692 -2.2378235 -1.0659344 2.3418052e-38
0.9565528 -2.2382131 -1.0660354 2.3418052e-38
0.92115211 -2.2407892 -1.0662907 2.3418052e-38
0.91551441 -2.2414072 -1.0663314 2.3418052e-38
0.89120245 -2.2423871 -1.0665071 2.3418052e-38
0.86020732 -2.2352774 -1.066735 2.3418052e-38
0.8459062 -2.2351694 -1.0668387 2.3418052e-38
0.82861924 -2.2337174 -1.0669646 2.3418052e-38
0.81559783 -2.2335148 -1.0670592 2.3418052e-38
0.80688733 -2.2329774 -1.0671225 2.3418052e-38
0.77735543 -2.2353804 -1.0673355 2.3418052e-38
0.76456231 -2.2403843 -1.0674258 2.3418052e-38
0.73770398 -2.2430208 -1.0676193 2.3418052e-38
0.70442361 -2.2364259 -1.0678636 2.3418052e-38
0.68753296 -2.2366471 -1.0679859 2.3418052e-38
0.66509169 -2.2299657 -1.0681515 2.3418052e-38
0.62880486 -2.2333212 -1.068413 2.3418052e-38
0.62363088 -2.2338054 -1.0684503 2.3418052e-38
0.60411024 -2.233098 -1.0685921 2.3418052e-38
0.5970065 -2.2340336 -1.0686432 2.3418052e-38
0.57662684 -2.2321942 -1.0687916 2.3418052e-38
0.56339347 -2.2319374 -1.0688877 2.3418052e-38
0.5226357 -2.2383807 -1.0691801 2.3418052e-38
0.49034274 -2.2371657 -1.0694147 2.3418052e-38
0.46111542 -2.2385497 -1.0696259 2.3418052e-38
0.44801018 -2.2378654 -1.0697212 2.3418052e-38
0.43507457 -2.2356892 -1.0698159 2.3418052e-38
0.40411481 -2.235357 -1.0700407 2.3418052e-38
0.37176001 -2.2392077 -1.0702733 2.3418052e-38
0.35949251 -2.2386131 -1.0703623 2.3418052e-38
0.33341396 -2.2385256 -1.0705515 2.3418052e-38
0.30700707 -2.2445328 -1.07074 2.3418052e-38
0.26634249 -2.2433393 -1.0710354 2.3418052e-38
0.2297575 -2.2430723 -1.0713006 2.3418052e-38
0.21332675 -2.2373931 -1.0714223 2.3418052e-38
0.17818663 -2.2354057 -1.0716778 2.3418052e-38
0.17083257 -2.2356384 -1.0717311 2.3418052e-38
0.1426461 -2.2406344 -1.0719332 2.3418052e-38
0.12002033 -2.2500372 -1.0720927 2.3418052e-38
0.096026026 -2.2512465 -1.0722661 2.3418052e-38
0.080909789 -2.2539611 -1.0723745 2.3418052e-38
0.034810591 -2.2477512 -1.0727115 2.3418052e-38
0.023592286 -2.2489555 -1.0727922 2.3418052e-38
0.015204235 -2.24857 -1.0728531 2.3418052e-38
0.0027980646 -2.2472551 -1.0729437 2.3418052e-38
-0.016139418 -2.2474809 -1.0730808 2.3418052e-38
-0.029832808 -2.2507493 -1.0731786 2.3418052e-38
-0.043356538 -2.2514753 -1.0732763 2.3418052e-38
-0.063496076 -2.2566738 -1.0734198 2.3418052e-38
-0.079447888 -2.2536979 -1.0735368 2.3418052e-38
-0.086696804 -2.253103 -1.0735896 2.3418052e-38
-0.10350117 -2.2497754 -1.0737128 2.3418052e-38
-0.13518558 -2.2504389 -1.0739423 2.3418052e-38
-0.15479353 -2.2519836 -1.0740837 2.3418052e-38
-0.17083605 -2.2524929 -1.0741997 2.3418052e-38
-0.18590236 -2.2513471 -1.0743093 2.3418052e-38
-0.20855111 -2.2488401 -1.0744747 2.3418052e-38
-0.2264688 -2.2495742 -1.0746043 2.3418052e-38
-0.25057504 -2.2501345 -1.0747787 2.3418052e-38
-0.26262021 -2.2524667 -1.0748649 2.3418052e-38
-0.27513131 -2.2548625 -1.0749546 2.3418052e-38
-0.29380155 -2.2558036 -1.0750893 2.3418052e-38
-0.30863312 -2.255995 -1.0751966 2.3418052e-38
-0.33288789 -2.2370102 -1.0753813 2.3418052e-38
-0.3459678 -2.2298799 -1.0754793 2.3418052e-38
-0.44839618 -2.2633388 -1.0762062 2.3418052e-38
-0.46059325 -2.2707188 -1.0762913 2.3418052e-38
-0.48822105 -2.2699833 -1.0764921 2.3418052e-38
-0.49153095 -2.2693563 -1.0765163 2.3418052e-38
-0.52358067 -2.2527468 -1.0767561 2.3418052e-38
-0.54364282 -2.2477448 -1.0769038 2.3418052e-38
-0.61185092 -2.2498944 -1.0773971 2.3418052e-38
-0.62744319 -2.2558396 -1.0775075 2.3418052e-38
-0.65588754 -2.2716978 -1.0777063 2.3418052e-38
-0.67545438 -2.2761154 -1.0778462 2.3418052e-38
-0.6879968 -2.2816029 -1.0779345 2.3418052e-38
-0.69368577 -2.2821221 -1.0779755 2.3418052e-38
-0.70902944 -2.2843294 -1.0780857 2.3418052e-38
-0.72458577 -2.2818882 -1.0781996 2.3418052e-38
-0.73894441 -2.2817106 -1.0783037 2.3418052e-38
-0.75700438 -2.2785244 -1.078436 2.3418052e-38
-0.79380488 -2.2801745 -1.078702 2.3418052e-38
-0.82973713 -2.2773802 -1.0789638 2.3418052e-38
-0.84653717 -2.2774382 -1.0790855 2.3418052e-38
-0.86883914 -2.275599 -1.079248 2.3418052e-38
-0.88324851 -2.2774878 -1.0793515 2.3418052e-38
-0.89039999 -2.2792449 -1.0794026 2.3418052e-38
-0.90146148 -2.2810531 -1.0794818 2.3418052e-38
-0.91810054 -2.281121 -1.0796024 2.3418052e-38
-0.95097476 -2.2931972 -1.0798352 2.3418052e-38
-0.98223996 -2.2927861 -1.0800619 2.3418052e-38
-1.0276389 -2.275768 -1.0803988 2.3418052e-38
-1.0480673 -2.2775981 -1.080546 2.3418052e-38
-1.0973901 -2.2889252 -1.0808984 2.3418052e-38
-1.1100427 -2.2943614 -1.0809876 2.3418052e-38
-1.1259979 -2.3009453 -1.0811002 2.3418052e-38
-1.1435328 -2.2943559 -1.0812302 2.3418052e-38
-1.1674947 -2.2897172 -1.0814061 2.3418052e-38
-1.229807 -2.2899716 -1.0818576 2.3418052e-38
-1.3094753 -2.2845366 -1.0824375 2.3418052e-38
-1.3239815 -2.2886782 -1.0825408 2.3418052e-38
-1.3383106 -2.2912626 -1.0826434 2.3418052e-38
-1.3598104 -2.290818 -1.0827994 2.3418052e-38
-1.406346 -2.2993815 -1.0831326 2.3418052e-38
-1.4196552 -2.3009329 -1.0832285 2.3418052e-38
-1.4299804 -2.3040011 -1.0833018 2.3418052e-38
-1.4350549 -2.3057048 -1.0833378 2.3418052e-38
-1.4485549 -2.309346 -1.083434 2.3418052e-38
-1.4659306 -2.3170469 -1.0835565 2.3418052e-38
-1.4803435 -2.3207674 -1.0836591 2.3418052e-38
-1.5022827 -2.3196166 -1.0838187 2.3418052e-38
-1.5586205 -2.3048356 -1.0842338 2.3418052e-38
-1.591827 -2.3128765 -1.0844707 2.3418052e-38
-1.6118929 -2.3141105 -1.0846156 2.3418052e-38
-1.6297289 -2.3155119 -1.0847441 2.3418052e-38
-1.6413511 -2.3166556 -1.0848279 2.3418052e-38
-1.6439394 -2.3164725 -1.0848466 2.3418052e-38
-1.661415 -2.3177185 -1.0849727 2.3418052e-38
-1.6659306 -2.3187299 -1.085005 2.3418052e-38
-1.711199 -2.328326 -1.0853287 2.3418052e-38
-1.7204958 -2.3294933 -1.0853957 2.3418052e-38
-1.7358097 -2.3288398 -1.0855068 2.3418052e-38
-1.7589798 -2.3337238 -1.0856726 2.3418052e-38
-1.760121 -2.3340156 -1.0856808 2.3418052e-38
-1.795663 -2.3321245 -1.0859393 2.3418052e-38
-1.8365153 -2.3241434 -1.086239 2.3418052e-38
-1.8854364 -2.3303709 -1.0865908 2.3418052e-38
-1.9200788 -2.3343613 -1.0868399 2.3418052e-38
-1.9786497 -2.3324771 -1.0872653 2.3418052e-38
-1.9883206 -2.3330097 -1.0873351 2.3418052e-38
-2.0114064 -2.3336456 -1.0875021 2.3418052e-38
-2.0416214 -2.3321018 -1.0877218 2.3418052e-38
-2.058784 -2.3321197 -1.0878463 2.3418052e-38
-2.0753717 -2.3342619 -1.0879655 2.3418052e-38
-2.1195076 -2.3337266 -1.0882856 2.3418052e-38
-2.1280439 -2.3354509 -1.0883467 2.3418052e-38
-2.167671 -2.3305805 -1.0886362 2.3418052e-38
-2.1966455 -2.3381498 -1.0888426 2.3418052e-38
-2.2362702 -2.3325853 -1.0891324 2.3418052e-38
-2.246052 -2.3319085 -1.0892037 2.3418052e-38
-2.2677119 -2.3334246 -1.08936 2.3418052e-38
-2.2829132 -2.3316693 -1.089471 2.3418052e-38
-2.308301 -2.3353016 -1.0896531 2.3418052e-38
0.89228129 0.54644519 -1.0677768 2.3425614e-38
0.87650275 0.55250436 -1.0678939 2.3425614e-38
0.8701399 0.56569296 -1.0679461 2.3425614e-38
0.86518037 0.57956648 -1.0679884 2.3425614e-38
0.85910422 0.59289503 -1.0680383 2.3425614e-38
0.85264295 0.60603571 -1.0680914 2.3425614e-38
0.84641939 0.65231085 -1.0681577 2.3425614e-38
0.84043455 0.66568393 -1.0682071 2.3425614e-38
0.84647691 0.68535733 -1.0681722 2.3425614e-38
0.84627038 0.71827489 -1.0681889 2.3425614e-38
0.84129345 0.7651583 -1.0682465 2.3425614e-38
0.83392769 0.81087595 -1.0683209 2.3425614e-38
0.83584583 0.84215778 -1.0683212 2.3425614e-38
0.82833534 0.89047754 -1.0683979 2.3425614e-38
0.82190531 0.90363353 -1.0684505 2.3425614e-38
0.78713846 0.93510765 -1.0687169 2.3425614e-38
0.71172726 0.94547534 -1.0692681 2.3425614e-38
0.63592464 0.98866016 -1.0698373 2.3425614e-38
0.58745265 1.0130256 -1.0701998 2.3425614e-38
0.5583809 1.0324847 -1.0704194 2.3425614e-38
0.53906047 1.0374302 -1.0705616 2.3425614e-38
0.51821542 1.0431205 -1.0707153 2.3425614e-38
0.51167309 1.0562217 -1.070769 2.3425614e-38
0.45664221 1.0936803 -1.0711846 2.3425614e-38
0.38019434 1.0705134 -1.0717282 2.3425614e-38
0.36441141 1.0623304 -1.0718389 2.3425614e-38
0.35240754 1.0560919 -1.071923 2.3425614e-38
0.29680991 1.0602554 -1.0723279 2.3425614e-38
0.26231876 1.058856 -1.0725772 2.3425614e-38
0.24135162 1.064487 -1.0727317 2.3425614e-38
0.22164869 1.0696727 -1.0728769 2.3425614e-38
0.21399651 1.116313 -1.0729537 2.3425614e-38
0.15828235 1.153438 -1.0733745 2.3425614e-38
0.12438838 1.1523299 -1.0736197 2.3425614e-38
0.10311919 1.1578134 -1.0737764 2.3425614e-38
0.084504306 1.1646452 -1.0739144 2.3425614e-38
-0.01414089 1.1464564 -1.074621 2.3425614e-38
-0.034789734 1.1522427 -1.0747732 2.3425614e-38
-0.076807648 1.163464 -1.075083 2.3425614e-38
-0.17281987 1.2126496 -1.0758015 2.3425614e-38
-0.21555051 1.1905047 -1.0761009 2.3425614e-38
-0.24998577 1.1561141 -1.0763347 2.3425614e-38
-0.29843572 1.1474718 -1.0766819 2.3425614e-38
-0.31656757 1.1523842 -1.0768156 2.3425614e-38
-0.33996946 1.1589291 -1.0769882 2.3425614e-38
-0.37458226 1.1574705 -1.0772384 2.3425614e-38
-0.416509 1.1357176 -1.0775323 2.3425614e-38
-0.50472623 1.1700591 -1.0781873 2.3425614e-38
-0.5201906 1.1644361 -1.0782968 2.3425614e-38
-0.5353536 1.1565897 -1.0784031 2.3425614e-38
-0.56740338 1.1207972 -1.0786191 2.3425614e-38
-0.5830301 1.1153226 -1.0787299 2.3425614e-38
-0.62529433 1.0603868 -1.079011 2.3425614e-38
-0.63237917 1.0402048 -1.079053 2.3425614e-38
-0.65252823 1.0121033 -1.0791862 2.3425614e-38
-0.68467832 0.99656373 -1.079412 2.3425614e-38
-0.73479992 1.0010239 -1.0797772 2.3425614e-38
-0.78692853 0.92838168 -1.0801219 2.3425614e-38
-0.79345179 0.90711945 -1.0801594 2.3425614e-38
-0.80024731 0.88707852 -1.0801995 2.3425614e-38
-0.84664404 0.84650463 -1.0805172 2.3425614e-38
-0.85731637 0.75845045 -1.0805542 2.3425614e-38
-0.86928475 0.71926552 -1.0806231 2.3425614e-38
-0.8729099 0.68437344 -1.0806333 2.3425614e-38
-0.8791635 0.66459697 -1.0806695 2.3425614e-38
-0.8836273 0.6457895 -1.0806934 2.3425614e-38
-0.88318133 0.59653234 -1.0806674 2.3425614e-38
-0.88232213 0.58047384 -1.0806538 2.3425614e-38
-0.87860125 0.56592333 -1.0806204 2.3425614e-38
-0.87595594 0.5532403 -1.0805954 2.3425614e-38
-0.89297104 0.54198313 -1.0807136 2.3425614e-38
-0.95523769 0.46022689 -1.0811272 2.3425614e-38
-0.95467198 0.42748457 -1.0811083 2.3425614e-38
-0.96209025 0.40713987 -1.0811527 2.3425614e-38
-0.98604447 0.37819332 -1.081313 2.3425614e-38
-1.0031564 0.35278872 -1.0814254 2.3425614e-38
-1.0098789 0.33278337 -1.0814649 2.3425614e-38
-1.0320213 0.30482265 -1.0816126 2.3425614e-38
-1.0538136 0.27703267 -1.0817577 2.3425614e-38
-1.0627675 0.25586137 -1.0818129 2.3425614e-38
-1.0886161 0.20944421 -1.0819792 2.3425614e-38
-1.1124148 0.18456085 -1.0821402 2.3425614e-38
-1.1302205 0.15483052 -1.0822556 2.3425614e-38
-1.1554693 0.12535383 -1.0824251 2.3425614e-38
-1.1614805 0.10747007 -1.0824605 2.3425614e-38
-1.1580658 0.0083066542 -1.0823903 2.3425614e-38
-1.1457206 -0.022640267 -1.0822867 2.3425614e-38
-1.1340117 -0.04520674 -1.0821915 2.3425614e-38
-1.125289 -0.060443688 -1.0821213 2.3425614e-38
-1.1060551 -0.099085987 -1.0819641 2.3425614e-38
-1.0957471 -0.10792606 -1.0818853 2.3425614e-38
-1.0973606 -0.11584321 -1.0818936 2.3425614e-38
-1.0924931 -0.15565008 -1.0818399 2.3425614e-38
-1.0625815 -0.18960138 -1.0816075 2.3425614e-38
-1.051512 -0.20420565 -1.0815207 2.3425614e-38
-1.0443914 -0.21533053 -1.0814641 2.3425614e-38
-1.0243317 -0.25658959 -1.0812997 2.3425614e-38
-1.0180286 -0.26552469 -1.08125 2.3425614e-38
-1.009161 -0.2774913 -1.0811802 2.3425614e-38
-0.99419951 -0.30338728 -1.0810599 2.3425614e-38
-0.98743862 -0.31731376 -1.0810046 2.3425614e-38
-0.97078514 -0.35652649 -1.0808659 2.3425614e-38
-0.96405941 -0.36953816 -1.0808111 2.3425614e-38
-0.95648783 -0.382137 -1.0807505 2.3425614e-38
-0.95053852 -0.39552751 -1.0807011 2.3425614e-38
-0.93387753 -0.4199847 -1.0805691 2.3425614e-38
-0.92949605 -0.43414015 -1.080531 2.3425614e-38
-0.92356849 -0.44754127 -1.080482 2.3425614e-38
-0.91981196 -0.45802701 -1.0804499 2.3425614e-38
-0.91716665 -0.49631506 -1.0804133 2.3425614e-38
-0.911933 -0.54048747 -1.0803549 2.3425614e-38
-0.8528443 -0.59235418 -1.079903 2.3425614e-38
-0.83895332 -0.60256332 -1.0797979 2.3425614e-38
-0.83657658 -0.63356024 -1.0797663 2.3425614e-38
-0.83037466 -0.64821035 -1.0797147 2.3425614e-38
-0.82483494 -0.66052127 -1.0796689 2.3425614e-38
-0.82493937 -0.6935606 -1.0796545 2.3425614e-38
-0.82077301 -0.7409091 -1.0796026 2.3425614e-38
-0.81788188 -0.7559033 -1.0795746 2.3425614e-38
-0.81832582 -0.80568218 -1.079555 2.3425614e-38
-0.81235248 -0.85207939 -1.0794907 2.3425614e-38
-0.76393425 -0.90948951 -1.0791134 2.3425614e-38
-0.6878953 -0.91954052 -1.0785577 2.3425614e-38
-0.63507164 -0.9581449 -1.0781571 2.3425614e-38
-0.62739044 -0.97065198 -1.0780957 2.3425614e-38
-0.55767632 -1.0665209 -1.0775466 2.3425614e-38
-0.53734994 -1.0708666 -1.0773971 2.3425614e-38
-0.50225854 -1.0707721 -1.077143 2.3425614e-38
-0.48510772 -1.0783706 -1.077015 2.3425614e-38
-0.42610979 -1.1137675 -1.0765715 2.3425614e-38
-0.3710506 -1.1182144 -1.0761703 2.3425614e-38
-0.33518502 -1.1160986 -1.0759114 2.3425614e-38
-0.31624278 -1.1227632 -1.075771 2.3425614e-38
-0.24430858 -1.1184477 -1.0752517 2.3425614e-38
-0.23277521 -1.1124647 -1.0751708 2.3425614e-38
-0.21984836 -1.1057255 -1.0750802 2.3425614e-38
-0.1987185 -1.1113002 -1.0749245 2.3425614e-38
-0.19257358 -1.1246287 -1.074874 2.3425614e-38
-0.15689397 -1.1556113 -1.0746011 2.3425614e-38
-0.10856424 -1.1800463 -1.0742396 2.3425614e-38
-0.069618993 -1.1928573 -1.0739515 2.3425614e-38
0.0093654701 -1.2013806 -1.0733752 2.3425614e-38
0.021278441 -1.1951957 -1.0732915 2.3425614e-38
0.064703375 -1.1726524 -1.0729872 2.3425614e-38
0.085042812 -1.1785898 -1.0728371 2.3425614e-38
0.1502233 -1.1943034 -1.0723575 2.3425614e-38
0.18962196 -1.2068701 -1.0720663 2.3425614e-38
0.21076883 -1.2123767 -1.0719103 2.3425614e-38
0.27244851 -1.1968844 -1.0714705 2.3425614e-38
0.28679684 -1.1888514 -1.0713701 2.3425614e-38
0.29971471 -1.1827168 -1.0712794 2.3425614e-38
0.31397071 -1.1753291 -1.0711794 2.3425614e-38
0.32710508 -1.1685218 -1.0710875 2.3425614e-38
0.34239134 -1.1605982 -1.0709801 2.3425614e-38
0.35793298 -1.1525317 -1.0708711 2.3425614e-38
0.39095601 -1.1519002 -1.0706323 2.3425614e-38
0.43903366 -1.1434393 -1.0702876 2.3425614e-38
0.53972292 -1.1572245 -1.0695515 2.3425614e-38
0.57154715 -1.12473 -1.0693358 2.3425614e-38
0.62068683 -1.0822105 -1.0689992 2.3425614e-38
0.66217357 -1.0606726 -1.0687083 2.3425614e-38
0.69981295 -1.0246466 -1.0684521 2.3425614e-38
0.72508228 -1.0115255 -1.0682747 2.3425614e-38
0.73977894 -1.0038985 -1.068172 2.3425614e-38
0.77665383 -1.0012827 -1.0679058 2.3425614e-38
0.82301015 -0.99372619 -1.0675734 2.3425614e-38
0.84340203 -0.99965113 -1.0674229 2.3425614e-38
0.89181924 -0.99102473 -1.0670758 2.3425614e-38
0.92665881 -0.95643693 -1.0668392 2.3425614e-38
0.93372673 -0.93887222 -1.0667961 2.3425614e-38
0.93449605 -0.9028694 -1.0668069 2.3425614e-38
0.94609135 -0.86384654 -1.0667408 2.3425614e-38
0.94895113 -0.82934767 -1.0667359 2.3425614e-38
0.90773207 -0.75169975 -1.0670701 2.3425614e-38
0.90044272 -0.73896307 -1.0671288 2.3425614e-38
0.89479268 -0.72542655 -1.0671761 2.3425614e-38
0.90181667 -0.70527428 -1.0671343 2.3425614e-38
0.90844512 -0.68531501 -1.0670955 2.3425614e-38
0.90836596 -0.65233517 -1.0671109 2.3425614e-38
0.90124267 -0.60249496 -1.0671856 2.3425614e-38
0.90115058 -0.57393157 -1.0671992 2.3425614e-38
0.89657289 -0.52644736 -1.0672541 2.3425614e-38
0.90734899 -0.49013099 -1.0671928 2.3425614e-38
0.9211697 -0.48079613 -1.0670968 2.3425614e-38
0.97739333 -0.41797078 -1.0667181 2.3425614e-38
0.97013789 -0.3729085 -1.0667914 2.3425614e-38
0.97389048 -0.33776411 -1.0667803 2.3425614e-38
0.98039627 -0.31786466 -1.0667422 2.3425614e-38
0.98080415 -0.28469425 -1.0667545 2.3425614e-38
0.98759896 -0.26460665 -1.0667143 2.3425614e-38
0.99975836 -0.20878911 -1.0666518 2.3425614e-38
1.0176969 -0.18281575 -1.0665339 2.3425614e-38
1.0228866 -0.13074471 -1.06652 2.3425614e-38
1.029109 -0.1109836 -1.0664841 2.3425614e-38
1.0315809 -0.076759137 -1.0664817 2.3425614e-38
1.0390704 -0.056379739 -1.0664366 2.3425614e-38
1.0428286 -0.037820712 -1.0664182 2.3425614e-38
1.0303676 0.024954708 -1.0665371 2.3425614e-38
1.0358208 0.057447284 -1.0665125 2.3425614e-38
1.0321271 0.088599674 -1.0665534 2.3425614e-38
1.0109164 0.14358917 -1.0667324 2.3425614e-38
1.0134137 0.16136713 -1.0667225 2.3425614e-38
1.0102971 0.19286478 -1.0667595 2.3425614e-38
1.0001563 0.25342318 -1.0668607 2.3425614e-38
0.99439913 0.26454395 -1.0669075 2.3425614e-38
0.99199998 0.29885396 -1.0669407 2.3425614e-38
0.98610216 0.34528795 -1.0670047 2.3425614e-38
0.98106438 0.3591232 -1.0670475 2.3425614e-38
0.97359884 0.3717739 -1.0671076 2.3425614e-38
0.9634707 0.3994953 -1.0671935 2.3425614e-38
0.95444292 0.4113071 -1.0672642 2.3425614e-38
0.94597059 0.42346647 -1.0673313 2.3425614e-38
0.93796021 0.43440172 -1.0673944 2.3425614e-38
0.93663502 0.5011453 -1.0674345 2.3425614e-38
0.89228129 0.54644519 -1.0677768 2.3425614e-38
-2.4559941 1.2644391 -1.0923725 2.3433177e-38
-2.4448504 1.3171841 -1.0923159 2.3433177e-38
-2.4428587 1.3377869 -1.0923109 2.3433177e-38
-2.445941 1.3535943 -1.0923405 2.3433177e-38
-2.4474106 1.369189 -1.0923582 2.3433177e-38
-2.449887 1.3978628 -1.0923893 2.3433177e-38
-2.450187 1.4139068 -1.0923989 2.3433177e-38
-2.4508188 1.4170482 -1.092405 2.3433177e-38
-2.452281 1.432945 -1.0924227 2.3433177e-38
-2.456702 1.4631414 -1.0924689 2.3433177e-38
-2.4561124 1.4807116 -1.0924726 2.3433177e-38
-2.460011 1.4949967 -1.0925072 2.3433177e-38
-2.4616442 1.5105145 -1.0925262 2.3433177e-38
-2.459949 1.5450062 -1.0925299 2.3433177e-38
-2.4620526 1.5602702 -1.0925519 2.3433177e-38
-2.4636316 1.5744935 -1.0925699 2.3433177e-38
-2.4600048 1.6013888 -1.092556 2.3433177e-38
-2.4579952 1.6114876 -1.092546 2.3433177e-38
-2.4565985 1.6299253 -1.0925443 2.3433177e-38
-2.4560292 1.6459246 -1.0925475 2.3433177e-38
-2.4534302 1.6798446 -1.0925442 2.3433177e-38
-2.4544568 1.696349 -1.0925592 2.3433177e-38
-2.4526856 1.713642 -1.0925543 2.3433177e-38
-2.4535601 1.7465012 -1.0925757 2.3433177e-38
-2.4589212 1.7758338 -1.092628 2.3433177e-38
-2.4578435 1.7931023 -1.0926281 2.3433177e-38
-2.458813 1.8096367 -1.0926427 2.3433177e-38
-2.4596498 1.8422662 -1.0926639 2.3433177e-38
-2.4578502 1.8575938 -1.0926578 2.3433177e-38
-2.4621532 1.8730836 -1.0926961 2.3433177e-38
-2.4693835 1.8892806 -1.0927558 2.3433177e-38
-2.4739799 1.9250166 -1.0928055 2.3433177e-38
-2.4741504 1.9337084 -1.0928108 2.3433177e-38
-2.4748178 1.9563564 -1.0928259 2.3433177e-38
-2.4753051 1.9661714 -1.092834 2.3433177e-38
-2.4703913 2.0172048 -1.0928216 2.3433177e-38
-2.4675946 2.024493 -1.0928047 2.3433177e-38
-2.4628119 2.038306 -1.0927764 2.3433177e-38
-2.4653568 2.0530717 -1.0928017 2.3433177e-38
-2.465585 2.0676842 -1.09281 2.3433177e-38
-2.4663708 2.1020424 -1.0928314 2.3433177e-38
-2.4639661 2.1354666 -1.0928295 2.3433177e-38
-2.4643404 2.1529589 -1.0928402 2.3433177e-38
-2.462671 2.1701787 -1.0928358 2.3433177e-38
-2.4642324 2.2018964 -1.0928617 2.3433177e-38
-2.3640614 2.2536058 -1.0921593 2.3433177e-38
-2.3484263 2.2465317 -1.0920428 2.3433177e-38
-2.3408382 2.2415853 -1.0919856 2.3433177e-38
-2.3078656 2.2419927 -1.0917468 2.3433177e-38
-2.2853744 2.2445278 -1.0915849 2.3433177e-38
-2.2634077 2.2418449 -1.0914245 2.3433177e-38
-2.25019 2.2427819 -1.0913291 2.3433177e-38
-2.2442238 2.2427664 -1.0912859 2.3433177e-38
-2.2097695 2.2345304 -1.0910324 2.3433177e-38
-2.1945562 2.2435865 -1.0909263 2.3433177e-38
-2.1453702 2.2553384 -1.0905751 2.3433177e-38
-2.1269867 2.2540052 -1.0904413 2.3433177e-38
-2.0994444 2.2597861 -1.0902443 2.3433177e-38
-2.0931816 2.2596152 -1.0901989 2.3433177e-38
-2.073458 2.2567198 -1.0900546 2.3433177e-38
-2.0589917 2.2518077 -1.0899475 2.3433177e-38
-2.0457265 2.2535048 -1.0898522 2.3433177e-38
-2.009527 2.2583363 -1.0895919 2.3433177e-38
-1.9585069 2.2505937 -1.0892187 2.3433177e-38
-1.9220588 2.2517993 -1.0889549 2.3433177e-38
-1.9043522 2.2453723 -1.0888238 2.3433177e-38
-1.8959332 2.24509 -1.0887626 2.3433177e-38
-1.8745116 2.2440851 -1.088607 2.3433177e-38
-1.8568701 2.2394626 -1.0884769 2.3433177e-38
-1.853135 2.2399759 -1.0884501 2.3433177e-38
-1.8440394 2.2408686 -1.0883844 2.3433177e-38
-1.805058 2.2365034 -1.0881002 2.3433177e-38
-1.7706442 2.2409403 -1.0878528 2.3433177e-38
-1.7327266 2.2360318 -1.0875758 2.3433177e-38
-1.6905041 2.2397473 -1.0872715 2.3433177e-38
-1.6636904 2.2388144 -1.0870767 2.3433177e-38
-1.635421 2.237021 -1.086871 2.3433177e-38
-1.6106979 2.2354879 -1.0866911 2.3433177e-38
-1.5768884 2.2343624 -1.0864455 2.3433177e-38
-1.5563098 2.2302656 -1.0862945 2.3433177e-38
-1.5315006 2.2222414 -1.0861111 2.3433177e-38
-1.5134825 2.2175472 -1.0859782 2.3433177e-38
-1.4944965 2.2114544 -1.0858378 2.3433177e-38
-1.4476672 2.0868962 -1.0854415 2.3433177e-38
-1.4694432 2.0590458 -1.0855865 2.3433177e-38
-1.4991153 2.0436785 -1.0857946 2.3433177e-38
-1.5240543 2.03074 -1.0859692 2.3433177e-38
-1.5726913 2.0220065 -1.0863178 2.3433177e-38
-1.5844432 2.0159094 -1.0864003 2.3433177e-38
-1.5993396 2.0081401 -1.0865046 2.3433177e-38
-1.6062512 1.9849386 -1.0865442 2.3433177e-38
-1.5936605 1.9284426 -1.086427 2.3433177e-38
-1.6084596 1.8879141 -1.0865157 2.3433177e-38
-1.7029724 1.8388255 -1.0871781 2.3433177e-38
-1.736917 1.8046319 -1.0874084 2.3433177e-38
-1.7357976 1.7723188 -1.0873855 2.3433177e-38
-1.794333 1.7087747 -1.0877807 2.3433177e-38
-1.8012677 1.7053094 -1.0878295 2.3433177e-38
-1.8045373 1.7031348 -1.087852 2.3433177e-38
-1.8300077 1.6739044 -1.0880233 2.3433177e-38
-1.8531352 1.6123861 -1.0881628 2.3433177e-38
-1.8771827 1.5833906 -1.0883237 2.3433177e-38
-1.8816278 1.564602 -1.0883473 2.3433177e-38
-1.8941288 1.5251113 -1.0884197 2.3433177e-38
-1.9122087 1.4827074 -1.0885314 2.3433177e-38
-1.9387238 1.4359384 -1.0887022 2.3433177e-38
-1.9734037 1.4024686 -1.088938 2.3433177e-38
-1.9966421 1.3728553 -1.0890929 2.3433177e-38
-2.0227065 1.3266691 -1.0892608 2.3433177e-38
-2.0236826 1.3092997 -1.0892597 2.3433177e-38
-2.0574002 1.2588202 -1.089481 2.3433177e-38
-2.076649 1.2309459 -1.0896078 2.3433177e-38
-2.1016526 1.2053809 -1.0897774 2.3433177e-38
-2.1058872 1.1849217 -1.0897987 2.3433177e-38
-2.1335199 1.1037391 -1.0899616 2.3433177e-38
-2.1492133 1.0946177 -1.0900713 2.3433177e-38
-2.182256 1.0630106 -1.0902963 2.3433177e-38
-2.212364 1.0156746 -1.0904928 2.3433177e-38
-2.2237918 1.0073587 -1.0905719 2.3433177e-38
-2.2384315 0.99981803 -1.0906745 2.3433177e-38
-2.2439163 0.97729462 -1.0907038 2.3433177e-38
-2.2616701 0.9405961 -1.0908158 2.3433177e-38
-2.2540498 0.92565018 -1.0907538 2.3433177e-38
-2.2460589 0.91328979 -1.0906901 2.3433177e-38
-2.2396364 0.89802235 -1.0906366 2.3433177e-38
-2.2682734 0.81926763 -1.090808 2.3433177e-38
-2.2900262 0.79149705 -1.090953 2.3433177e-38
-2.4155314 0.7954033 -1.0918643 2.3433177e-38
-2.4206376 0.80817759 -1.0919073 2.3433177e-38
-2.4305289 0.84993839 -1.0919981 2.3433177e-38
-2.4288137 0.8662864 -1.0919933 2.3433177e-38
-2.4253352 0.88618213 -1.0919771 2.3433177e-38
-2.422735 0.90568537 -1.0919671 2.3433177e-38
-2.4198265 0.92220545 -1.0919536 2.3433177e-38
-2.428834 0.96624374 -1.0920391 2.3433177e-38
-2.4305689 0.98203927 -1.0920588 2.3433177e-38
-2.4302864 0.99830067 -1.0920643 2.3433177e-38
-2.4289985 1.0164374 -1.0920633 2.3433177e-38
-2.4232419 1.052948 -1.0920383 2.3433177e-38
-2.4164853 1.1028992 -1.0920122 2.3433177e-38
-2.4228218 1.1186043 -1.0920652 2.3433177e-38
-2.4303286 1.1312351 -1.0921255 2.3433177e-38
-2.4359672 1.1777956 -1.0921878 2.3433177e-38
-2.4442477 1.1900494 -1.0922534 2.3433177e-38
-2.4530473 1.2184114 -1.0923302 2.3433177e-38
-2.456382 1.2496021 -1.0923688 2.3433177e-38
-2.4559941 1.2644391 -1.0923725 2.3433177e-38
-2.1593182 -2.3099794 -1.088585 2.344074e-38
-2.1404331 -2.3163691 -1.0884451 2.344074e-38
-2.1243322 -2.3176076 -1.088328 2.344074e-38
-2.1054552 -2.3152373 -1.0881922 2.344074e-38
-2.0833051 -2.3190539 -1.0880299 2.344074e-38
-2.0553091 -2.3186147 -1.0878272 2.344074e-38
-2.0352199 -2.3109534 -1.0876851 2.344074e-38
-1.9644762 -2.3080988 -1.0871737 2.344074e-38
-1.9498928 -2.3066082 -1.0870688 2.344074e-38
-1.9347718 -2.3062472 -1.0869592 2.344074e-38
-1.902102 -2.3088212 -1.0867213 2.344074e-38
-1.8932362 -2.3086467 -1.0866572 2.344074e-38
-1.8815011 -2.3111734 -1.0865709 2.344074e-38
-1.8453885 -2.3101442 -1.0863097 2.344074e-38
-1.8220943 -2.3164175 -1.086138 2.344074e-38
-1.8058511 -2.3171582 -1.0860199 2.344074e-38
-1.7720652 -2.3182847 -1.0857745 2.344074e-38
-1.7579914 -2.3162494 -1.0856735 2.344074e-38
-1.7267621 -2.3160217 -1.0854473 2.344074e-38
-1.7079091 -2.3118098 -1.0853126 2.344074e-38
-1.7023395 -2.3110604 -1.0852726 2.344074e-38
-1.6909115 -2.3129408 -1.085189 2.344074e-38
-1.68735 -2.313143 -1.085163 2.344074e-38
-1.6706926 -2.3127339 -1.0850422 2.344074e-38
-1.6554086 -2.3124366 -1.0849316 2.344074e-38
-1.6343951 -2.3118861 -1.0847799 2.344074e-38
-1.5966123 -2.3071826 -1.0845081 2.344074e-38
-1.5865452 -2.3036437 -1.0844367 2.344074e-38
-1.567084 -2.29808 -1.0842984 2.344074e-38
-1.556766 -2.297231 -1.0842239 2.344074e-38
-1.5436566 -2.2973237 -1.0841287 2.344074e-38
-1.5329082 -2.2969546 -1.0840509 2.344074e-38
-1.5287889 -2.2972386 -1.084021 2.344074e-38
-1.5117495 -2.3014028 -1.0838957 2.344074e-38
-1.4427203 -2.3006272 -1.0833958 2.344074e-38
-1.4123513 -2.2968345 -1.0831772 2.344074e-38
-1.396583 -2.2906802 -1.083066 2.344074e-38
-1.3829193 -2.2827547 -1.0829705 2.344074e-38
-1.3734974 -2.2813845 -1.0829028 2.344074e-38
-1.369519 -2.2810335 -1.0828741 2.344074e-38
-1.3540865 -2.2790043 -1.0827632 2.344074e-38
-1.3298941 -2.2777269 -1.0825886 2.344074e-38
-1.3185713 -2.2766492 -1.0825069 2.344074e-38
-1.3048838 -2.2733698 -1.0824093 2.344074e-38
-1.2965138 -2.2713194 -1.0823495 2.344074e-38
-1.2785113 -2.2651496 -1.0822219 2.344074e-38
-1.2671071 -2.26389 -1.0821397 2.344074e-38
-1.2360631 -2.264401 -1.0819145 2.344074e-38
-1.1937295 -2.2685492 -1.0816058 2.344074e-38
-1.175203 -2.2697492 -1.0814711 2.344074e-38
-1.1655029 -2.2709351 -1.0814002 2.344074e-38
-1.1600664 -2.2712302 -1.0813606 2.344074e-38
-1.1383452 -2.274698 -1.0812014 2.344074e-38
-1.1203502 -2.2750034 -1.081071 2.344074e-38
-1.0993664 -2.274302 -1.0809193 2.344074e-38
-1.0800834 -2.270323 -1.0807813 2.344074e-38
-1.0531722 -2.2639809 -1.0805892 2.344074e-38
-1.0282164 -2.2654684 -1.0804076 2.344074e-38
-1.0225233 -2.2653544 -1.0803665 2.344074e-38
-1.0056419 -2.2654943 -1.0802441 2.344074e-38
-0.99546921 -2.2670839 -1.0801696 2.344074e-38
-0.95301491 -2.2598171 -1.0798652 2.344074e-38
-0.92359787 -2.2436883 -1.0796595 2.344074e-38
-0.91179347 -2.2370274 -1.0795768 2.344074e-38
-0.87649727 -2.2349472 -1.0793221 2.344074e-38
-0.85374606 -2.2441819 -1.0791529 2.344074e-38
-0.83293885 -2.2475541 -1.0790006 2.344074e-38
-0.81729037 -2.256701 -1.0788831 2.344074e-38
-0.79784048 -2.2630932 -1.078739 2.344074e-38
-0.77299947 -2.2672362 -1.0785571 2.344074e-38
-0.74747062 -2.2696817 -1.078371 2.344074e-38
-0.68621802 -2.2572918 -1.0779327 2.344074e-38
-0.67408985 -2.2484777 -1.0778489 2.344074e-38
-0.65317738 -2.2224083 -1.0777092 2.344074e-38
-0.64525437 -2.2005486 -1.0776619 2.344074e-38
-0.63379872 -2.1596959 -1.0775976 2.344074e-38
-0.67017537 -2.0648086 -1.0779047 2.344074e-38
-0.68702513 -2.0570815 -1.0780303 2.344074e-38
-0.75714952 -2.0274076 -1.0785522 2.344074e-38
-0.79879892 -2.0160017 -1.0788592 2.344074e-38
-0.83316588 -2.0184314 -1.0791072 2.344074e-38
-0.85414422 -2.0117152 -1.0792621 2.344074e-38
-0.89567721 -2.0002556 -1.0795684 2.344074e-38
-0.92334026 -1.9815959 -1.0797775 2.344074e-38
-0.94502711 -1.9763902 -1.0799371 2.344074e-38
-0.9854517 -1.9643193 -1.0802357 2.344074e-38
-1.0198559 -1.9656824 -1.0804845 2.344074e-38
-1.0607584 -1.9539324 -1.0807863 2.344074e-38
-1.0938774 -1.9545671 -1.0810261 2.344074e-38
-1.1165221 -1.9498386 -1.0811924 2.344074e-38
-1.1400508 -1.9455647 -1.0813648 2.344074e-38
-1.1716422 -1.9454484 -1.0815939 2.344074e-38
-1.1862683 -1.9496361 -1.0816978 2.344074e-38
-1.2229956 -1.9555614 -1.0819614 2.344074e-38
-1.2541218 -1.9552833 -1.0821872 2.344074e-38
-1.2817552 -1.9370438 -1.0823958 2.344074e-38
-1.2967803 -1.9279149 -1.0825088 2.344074e-38
-1.3239996 -1.8924531 -1.0827223 2.344074e-38
-1.332957 -1.8641771 -1.0828001 2.344074e-38
-1.3504108 -1.8401922 -1.0829376 2.344074e-38
-1.3858479 -1.8090498 -1.0832088 2.344074e-38
-1.4384855 -1.8033183 -1.0835929 2.344074e-38
-1.468673 -1.7859759 -1.0838194 2.344074e-38
-1.475207 -1.772879 -1.0838728 2.344074e-38
-1.5305407 -1.7355627 -1.084291 2.344074e-38
-1.5603634 -1.7180144 -1.0845151 2.344074e-38
-1.6062913 -1.6923553 -1.0848598 2.344074e-38
-1.6266913 -1.6864237 -1.0850105 2.344074e-38
-1.647779 -1.6765302 -1.0851679 2.344074e-38
-1.66067 -1.6545995 -1.0852712 2.344074e-38
-1.666975 -1.6413972 -1.085323 2.344074e-38
-1.6747802 -1.6288856 -1.0853853 2.344074e-38
-1.7109969 -1.5981376 -1.0856619 2.344074e-38
-1.7271452 -1.5900489 -1.0857825 2.344074e-38
-1.7341851 -1.5771986 -1.0858395 2.344074e-38
-1.7510043 -1.5528721 -1.0859725 2.344074e-38
-1.7781414 -1.53397 -1.0861778 2.344074e-38
-1.7993515 -1.5284445 -1.0863341 2.344074e-38
-1.8332689 -1.4965594 -1.0865945 2.344074e-38
-1.8404881 -1.483778 -1.0866528 2.344074e-38
-1.84724 -1.4707812 -1.0867075 2.344074e-38
-1.8529788 -1.4573184 -1.0867553 2.344074e-38
-1.860001 -1.4444463 -1.0868123 2.344074e-38
-1.8595874 -1.4112314 -1.0868244 2.344074e-38
-1.8542454 -1.3912134 -1.0867949 2.344074e-38
-1.8374593 -1.3531404 -1.0866908 2.344074e-38
-1.8726573 -1.2528871 -1.0869917 2.344074e-38
-1.8786894 -1.2395012 -1.0870415 2.344074e-38
-1.8934376 -1.2141826 -1.08716 2.344074e-38
-1.9115525 -1.1740351 -1.0873097 2.344074e-38
-1.9195631 -1.1617256 -1.0873734 2.344074e-38
-1.9554931 -1.1308413 -1.0876479 2.344074e-38
-1.9615773 -1.1175373 -1.0876981 2.344074e-38
-1.9685563 -1.1046454 -1.0877545 2.344074e-38
-1.9755638 -1.0917667 -1.0878114 2.344074e-38
-1.9827981 -1.0789921 -1.0878696 2.344074e-38
-1.9895896 -1.0660138 -1.0879248 2.344074e-38
-2.0071304 -1.0420746 -1.0880629 2.344074e-38
-2.0200906 -1.0158204 -1.0881689 2.344074e-38
-2.0261834 -1.0024545 -1.088219 2.344074e-38
-2.0337853 -0.98991889 -1.0882797 2.344074e-38
-2.0462794 -0.96336037 -1.0883825 2.344074e-38
-2.0686638 -0.94198024 -1.0885544 2.344074e-38
-2.0793231 -0.93098509 -1.0886369 2.344074e-38
-2.0861688 -0.91803181 -1.0886923 2.344074e-38
-2.1203983 -0.85326552 -1.0889701 2.344074e-38
-2.1269393 -0.84017158 -1.0890236 2.344074e-38
-2.1784348 -0.80089062 -1.089415 2.344074e-38
-2.2020698 -0.79667926 -1.089588 2.344074e-38
-2.2577045 -0.79252607 -1.0899932 2.344074e-38
-2.3609591 -0.86268377 -1.0907092 2.344074e-38
-2.3670299 -0.88305032 -1.090744 2.344074e-38
-2.3748193 -0.93592829 -1.0907763 2.344074e-38
-2.3747027 -0.95433497 -1.090767 2.344074e-38
-2.3731084 -0.96897095 -1.0907488 2.344074e-38
-2.3655941 -0.99707234 -1.0906814 2.344074e-38
-2.3746426 -1.0351641 -1.0907295 2.344074e-38
-2.3731723 -1.0518682 -1.0907112 2.344074e-38
-2.3722503 -1.0697652 -1.0906963 2.344074e-38
-2.3704443 -1.0824726 -1.0906776 2.344074e-38
-2.3656445 -1.0966479 -1.090636 2.344074e-38
-2.367389 -1.1127216 -1.0906414 2.344074e-38
-2.3658011 -1.1467328 -1.0906144 2.344074e-38
-2.3716681 -1.1657091 -1.0906483 2.344074e-38
-2.3772495 -1.1817218 -1.0906813 2.344074e-38
-2.3764541 -1.2347217 -1.0906514 2.344074e-38
-2.3797839 -1.2475114 -1.0906695 2.344074e-38
-2.3819962 -1.270321 -1.0906751 2.344074e-38
-2.3802266 -1.2870939 -1.0906546 2.344074e-38
-2.3766434 -1.3005867 -1.0906224 2.344074e-38
-2.3749547 -1.3160667 -1.0906031 2.344074e-38
-2.3759995 -1.3536482 -1.0905935 2.344074e-38
-2.3730156 -1.3648232 -1.0905669 2.344074e-38
-2.3718691 -1.3807567 -1.0905511 2.344074e-38
-2.3753989 -1.398825 -1.0905684 2.344074e-38
-2.3790953 -1.4187363 -1.0905861 2.344074e-38
-2.3799481 -1.4344194 -1.0905851 2.344074e-38
-2.3784454 -1.4506035 -1.0905668 2.344074e-38
-2.3769169 -1.5153327 -1.0905261 2.344074e-38
-2.3713603 -1.5287874 -1.0904797 2.344074e-38
-2.3714869 -1.5312951 -1.0904794 2.344074e-38
-2.3702281 -1.5473255 -1.0904629 2.344074e-38
-2.367142 -1.5596468 -1.0904349 2.344074e-38
-2.3622699 -1.5737993 -1.0903932 2.344074e-38
-2.3559587 -1.5870291 -1.0903414 2.344074e-38
-2.3535118 -1.6008474 -1.0903172 2.344074e-38
-2.3565865 -1.6200467 -1.0903307 2.344074e-38
-2.3598037 -1.6384747 -1.0903456 2.344074e-38
-2.3617406 -1.6544731 -1.0903523 2.344074e-38
-2.3620505 -1.7233925 -1.090323 2.344074e-38
-2.3650038 -1.7486444 -1.0903329 2.344074e-38
-2.351645 -1.8157376 -1.0902053 2.344074e-38
-2.3516695 -1.8322845 -1.0901979 2.344074e-38
-2.3501334 -1.8481982 -1.0901793 2.344074e-38
-2.3499808 -1.8644683 -1.090171 2.344074e-38
-2.3529825 -1.8794918 -1.0901858 2.344074e-38
-2.3545752 -1.9122906 -1.0901823 2.344074e-38
-2.3526051 -1.9315974 -1.0901593 2.344074e-38
-2.3492301 -1.9480047 -1.0901272 2.344074e-38
-2.35095 -1.9803524 -1.0901247 2.344074e-38
-2.3521717 -2.014889 -1.0901179 2.344074e-38
-2.3494043 -2.0291672 -1.0900913 2.344074e-38
-2.3455324 -2.0433347 -1.0900569 2.344074e-38
-2.3439276 -2.0577278 -1.0900385 2.344074e-38
-2.3453596 -2.0611796 -1.0900474 2.344074e-38
-2.3533037 -2.0804718 -1.0900961 2.344074e-38
-2.3563237 -2.0981665 -1.0901097 2.344074e-38
-2.3584492 -2.113852 -1.0901181 2.344074e-38
-2.3610888 -2.1356199 -1.0901272 2.344074e-38
-2.3594472 -2.1494896 -1.090109 2.344074e-38
-2.3574727 -2.1811764 -1.0900803 2.344074e-38
-2.3581343 -2.2146759 -1.0900697 2.344074e-38
-2.3580549 -2.2477295 -1.0900539 2.344074e-38
-2.3288479 -2.2988038 -1.0898188 2.344074e-38
-2.2999532 -2.3164167 -1.0896013 2.344074e-38
-2.2834454 -2.3216255 -1.0894794 2.344074e-38
-2.2474966 -2.3222713 -1.0892185 2.344074e-38
-2.2173576 -2.3095734 -1.0890057 2.344074e-38
-2.1984184 -2.3050959 -1.0888706 2.344074e-38
-2.1805491 -2.3040829 -1.0887415 2.344074e-38
-2.1593182 -2.3099794 -1.088585 2.344074e-38
1.7776825 -1.9655581 -1.0602092 2.34944e-38
1.7914393 -1.9584309 -1.0601127 2.34944e-38
1.803237 -1.9522805 -1.06003 2.34944e-38
1.8473862 -1.9293672 -1.0597205 2.34944e-38
1.8612852 -1.9221541 -1.0596231 2.34944e-38
1.8959564 -1.9206394 -1.0593725 2.34944e-38
2.006917 -1.8630744 -1.0585946 2.34944e-38
2.0228982 -1.8547417 -1.0584828 2.34944e-38
2.0614769 -1.8677893 -1.058197 2.34944e-38
2.1239212 -1.8498466 -1.0577527 2.34944e-38
2.1713092 -1.7448456 -1.0574573 2.34944e-38
2.1611657 -1.7188495 -1.0575428 2.34944e-38
2.1727176 -1.7112254 -1.0574625 2.34944e-38
2.1850514 -1.7046711 -1.0573761 2.34944e-38
2.2040877 -1.7316538 -1.0572258 2.34944e-38
2.2985108 -1.7446089 -1.0565357 2.34944e-38
2.3314667 -1.7442334 -1.0562969 2.34944e-38
2.3852911 -1.6829733 -1.0559349 2.34944e-38
2.3757215 -1.6372639 -1.0560253 2.34944e-38
2.3665645 -1.6106879 -1.0561037 2.34944e-38
2.3662589 -1.6036414 -1.0561091 2.34944e-38
2.3769534 -1.5885381 -1.0560385 2.34944e-38
2.3884583 -1.582767 -1.0559578 2.34944e-38
2.4031579 -1.5733418 -1.0558555 2.34944e-38
2.4283292 -1.5520196 -1.0556829 2.34944e-38
2.488708 -1.4978909 -1.0552701 2.34944e-38
2.5053644 -1.4558591 -1.0551687 2.34944e-38
2.4974408 -1.410512 -1.0552469 2.34944e-38
2.4630694 -1.3788443 -1.0555104 2.34944e-38
2.4559376 -1.3660507 -1.055568 2.34944e-38
2.3902233 -1.3359045 -1.0560582 2.34944e-38
2.3680537 -1.3291925 -1.0562217 2.34944e-38
2.3614075 -1.3161447 -1.0562761 2.34944e-38
2.341692 -1.2768668 -1.0564369 2.34944e-38
2.3074436 -1.2451833 -1.0566996 2.34944e-38
2.3017344 -1.2315707 -1.0567472 2.34944e-38
2.3049834 -1.1969253 -1.0567396 2.34944e-38
2.3161049 -1.1911309 -1.0566615 2.34944e-38
2.3511477 -1.1564484 -1.0564235 2.34944e-38
2.3658192 -1.0828826 -1.0563508 2.34944e-38
2.3603609 -1.0361762 -1.056412 2.34944e-38
2.353826 -1.023061 -1.0564653 2.34944e-38
2.3454924 -1.0109146 -1.0565312 2.34944e-38
2.2304432 -1.0214999 -1.0573602 2.34944e-38
2.2121532 -1.0475013 -1.0574808 2.34944e-38
2.205709 -1.0673877 -1.0575182 2.34944e-38
2.1998599 -1.0867319 -1.0575519 2.34944e-38
2.1922634 -1.1074167 -1.0575976 2.34944e-38
2.16311 -1.1886371 -1.0577717 2.34944e-38
2.2946143 -1.2188089 -1.0568045 2.34944e-38
2.163321 -1.2544683 -1.0577397 2.34944e-38
2.1566505 -1.2743591 -1.057779 2.34944e-38
2.1479399 -1.2953886 -1.0578324 2.34944e-38
2.1317997 -1.3037834 -1.0579456 2.34944e-38
2.1063466 -1.3169814 -1.0581241 2.34944e-38
2.0851803 -1.4105014 -1.0582347 2.34944e-38
2.0927129 -1.4254875 -1.0581733 2.34944e-38
2.099061 -1.4373688 -1.0581218 2.34944e-38
2.0743346 -1.4656407 -1.0582881 2.34944e-38
2.0568333 -1.4582127 -1.0584183 2.34944e-38
1.9801267 -1.4831033 -1.0589628 2.34944e-38
1.9674811 -1.4881313 -1.0590523 2.34944e-38
1.9541805 -1.495069 -1.0591455 2.34944e-38
1.9094322 -1.518216 -1.0594591 2.34944e-38
1.8902915 -1.5446599 -1.0595858 2.34944e-38
1.8830866 -1.5646707 -1.0596288 2.34944e-38
1.8078792 -1.5874882 -1.0601635 2.34944e-38
1.7852591 -1.5827835 -1.0603296 2.34944e-38
1.7309077 -1.5778675 -1.0607257 2.34944e-38
1.6908681 -1.5987446 -1.0610064 2.34944e-38
1.6540086 -1.6676995 -1.0612419 2.34944e-38
1.6332983 -1.6945559 -1.0613796 2.34944e-38
1.6216526 -1.7007319 -1.0614611 2.34944e-38
1.6125948 -1.705395 -1.0615246 2.34944e-38
1.5445995 -1.7240891 -1.0620089 2.34944e-38
1.5332236 -1.7300712 -1.0620887 2.34944e-38
1.5158802 -1.7390243 -1.0622103 2.34944e-38
1.4847758 -1.788151 -1.0624131 2.34944e-38
1.473426 -1.7940376 -1.0624926 2.34944e-38
1.4594432 -1.8012896 -1.0625907 2.34944e-38
1.3905573 -1.8370759 -1.0630735 2.34944e-38
1.3692933 -1.8645997 -1.063215 2.34944e-38
1.3272961 -1.8863779 -1.0635096 2.34944e-38
1.3141088 -1.8932638 -1.063602 2.34944e-38
1.2858453 -1.9079046 -1.0638001 2.34944e-38
1.2695903 -1.9163547 -1.0639141 2.34944e-38
1.2576772 -1.9225019 -1.0639976 2.34944e-38
1.2439926 -1.9296167 -1.0640935 2.34944e-38
1.229722 -1.9374927 -1.0641934 2.34944e-38
1.2166563 -1.9438308 -1.0642852 2.34944e-38
1.1677852 -1.9526689 -1.0646353 2.34944e-38
1.1258278 -2.009105 -1.0649136 2.34944e-38
1.1051507 -2.0347068 -1.0650518 2.34944e-38
