# .PCD v0.7 - Point Cloud Data file format
VERSION 0.7
FIELDS x y z rgb
SIZE 4 4 4 4
TYPE F F F F
COUNT 1 1 1 1
WIDTH 1051
HEIGHT 1
VIEWPOINT 0 0 0 1 0 0 0
POINTS 1051
DATA ascii
2.5768981 -2.2055187 0.68515861 7.9298639e-39
2.5796483 -2.2055767 0.67810154 1.0326606e-38
2.5630999 -2.2056611 0.68341833 7.8383886e-39
2.5453994 -2.2058702 0.67888278 9.9571014e-39
2.5419176 -2.2058408 0.68404204 8.9440173e-39
2.5284908 -2.2060277 0.67819619 9.772343e-39
2.5113342 -2.2062035 0.67613167 8.9422236e-39
2.5068657 -2.2061663 0.68271697 8.2979262e-39
2.4986501 -2.2062986 0.67758346 1.1618077e-38
2.4950106 -2.2061996 0.68884695 8.4819559e-39
2.4998481 -2.2059691 0.70495605 7.8373054e-39
2.5042005 -2.2057457 0.72084737 7.5610814e-39
2.4797623 -2.2063971 0.68345976 1.014149e-38
2.4806113 -2.206223 0.69776475 8.4815986e-39
2.4994371 -2.205586 0.73816359 7.4692403e-39
2.4640539 -2.2065783 0.67983979 8.2986535e-39
2.459368 -2.2064979 0.69029474 7.929508e-39
2.4658201 -2.2062693 0.7050119 7.6529155e-39
2.4456236 -2.206665 0.68637282 7.5607213e-39
2.4199634 -2.2068715 0.68813503 8.7589169e-39
2.4333217 -2.2067177 0.69119084 6.8227961e-39
2.4305372 -2.206641 0.69989556 7.0993816e-39
2.4115512 -2.2069149 0.69078755 7.2834239e-39
2.4192216 -2.2065215 0.71873856 6.4536633e-39
2.4285355 -2.2061083 0.74712092 5.9930382e-39
2.40941 -2.206723 0.70889503 4.8859802e-39
2.4075596 -2.2065995 0.72089094 5.163293e-39
2.416611 -2.2062538 0.74368799 5.346957e-39
2.4198713 -2.2061377 0.75117892 5.3462381e-39
2.4221926 -2.2059956 0.7616145 5.2547599e-39
2.395412 -2.2066398 0.72664881 3.8714822e-39
2.397918 -2.2064161 0.74394143 6.3600453e-39
2.407907 -2.2061889 0.75587118 4.2406178e-39
2.4127641 -2.2060018 0.76824975 4.6090374e-39
2.2797611 -2.2064571 0.83007669 1.0503438e-38
1.9083382 -2.2137158 0.48880094 2.0369469e-38
1.8534465 -2.21417 0.49144989 2.0831528e-38
1.8178213 -2.2145169 0.48870528 2.1108119e-38
1.7702839 -2.2149336 0.48899823 2.0463114e-38
1.7139493 -2.2154596 0.48660371 2.1844965e-38
1.6071585 -2.216068 0.51540494 1.2627936e-38
1.6043615 -2.2159131 0.5308435 8.5713307e-39
1.6083595 -2.2151594 0.59250236 1.1337902e-38
1.5985304 -2.2150211 0.61181992 1.4009062e-38
1.6084484 -2.2136917 0.71845561 1.345985e-38
1.6214999 -2.213258 0.74578333 1.7977813e-38
1.5756091 -2.2128432 0.8161968 1.0041747e-38
1.582642 -2.2126379 0.8284868 9.67223e-39
2.7005105 -2.2047415 0.65809864 1.2907018e-38
2.6869817 -2.2048416 0.65975142 1.3370166e-38
2.66347 -2.2050953 0.65581924 1.0601392e-38
2.6294086 -2.2053778 0.65740138 1.2537515e-38
2.5985334 -2.2055235 0.66833186 1.0049661e-38
2.5871949 -2.2055347 0.67597777 1.0603198e-38
2.5655737 -2.2057707 0.67211086 9.7734318e-39
2.530901 -2.2060678 0.67293334 1.0786506e-38
2.5173352 -2.2061937 0.67241079 1.134149e-38
2.4832473 -2.2064586 0.67554617 1.0787945e-38
2.4536929 -2.2065475 0.69035375 8.7581757e-39
2.418911 -2.2068455 0.69116127 6.2685419e-39
2.3813369 -2.206847 0.71954286 1.3180755e-38
2.3857417 -2.2066004 0.73737073 9.5865378e-39
2.3914509 -2.2064295 0.74769956 1.0324463e-38
2.399328 -2.2062013 0.76130235 9.1255681e-39
2.4054625 -2.2059879 0.77496749 3.5959785e-39
2.3802631 -2.2064519 0.75426155 1.1982216e-38
1.9269496 -2.2136328 0.48179707 2.1291788e-38
1.8913418 -2.2139733 0.47957897 2.027908e-38
1.8726532 -2.2140608 0.48626688 1.9909567e-38
1.8579072 -2.2142265 0.48321211 2.1293945e-38
1.8371648 -2.2143905 0.48487723 2.129287e-38
1.8231854 -2.2145376 0.48285601 2.2030798e-38
1.8037529 -2.2146676 0.4864473 2.2123355e-38
1.7889327 -2.2148173 0.48484704 2.1754211e-38
1.7559404 -2.2150083 0.49348474 2.249213e-38
1.7326485 -2.2152612 0.48944148 2.2214462e-38
1.7201095 -2.2154241 0.48498255 2.2030071e-38
1.6971067 -2.2156141 0.48613811 2.1661656e-38
1.6640848 -2.2160263 0.47579077 1.880143e-38
2.926666 -2.2027524 0.65723681 1.1248916e-38
2.8912153 -2.2031047 0.65387231 1.1248209e-38
2.857125 -2.2033834 0.65581179 8.943311e-39
2.8379471 -2.2035024 0.66015053 8.6685192e-39
2.7523725 -2.2043421 0.65301883 1.4936054e-38
1.6040143 -2.2144427 0.6573301 1.3546633e-38
1.6080054 -2.214232 0.67240685 1.3459137e-38
1.6086566 -2.2140396 0.68842918 1.3552779e-38
1.6086804 -2.2138422 0.70534867 1.3643885e-38
1.6089348 -2.2136731 0.71968007 1.097163e-38
1.611045 -2.2134821 0.73447639 1.2261666e-38
1.6141393 -2.2131169 0.76347315 1.4012679e-38
1.5951538 -2.2152066 0.59846526 1.3919403e-38
1.6110882 -2.2121878 0.84555054 9.4871311e-39
2.2021463 -2.2102818 0.56063449 1.9266738e-38
2.1699057 -2.2109902 0.52430332 1.6776365e-38
2.1745346 -2.2107887 0.53805947 1.9450048e-38
2.1780107 -2.2106099 0.55078113 1.9174544e-38
2.1865637 -2.2103601 0.56573582 1.9543325e-38
2.192122 -2.2101517 0.57942158 1.8805051e-38
2.2723508 -2.2072008 0.771869 7.3738777e-39
2.154233 -2.2110631 0.52993286 1.7144431e-38
2.1583133 -2.2108667 0.54367149 1.9542246e-38
2.163167 -2.2106643 0.55738246 1.8899036e-38
2.1718132 -2.2104359 0.57042211 1.9175626e-38
2.1755383 -2.2102649 0.58227313 1.7051894e-38
2.1821623 -2.2100191 0.5983569 1.7696194e-38
2.2586713 -2.2072723 0.77612019 7.3742295e-39
2.2885683 -2.206382 0.82985449 8.1070833e-39
2.150142 -2.2107191 0.5625428 1.9543687e-38
2.1551161 -2.2105157 0.5762496 1.9727001e-38
2.1653976 -2.2102673 0.58976811 1.751216e-38
2.1941502 -2.2092237 0.65754819 1.1788859e-38
2.1993871 -2.2090023 0.67258298 1.0322371e-38
2.2328463 -2.2077527 0.75447255 5.9059728e-39
2.2368054 -2.2075529 0.76861179 5.4442645e-39
2.1100578 -2.211648 0.51324755 1.7511766e-38
2.1241302 -2.2112074 0.54039854 1.9725912e-38
2.1326101 -2.2109835 0.55317062 1.92671e-38
2.1373217 -2.210784 0.56671458 1.9359294e-38
2.1402335 -2.210588 0.58132398 1.880433e-38
2.1436257 -2.2103894 0.59580642 1.8249364e-38
2.192055 -2.2088645 0.68997848 9.3089392e-39
2.194231 -2.2086892 0.70336097 8.206193e-39
2.2174478 -2.2078335 0.7592144 5.3535136e-39
2.2456737 -2.2066104 0.84279948 1.0961165e-38
2.2557759 -2.2065423 0.84099782 1.0778576e-38
2.0855646 -2.2117743 0.52097827 1.6498699e-38
2.0955474 -2.2117167 0.51834607 1.9724468e-38
2.1100433 -2.2110975 0.56052202 1.9543327e-38
2.1196909 -2.2108665 0.57302094 1.9912109e-38
2.1242149 -2.2106664 0.58674383 1.9356784e-38
2.1329591 -2.2104154 0.60166854 1.6679165e-38
2.1360087 -2.210233 0.61502832 1.5294077e-38
2.1626601 -2.209388 0.66733354 1.2155844e-38
2.1676729 -2.2091665 0.68255597 1.0595719e-38
2.1743433 -2.2089508 0.69602758 1.0044708e-38
2.189712 -2.2085068 0.7224527 7.1960025e-39
2.1933687 -2.2082989 0.73752332 6.2765658e-39
2.2022526 -2.2079279 0.76263076 6.365146e-39
2.2381485 -2.2068229 0.83028126 1.0319766e-38
2.0761142 -2.2120004 0.50874019 1.8525555e-38
2.076638 -2.2118213 0.52371699 1.6498699e-38
2.0848584 -2.2115674 0.53928649 1.9910662e-38
2.0878317 -2.2113972 0.55163562 1.9911029e-38
2.097647 -2.2111592 0.56461936 1.9542969e-38
2.1020834 -2.2109804 0.57660925 1.9634806e-38
2.1109712 -2.2107234 0.59191191 1.8343713e-38
2.1157336 -2.2105215 0.60562623 1.7602922e-38
2.1207781 -2.2103174 0.61933047 1.4556513e-38
2.1306703 -2.2100801 0.63218522 1.4827345e-38
2.1331427 -2.2098982 0.64594215 1.3256425e-38
2.1408157 -2.2096634 0.66026747 1.3441537e-38
2.1533825 -2.2092342 0.6875872 1.142116e-38
2.1607513 -2.209017 0.70063347 9.7684824e-39
2.1629539 -2.208847 0.71355891 8.5749825e-39
2.1829171 -2.2080102 0.77025324 7.5618802e-39
2.0501633 -2.2123077 0.50204241 1.6127384e-38
2.0553858 -2.2120876 0.51697129 1.8064216e-38
2.0679841 -2.2116778 0.5426057 1.9632637e-38
2.0736969 -2.211468 0.55628598 1.9542608e-38
2.0810189 -2.2112458 0.56980628 1.9818835e-38
2.1035252 -2.2105498 0.61247277 1.6400423e-38
2.1053467 -2.210386 0.62515473 1.510573e-38
2.114131 -2.2101569 0.63814718 1.5103577e-38
2.1200826 -2.2099452 0.65181887 1.362413e-38
2.1361372 -2.209321 0.69321793 1.0687196e-38
2.142482 -2.2091095 0.70655614 9.6766469e-39
2.1643932 -2.2082353 0.76498199 6.5484513e-39
2.0341959 -2.212579 0.49087021 1.9167675e-38
2.0351055 -2.2123852 0.50682235 1.529654e-38
2.0412471 -2.2121718 0.52048725 2.0645693e-38
2.0454199 -2.2119749 0.53422266 1.8434811e-38
2.052844 -2.211741 0.54868072 1.9727356e-38
2.0582223 -2.2115347 0.56229997 1.9635161e-38
2.0644808 -2.2113292 0.57519466 1.9727002e-38
2.074369 -2.2110651 0.59037554 1.8618865e-38
2.0762725 -2.2108939 0.60359722 1.8525949e-38
2.0843685 -2.2106764 0.61613703 1.6124199e-38
2.0901039 -2.2104664 0.62981647 1.6025169e-38
2.1001275 -2.2102053 0.64462304 1.3440458e-38
2.1022224 -2.210031 0.65800589 1.4544283e-38
2.1418481 -2.2087369 0.73904246 6.8279417e-39
2.1462014 -2.208369 0.76731229 5.5364686e-39
2.0135572 -2.2126615 0.4994427 1.8616309e-38
2.0198402 -2.2124565 0.51228118 1.6495802e-38
2.025667 -2.2122483 0.52573901 1.7880906e-38
2.027308 -2.2120597 0.5406794 1.9080907e-38
2.0378644 -2.211822 0.55307192 1.9543324e-38
2.0420849 -2.2116249 0.5668056 1.9635164e-38
2.0512776 -2.2113764 0.58116078 1.9265308e-38
2.0530462 -2.2111962 0.59528899 1.7880577e-38
2.0642929 -2.2109528 0.607665 1.8248645e-38
2.0700929 -2.2107553 0.62019038 1.6490103e-38
2.0738626 -2.2105393 0.63587791 1.583862e-38
2.0816147 -2.2103214 0.64869922 1.4636481e-38
2.0865622 -2.2101181 0.66240686 1.4452805e-38
2.0962877 -2.2098687 0.676449 1.3443693e-38
2.1012645 -2.2096708 0.68965018 1.3445851e-38
2.1257174 -2.2088163 0.74446899 7.564785e-39
2.1330695 -2.2084403 0.77113843 5.6290243e-39
1.9945937 -2.2129405 0.48989111 1.9079092e-38
2.0003774 -2.2127299 0.50356883 1.6495805e-38
1.9996573 -2.2125611 0.51861531 1.9354236e-38
2.0131292 -2.212302 0.53063589 1.695896e-38
2.0175319 -2.2120659 0.54756665 1.9819914e-38
2.0198722 -2.2119064 0.5594843 1.9819551e-38
2.027601 -2.2116921 0.57201815 1.9726998e-38
2.0345225 -2.2114723 0.58565509 1.9818483e-38
2.0387836 -2.2112746 0.59938747 1.880289e-38
2.047652 -2.2110338 0.61332452 1.7228745e-38
2.0542881 -2.2108204 0.62660199 1.5289762e-38
2.0613425 -2.2105992 0.64023411 1.5653148e-38
2.0682054 -2.2103786 0.65396756 1.5280766e-38
2.0712142 -2.2101831 0.66846561 1.5464794e-38
2.075974 -2.2099833 0.68201578 1.5744615e-38
2.0976205 -2.2093213 0.72242445 1.133615e-38
1.9801639 -2.2130232 0.49374008 2.0921917e-38
1.9859931 -2.2128093 0.50767416 1.7970218e-38
1.9931167 -2.2124248 0.53528535 1.8250061e-38
2.0019608 -2.2121768 0.54986048 2.0003222e-38
2.0096793 -2.2119143 0.56655604 2.0003227e-38
2.0127745 -2.2117515 0.57817483 2.0464207e-38
2.019084 -2.2115459 0.59102887 1.8617423e-38
2.0314374 -2.2111201 0.61822921 1.6396823e-38
2.0411003 -2.2108629 0.63296807 1.537728e-38
2.0461211 -2.2106729 0.64547312 1.5560235e-38
2.0516605 -2.2104645 0.6591596 1.5004901e-38
2.0574424 -2.210254 0.67283738 1.6016526e-38
2.0650058 -2.2100008 0.68884641 1.4918092e-38
2.0715957 -2.2098114 0.7001003 1.5840045e-38
2.0778711 -2.2095969 0.71376038 1.3818938e-38
2.0823503 -2.2093973 0.72748488 1.1797124e-38
2.0944054 -2.2089677 0.75522751 7.6530052e-39
2.0984991 -2.2087662 0.76941907 7.6544429e-39
2.0153701 -2.2112062 0.62301874 1.5569225e-38
2.0232797 -2.2109723 0.63709998 1.5472356e-38
2.0327821 -2.2107339 0.65034497 1.4085107e-38
2.0369678 -2.2105324 0.66447198 1.5649547e-38
2.0397935 -2.2103357 0.67920351 1.5558429e-38
2.0485773 -2.2101123 0.6917336 1.5468029e-38
2.0591872 -2.209873 0.70421976 1.5011006e-38
2.0624695 -2.2096741 0.71881491 1.5017121e-38
2.068243 -2.2094722 0.73175961 1.3363724e-38
2.0722089 -2.2092555 0.74735904 9.0352194e-39
2.0790994 -2.2090466 0.76006478 7.7441148e-39
2.0866852 -2.2088029 0.77524209 7.0998216e-39
1.9440638 -2.2133601 0.49222997 1.9816288e-38
2.0097232 -2.21104 0.64158386 1.5007419e-38
2.0140338 -2.2108271 0.65657866 1.5465517e-38
2.0220554 -2.2106044 0.6696074 1.5741743e-38
2.0294685 -2.2103438 0.68635023 1.5376197e-38
2.0362926 -2.210161 0.69686735 1.583754e-38
2.046948 -2.2097478 0.72425544 1.4832737e-38
2.0491586 -2.2095675 0.73806107 1.3361927e-38
2.0556052 -2.2093515 0.75171518 1.013725e-38
2.0647383 -2.2091174 0.76489288 9.1245171e-39
1.9992857 -2.2109032 0.66123182 1.7121439e-38
2.007139 -2.2106571 0.67639661 1.6847006e-38
2.0096991 -2.210485 0.68923259 1.6295996e-38
2.027493 -2.2100255 0.71517891 1.4919539e-38
2.0321109 -2.2098043 0.73067921 1.3634564e-38
2.0362017 -2.2095919 0.74581057 1.1701693e-38
2.0416436 -2.2094028 0.75790405 1.0414183e-38
2.0442464 -2.2092204 0.77159643 1.0688243e-38
1.981545 -2.2110026 0.66616988 1.7121788e-38
1.9941192 -2.2105687 0.69388026 1.6203441e-38
2.0024827 -2.2103453 0.70670426 1.528724e-38
2.0073268 -2.2101288 0.72162306 1.4552919e-38
2.0119522 -2.2099271 0.73542351 1.3451252e-38
2.0196779 -2.2097065 0.74850452 1.1148169e-38
2.025115 -2.2094989 0.76219469 1.1242517e-38
1.8913985 -2.213855 0.4896985 1.8341526e-38
2.2142727 -2.2107759 0.50900745 1.7511403e-38
2.2251308 -2.2105324 0.52166605 1.6406508e-38
2.2295556 -2.2103117 0.53727746 1.8898312e-38
2.2367363 -2.2101016 0.54985762 1.8806122e-38
2.2023537 -2.2108216 0.51412809 2.0552784e-38
2.2074773 -2.2106168 0.52782947 1.6591975e-38
2.2125621 -2.2104123 0.54153222 1.898979e-38
2.2224002 -2.2101784 0.55413538 1.9727356e-38
2.2259562 -2.2099745 0.56895661 1.8806122e-38
2.2297349 -2.2097726 0.58342344 1.6776752e-38
2.1874728 -2.2109058 0.51820403 1.9079458e-38
2.1928296 -2.2107103 0.53091782 1.8620643e-38
2.1983376 -2.2104611 0.54811698 1.9450771e-38
2.205636 -2.2100811 0.5752278 1.8897604e-38
2.21614 -2.2098422 0.58775252 1.6130666e-38
2.2231719 -2.2096179 0.60167658 1.576081e-38
2.2294092 -2.2094071 0.6150471 1.40091e-38
2.2343812 -2.2092035 0.6287539 1.345449e-38
2.1648092 -2.2111645 0.51321113 1.8709588e-38
2.200145 -2.209914 0.59373683 1.6406174e-38
2.2084675 -2.2096906 0.60660595 1.6129597e-38
2.2197487 -2.2092671 0.63439715 1.2990641e-38
2.2272849 -2.2090468 0.6475867 1.1517317e-38
2.2390568 -2.2086241 0.6749348 1.0231976e-38
2.2854066 -2.2071252 0.768453 7.4657217e-39
2.1488397 -2.2112703 0.51624113 1.9446077e-38
2.1928556 -2.2097752 0.61118025 1.5021091e-38
2.1963136 -2.2096093 0.62280494 1.4004787e-38
2.2042155 -2.2093482 0.63922179 1.2251995e-38
2.214406 -2.2091136 0.6516434 1.2712259e-38
2.2187183 -2.2089133 0.66556323 1.1518752e-38
2.2223563 -2.2087016 0.68094802 9.772081e-39
2.2248755 -2.2085159 0.69498354 8.390587e-39
2.2592428 -2.2073967 0.76499313 6.3633314e-39
2.1289763 -2.2115424 0.50795782 1.4652243e-38
2.1327426 -2.211344 0.52213115 1.7419935e-38
2.1370595 -2.2111433 0.53607446 1.8896151e-38
2.144999 -2.2109241 0.54884213 1.9358931e-38
2.1709304 -2.2100589 0.60345298 1.6584453e-38
2.1772103 -2.2098444 0.61711299 1.4371043e-38
2.1864583 -2.2096176 0.62956917 1.4001907e-38
2.1886208 -2.2094257 0.64440191 1.1879254e-38
2.2083862 -2.2087734 0.68542087 1.0505322e-38
2.2124546 -2.2085772 0.69916004 7.9299676e-39
2.2196507 -2.2083604 0.71229088 7.3796721e-39
2.2238727 -2.2081563 0.72662896 5.4471596e-39
2.226583 -2.2079594 0.74146622 5.4475198e-39
2.2445962 -2.2076812 0.75170124 6.458792e-39
2.2499926 -2.2074771 0.76511514 5.535377e-39
2.2745843 -2.2064328 0.83610576 1.0501632e-38
2.104399 -2.2118502 0.50017905 1.566496e-38
2.1192198 -2.2114103 0.52668947 1.6867486e-38
2.1582475 -2.210124 0.60749418 1.7786592e-38
2.1601293 -2.2099421 0.62168509 1.4091941e-38
2.1679857 -2.2097058 0.63602197 1.362917e-38
2.1736362 -2.2094965 0.64970458 1.2521382e-38
2.1790984 -2.2092886 0.66339374 1.2431347e-38
2.1849389 -2.2090778 0.67706949 1.1697748e-38
2.2026737 -2.2084432 0.71808892 7.1038027e-39
2.2080729 -2.208236 0.73178047 6.0925332e-39
2.2139778 -2.2080245 0.74545377 5.5400755e-39
2.247308 -2.2067995 0.82533616 7.7411847e-39
2.088762 -2.2121 0.49058524 1.7231198e-38
2.0905385 -2.2119207 0.5046407 1.483448e-38
2.102134 -2.2115128 0.53084987 1.7696885e-38
2.1069438 -2.2112911 0.54624408 2.0095057e-38
2.1464126 -2.2099946 0.62760353 1.5379077e-38
2.1524646 -2.2097945 0.64017469 1.3442974e-38
2.1569788 -2.2095723 0.65582353 1.3073114e-38
2.1809857 -2.2087331 0.7096746 8.5738993e-39
2.1998916 -2.2080884 0.75065207 6.0918172e-39
2.0699499 -2.2122118 0.49525848 2.0092517e-38
2.1093988 -2.2108984 0.57808334 2.0002866e-38
2.1477695 -2.2094431 0.67390329 1.2433507e-38
2.1734881 -2.2085795 0.72852176 8.3934695e-39
2.1806612 -2.2083549 0.74236035 7.1045258e-39
2.1849449 -2.2081523 0.75651163 7.0112427e-39
2.0902829 -2.211005 0.58346176 1.981884e-38
2.0971227 -2.2107818 0.59741074 1.815609e-38
2.1269381 -2.2097275 0.66530466 1.3718484e-38
2.1338255 -2.209506 0.67909652 1.2431705e-38
2.1507084 -2.2088788 0.72014654 8.3905926e-39
2.1567225 -2.2086699 0.73347682 6.9197758e-39
2.1645899 -2.2084382 0.74741906 6.5520737e-39
2.17012 -2.2082298 0.7611059 6.550266e-39
2.1123092 -2.2097943 0.67067593 1.3626645e-38
2.1207249 -2.2095509 0.68517607 1.1422599e-38
2.1227119 -2.2093728 0.69896889 1.1421517e-38
2.1318259 -2.2091446 0.7116316 1.0135827e-38
2.1386099 -2.208926 0.72527367 8.0221689e-39
2.1512094 -2.208509 0.75148767 5.9985369e-39
2.1085134 -2.2094481 0.70327544 1.151407e-38
2.1158693 -2.209233 0.71615726 1.0321286e-38
2.1204529 -2.2090175 0.73118484 9.404732e-39
2.1333272 -2.2085919 0.75792629 6.2744064e-39
2.0880928 -2.209734 0.69423628 1.501029e-38
2.0925558 -2.209522 0.70903623 1.390934e-38
2.1060743 -2.2090905 0.73582637 9.7745935e-39
2.1128397 -2.2088718 0.74946898 8.0250443e-39
2.1175561 -2.2086883 0.76162714 6.2736791e-39
2.1240346 -2.2084539 0.77683777 6.2736735e-39
2.0897255 -2.2091863 0.74000829 9.9568169e-39
2.0418012 -2.2099528 0.7105549 1.49181e-38
2.0230379 -2.2102263 0.70133275 1.6113405e-38
2.2546053 -2.206712 0.82730818 3.6871203e-39
2.2620127 -2.2064922 0.84055889 1.022649e-38
2.000283 -2.2129443 0.48525286 1.9079092e-38
1.962536 -2.2132778 0.4852795 1.990885e-38
2.1003077 -2.2081854 0.81789964 9.3949383e-39
1.5965607 -2.2124603 0.83317256 7.4573909e-39
1.5737255 -2.212857 0.8164438 9.6715126e-39
1.6023144 -2.2123401 0.83914155 7.9161915e-39
1.5867233 -2.2124248 0.84370136 9.0265061e-39
1.8348789 -2.214272 0.49679199 1.9447872e-38
1.7992843 -2.2146318 0.49291268 2.0832968e-38
1.7826916 -2.214716 0.49826589 1.9725547e-38
1.785013 -2.2147677 0.49207157 1.9725547e-38
1.7838519 -2.2145331 0.51309043 2.0370552e-38
1.7687091 -2.2147865 0.50283468 1.8066012e-38
1.751072 -2.2150116 0.49688154 2.0924801e-38
1.7494138 -2.2148874 0.50880706 2.0924442e-38
1.7218206 -2.2153609 0.48908648 2.1844965e-38
1.721602 -2.215209 0.50230992 2.0000683e-38
1.7323006 -2.2151494 0.49930772 2.1016632e-38
1.7109041 -2.215395 0.49445221 2.0922644e-38
1.7111988 -2.2152612 0.5057165 2.0000683e-38
1.7152927 -2.215065 0.51945478 1.8063123e-38
1.697238 -2.2155015 0.49569109 2.101629e-38
1.6946071 -2.2153707 0.50891119 2.0368759e-38
1.7125659 -2.2147098 0.5520159 1.2621776e-38
1.719628 -2.2144942 0.56517792 1.3820676e-38
1.7237651 -2.2142851 0.57998437 1.3544089e-38
1.73177 -2.2140629 0.59298283 1.1148453e-38
1.6799479 -2.2157474 0.48771447 2.2401021e-38
1.6788113 -2.2156003 0.50120872 2.1017372e-38
1.6801287 -2.2154138 0.51621675 1.9911383e-38
1.6864944 -2.2151983 0.52987373 1.981775e-38
1.6966763 -2.2148252 0.55418289 1.8709222e-38
1.7027379 -2.2145762 0.57094657 1.6311407e-38
1.7188768 -2.2141261 0.59733808 1.3358248e-38
1.7254766 -2.2137265 0.6266489 1.2066428e-38
1.7353555 -2.2134929 0.63920283 1.2991655e-38
1.7818991 -2.2119687 0.73473012 2.0465647e-38
1.7872413 -2.2117622 0.74842364 2.0004309e-38
1.6563407 -2.2160182 0.48235899 2.0186891e-38
1.6618862 -2.215843 0.493204 2.2032606e-38
1.6612484 -2.2156799 0.50770187 2.1111014e-38
1.668258 -2.2154591 0.52133572 2.120321e-38
1.6704918 -2.2152784 0.53514057 2.0466722e-38
1.6760798 -2.2150695 0.54882532 1.9636601e-38
1.6857634 -2.2148347 0.56163305 1.9727717e-38
1.6873184 -2.2146556 0.57582462 1.9819551e-38
1.6944847 -2.2144294 0.5898208 1.8342612e-38
1.7005478 -2.2142165 0.6034885 1.8248244e-38
1.7066227 -2.2140038 0.61715585 1.4004354e-38
1.7177272 -2.2135878 0.644445 1.3819954e-38
1.7286801 -2.2133329 0.65802056 1.0224688e-38
1.7386321 -2.2129254 0.68543386 1.3360795e-38
1.7653512 -2.2120504 0.74026936 2.0464922e-38
1.6423032 -2.2161338 0.48308536 1.9911027e-38
1.6421361 -2.2159717 0.49714532 2.1110654e-38
1.6484926 -2.215745 0.51177847 2.1663469e-38
1.652513 -2.2155159 0.52839965 2.1202488e-38
1.6556821 -2.2153435 0.54078388 2.1018101e-38
1.6638212 -2.2151182 0.55395818 2.0835147e-38
1.6704866 -2.2149003 0.56760436 2.0558919e-38
1.6774462 -2.2146583 0.5830875 2.0373448e-38
1.6804127 -2.2144842 0.5957976 2.0097224e-38
1.6862242 -2.2142856 0.60844207 1.9819911e-38
1.6908727 -2.214081 0.62247032 1.9449684e-38
1.7054431 -2.2136354 0.6496616 1.4373139e-38
1.7126307 -2.2134197 0.66274971 1.2621774e-38
1.7155075 -2.2132418 0.67584038 1.5020307e-38
1.7197812 -2.2130222 0.69142824 1.2529576e-38
1.7302825 -2.2127793 0.70431161 9.673316e-39
1.6254749 -2.2161977 0.49038523 1.9635158e-38
1.6249487 -2.2160378 0.50450462 2.101846e-38
1.6296686 -2.2158363 0.51822037 2.101882e-38
1.6341174 -2.2156372 0.53194594 2.101846e-38
1.6391407 -2.2154331 0.54565096 2.1018102e-38
1.6500237 -2.2151875 0.55845708 2.0925907e-38
1.651757 -2.2150221 0.57135898 2.1111018e-38
1.6633244 -2.2147441 0.58643949 2.0834791e-38
1.6664562 -2.214556 0.60021222 2.0834791e-38
1.6740382 -2.2143645 0.61090553 2.0742952e-38
1.6776985 -2.214108 0.63014632 2.05582e-38
1.6826986 -2.2139342 0.64128506 1.9175262e-38
1.6888336 -2.2137108 0.65580988 1.9357126e-38
1.6946925 -2.2135098 0.6686253 2.1476545e-38
1.7010924 -2.213294 0.68228096 1.9447156e-38
1.7068138 -2.213084 0.69596094 1.2990195e-38
1.7136438 -2.2128634 0.70971984 1.1884202e-38
1.721118 -2.21264 0.7232185 1.2345187e-38
1.7282614 -2.2124183 0.73684752 1.123847e-38
1.7323767 -2.2122219 0.75058496 1.1516504e-38
1.7383215 -2.2120149 0.76383668 1.2900893e-38
1.6118666 -2.2162616 0.49521172 1.576258e-38
1.6123868 -2.2160611 0.51204729 1.6501228e-38
1.6154739 -2.2159002 0.52351171 1.6593427e-38
1.6208732 -2.2156966 0.53690213 1.9728798e-38
1.6245867 -2.215538 0.54770166 2.1019181e-38
1.6332196 -2.2152665 0.56444174 2.0926627e-38
1.6387124 -2.2150586 0.57812983 2.1295049e-38
1.6465956 -2.2148244 0.59224111 2.083479e-38
1.6539955 -2.2146063 0.60535234 2.0742596e-38
1.6640652 -2.2143731 0.61774069 2.0834794e-38
1.6658887 -2.2141829 0.63269609 2.0927707e-38
1.6697824 -2.2139883 0.64644152 2.0374173e-38
1.674473 -2.2137871 0.66015834 1.9821358e-38
1.6805815 -2.2135751 0.6737119 1.9544411e-38
1.6881253 -2.2133486 0.68743926 1.8713928e-38
1.6943083 -2.2131345 0.70110267 1.7973835e-38
1.696741 -2.2129524 0.71490037 1.6590537e-38
1.707731 -2.2127092 0.72744495 1.6403249e-38
1.7086394 -2.212539 0.74136835 1.5113235e-38
1.7194917 -2.2122757 0.75574028 1.4005073e-38
1.6054282 -2.2159312 0.52847624 1.3918677e-38
1.6108332 -2.215724 0.54216748 1.7330626e-38
1.6090562 -2.2157118 0.54455245 1.3734648e-38
1.6136605 -2.215538 0.55598831 1.6501238e-38
1.6191896 -2.2153299 0.56963795 1.8437704e-38
1.6240122 -2.2151277 0.58335012 2.0927344e-38
1.631669 -2.2149014 0.59696072 2.0927346e-38
1.6382712 -2.2146862 0.61043006 2.0281979e-38
1.6424731 -2.2144833 0.62466717 2.065112e-38
1.6474286 -2.2142808 0.63827974 2.0466731e-38
1.6512579 -2.214083 0.65236753 2.046637e-38
1.6547378 -2.213887 0.66655558 2.0466735e-38
1.665499 -2.2136462 0.67905843 2.0006833e-38
1.6731054 -2.2134485 0.69026864 1.9729164e-38
1.6825756 -2.2131789 0.70621663 1.8346228e-38
1.6869308 -2.2129803 0.71994555 1.908271e-38
1.6952089 -2.21278 0.73086822 1.7698694e-38
1.6957347 -2.2126017 0.74578178 1.7236628e-38
1.703642 -2.212359 0.76062256 1.7326634e-38
1.6080447 -2.215528 0.56111693 1.401051e-38
1.6077245 -2.2153718 0.57474244 1.3918676e-38
1.6071445 -2.215354 0.57672471 1.2259866e-38
1.6128904 -2.2151666 0.58844227 1.5856213e-38
1.6191356 -2.2149522 0.60210347 1.7515749e-38
1.6231002 -2.2147572 0.6158464 1.9175634e-38
1.62865 -2.2145488 0.62953246 2.0743316e-38
1.6317185 -2.2143612 0.64330739 2.0558928e-38
1.6381712 -2.2141452 0.65696114 2.0281981e-38
1.6449878 -2.2139192 0.67119652 2.0374178e-38
1.6527679 -2.2136989 0.68420821 2.0282344e-38
1.6630359 -2.2134624 0.69671744 2.0281983e-38
1.6650409 -2.213273 0.71144992 2.0558928e-38
1.6770506 -2.213011 0.72480786 1.9637331e-38
1.6810263 -2.21281 0.73904544 1.8623177e-38
1.6879593 -2.2125936 0.75237238 1.6685258e-38
1.6934149 -2.2123861 0.76605469 1.5300519e-38
1.6072711 -2.2150278 0.60462183 1.4562951e-38
1.6122329 -2.2147939 0.62092936 1.4749486e-38
1.6160655 -2.2146001 0.63467693 1.5304469e-38
1.6201925 -2.2144036 0.64841396 1.9544048e-38
1.6233531 -2.2142153 0.66218561 2.065076e-38
1.632982 -2.2139428 0.67827737 2.0097591e-38
1.6391985 -2.2137585 0.68938798 2.0373817e-38
1.6466792 -2.2135336 0.70300496 1.9912845e-38
1.653555 -2.2132962 0.71818322 1.9821727e-38
1.6608176 -2.2130909 0.73026836 1.9913565e-38
1.6667993 -2.2128789 0.7439391 1.926855e-38
1.6739187 -2.2126813 0.75549185 1.7978167e-38
1.6038059 -2.2148175 0.6253106 1.0412689e-38
1.6103624 -2.2146049 0.63859886 1.4468925e-38
1.6102213 -2.2144425 0.65264076 1.4839882e-38
1.6136994 -2.2142341 0.66788435 1.4196699e-38
1.6182168 -2.2140422 0.68094832 1.9546574e-38
1.626009 -2.2138059 0.69532311 1.9913921e-38
1.6310025 -2.2136111 0.70826024 2.0373822e-38
1.6398662 -2.2133746 0.72182769 1.9728808e-38
1.6459315 -2.2131615 0.73550117 1.9360031e-38
1.6540993 -2.2129312 0.74908769 1.9267471e-38
1.663837 -2.212698 0.76170683 1.8623175e-38
1.609071 -2.2140577 0.686562 1.5856585e-38
1.6115775 -2.2138779 0.70009518 1.4381096e-38
1.6182739 -2.2136586 0.7138356 1.7885256e-38
1.6251339 -2.213444 0.72704905 1.8623545e-38
1.6328382 -2.2132175 0.74065799 1.9452219e-38
1.639505 -2.212991 0.75502419 1.8990519e-38
1.6124352 -2.2134964 0.7321977 1.4106303e-38
1.6299242 -2.2130387 0.75820631 1.8623544e-38
1.9861622 -2.2126334 0.5226565 2.0184355e-38
2.0249352 -2.2113292 0.6052134 1.7319856e-38
1.9608904 -2.2131186 0.50016677 2.1105594e-38
1.9665797 -2.2129159 0.51325065 1.6403977e-38
1.9707764 -2.2127128 0.52751356 1.6866756e-38
1.9755729 -2.2124951 0.54256988 2.0187612e-38
1.9828452 -2.2122831 0.55523878 1.9911383e-38
1.9907519 -2.2122369 0.55320805 1.9911383e-38
1.9902948 -2.2120686 0.56801158 2.0004305e-38
1.9950999 -2.2118492 0.58319348 2.0095429e-38
1.9992377 -2.211652 0.59698015 1.8986929e-38
2.0079749 -2.2114248 0.60987836 1.8430891e-38
1.944775 -2.2131963 0.50575662 2.0092512e-38
1.9464574 -2.2130184 0.51972091 1.631214e-38
1.9528583 -2.2128046 0.53323674 1.6590536e-38
1.9612023 -2.2125726 0.54682285 2.0095417e-38
1.968779 -2.2123561 0.559659 1.9635881e-38
1.9715904 -2.2121723 0.57330805 2.0096143e-38
1.9772594 -2.2119522 0.58790237 1.9634093e-38
1.9860458 -2.2117164 0.60147262 1.8800384e-38
1.9924097 -2.2115068 0.6146403 1.7602207e-38
1.9965806 -2.2112954 0.62962389 1.5843295e-38
1.9250211 -2.2134922 0.49534658 1.9631183e-38
1.9315422 -2.2132666 0.50976223 1.5113584e-38
1.9321707 -2.2130857 0.52478653 1.6588728e-38
1.940621 -2.2128613 0.53763688 1.8619203e-38
1.944152 -2.2126637 0.55193645 1.9911748e-38
1.9477224 -2.2124643 0.56633985 1.9727363e-38
1.9563062 -2.2122357 0.57946169 2.0003949e-38
1.9668217 -2.2119973 0.59195417 1.8344432e-38
1.9698178 -2.2118068 0.60604089 1.8988368e-38
1.9737498 -2.2116044 0.62041992 1.5478471e-38
1.9789393 -2.2113981 0.63419062 1.7130072e-38
1.988799 -2.2111607 0.64710093 1.4544644e-38
1.9065546 -2.2135618 0.50336707 1.8708863e-38
1.911606 -2.213372 0.51584548 1.6127742e-38
1.9164587 -2.213156 0.53067786 1.852701e-38
1.918759 -2.2129703 0.54488808 1.9266015e-38
1.9303358 -2.212723 0.55731577 1.9727358e-38
1.9358373 -2.2125256 0.57009012 1.9727719e-38
1.9400148 -2.2123077 0.58563465 1.9727362e-38
1.9461138 -2.2121031 0.59858245 1.8341205e-38
1.9519311 -2.2118945 0.61208189 1.8431608e-38
1.9593065 -2.2116706 0.62570262 1.4187734e-38
1.9654059 -2.2114677 0.63849151 1.5654229e-38
1.9726745 -2.2112346 0.65299368 1.4913067e-38
1.9867344 -2.2108057 0.67913461 1.5928291e-38
1.8818381 -2.213876 0.49515083 1.8985453e-38
1.8873597 -2.2136762 0.50812608 1.6865308e-38
1.8914133 -2.2134738 0.52241254 1.6590155e-38
1.8997453 -2.2132497 0.53533542 1.6776e-38
1.9051043 -2.2130427 0.54902828 2.0003942e-38
1.9136022 -2.212796 0.56375831 1.9912111e-38
1.9200859 -2.2125931 0.57626146 1.9819555e-38
1.9255369 -2.2123854 0.58995128 1.9542613e-38
1.9335479 -2.2121542 0.60372406 1.7971702e-38
1.9366968 -2.2119567 0.61829925 1.8061741e-38
1.9461306 -2.2117269 0.63086832 1.5754701e-38
1.9511715 -2.2115226 0.64457273 1.4824109e-38
1.9609472 -2.211273 0.6585992 1.6753368e-38
1.9669999 -2.211066 0.67177552 1.6846636e-38
1.9730135 -2.2108533 0.68544501 1.6938843e-38
1.9809597 -2.2106369 0.69801557 1.592937e-38
1.9848437 -2.2104127 0.71430236 1.4461082e-38
1.9883293 -2.2102349 0.72693294 1.3818597e-38
1.9962739 -2.2100105 0.74015158 1.3083547e-38
2.0005124 -2.2098131 0.75388455 1.1796412e-38
2.0103848 -2.2097549 0.75139308 1.1796412e-38
2.0103381 -2.209578 0.76661187 1.124071e-38
1.8586328 -2.2140021 0.50192362 2.0829731e-38
1.8682941 -2.2139738 0.49703133 1.9629741e-38
1.8766209 -2.2135515 0.52697247 1.8987604e-38
1.8859862 -2.2133241 0.53939527 2.0462759e-38
1.8900062 -2.2131217 0.55370855 2.0280529e-38
1.8920814 -2.2129548 0.56646323 1.9911753e-38
1.9068213 -2.2126615 0.5804503 2.0095786e-38
1.9115726 -2.2124341 0.59637111 1.8248642e-38
1.909631 -2.2122803 0.61104578 1.8151769e-38
1.9182353 -2.2122304 0.60879135 1.8155725e-38
1.9263149 -2.2119629 0.62563193 1.6490822e-38
1.9289432 -2.2118034 0.63732761 1.4829147e-38
1.9380523 -2.2115786 0.64973634 1.362341e-38
1.9442934 -2.2113643 0.66339773 1.6385304e-38
1.9526722 -2.2111428 0.6760481 1.6109078e-38
1.9567903 -2.2109442 0.68997484 1.6846644e-38
1.9612989 -2.2107422 0.70387554 1.5562388e-38
1.9640708 -2.2105637 0.71710885 1.4184501e-38
1.9708143 -2.2103322 0.73187214 1.3820036e-38
1.9822289 -2.210084 0.74452025 1.2164836e-38
1.9859247 -2.2098777 0.75941181 1.1243233e-38
1.9918671 -2.2096825 0.77168143 1.1795322e-38
1.8487546 -2.2141614 0.49575096 2.0829731e-38
1.8686137 -2.2132592 0.55814099 2.0280534e-38
1.8790175 -2.2129912 0.57323503 1.9819915e-38
1.8872089 -2.2127454 0.58812898 1.9082e-38
1.8901161 -2.2125676 0.60120249 1.7513956e-38
1.8997775 -2.2123313 0.61414617 1.8151769e-38
1.9076902 -2.2120924 0.62865037 1.5472707e-38
1.9112772 -2.2119017 0.64231783 1.5101415e-38
1.9243462 -2.211647 0.65425289 1.3713082e-38
1.9294209 -2.2114198 0.66990256 1.6660812e-38
1.9272546 -2.2112679 0.68460417 1.5556628e-38
1.9359258 -2.2112184 0.68227601 1.6016885e-38
1.9397247 -2.2110245 0.69602478 1.6111237e-38
1.9456218 -2.210813 0.7096985 1.537728e-38
1.9505372 -2.2106099 0.72340739 1.3633128e-38
1.958963 -2.2103739 0.73728007 1.2072283e-38
1.9640268 -2.2101729 0.75069398 1.1704941e-38
1.9670752 -2.2099805 0.76490605 1.1426531e-38
1.8376118 -2.2141643 0.50397015 1.9725531e-38
1.8612872 -2.2130947 0.57780796 2.0464926e-38
1.8695893 -2.2128544 0.59215128 1.9818489e-38
1.8762913 -2.2126362 0.60579616 1.8251519e-38
1.8841425 -2.2124131 0.61899579 1.6309665e-38
1.8874841 -2.212235 0.63174921 1.5748578e-38
1.8951911 -2.2119918 0.64677393 1.4822668e-38
1.9047804 -2.2117541 0.6599139 1.4726869e-38
1.9068413 -2.2115777 0.6734969 1.5555911e-38
1.916557 -2.2113268 0.68766344 1.5556628e-38
1.924969 -2.2110944 0.70124137 1.5098889e-38
1.929345 -2.2108932 0.71517199 1.4732267e-38
1.9378587 -2.2106619 0.7285552 1.4093383e-38
1.9467226 -2.2104256 0.74212396 1.2531099e-38
1.9521196 -2.2102287 0.75493866 1.1796055e-38
1.9504927 -2.2100408 0.77230465 1.1793872e-38
1.8161495 -2.2143991 0.50008255 2.0277272e-38
1.8201727 -2.2141783 0.51598197 1.5761125e-38
1.8238798 -2.2139933 0.52905774 1.6590883e-38
1.8294672 -2.2137959 0.54177302 1.9357855e-38
1.8333889 -2.2135763 0.55765641 1.9912109e-38
1.8439169 -2.2133396 0.56999481 1.9635528e-38
1.8492925 -2.2131324 0.58368713 2.0464926e-38
1.8569661 -2.2129166 0.59637523 1.9173838e-38
1.8613247 -2.2126913 0.61241168 1.806353e-38
1.8666445 -2.212501 0.62472034 1.6125994e-38
1.8729217 -2.2122865 0.63838035 1.6114495e-38
1.8795601 -2.2120748 0.65151978 1.3990753e-38
1.8885376 -2.2118316 0.66559088 1.518713e-38
1.8960849 -2.2116063 0.67920554 1.5371518e-38
1.901709 -2.2113986 0.69275725 1.4729747e-38
1.9060609 -2.2112012 0.70640093 1.509781e-38
1.9140378 -2.2109699 0.72021711 1.44564e-38
1.9223174 -2.2107396 0.73367655 1.3356537e-38
1.925737 -2.2105625 0.74630839 1.2712612e-38
1.9304756 -2.2103381 0.76197082 1.2251264e-38
1.9367905 -2.2101617 0.77231777 1.2438168e-38
1.8023453 -2.2144434 0.50675309 2.0462026e-38
1.806267 -2.2142487 0.5204975 1.3733529e-38
1.8106934 -2.2140498 0.53422374 1.7973474e-38
1.8263267 -2.2134433 0.57443738 1.9819914e-38
1.834663 -2.213201 0.5889048 1.9912116e-38
1.8396412 -2.2129972 0.60261142 1.8160761e-38
1.8451838 -2.2127888 0.61629778 1.9722696e-38
1.8536333 -2.2125509 0.63031155 1.4276331e-38
1.8598139 -2.2123423 0.64354366 1.3075992e-38
1.8653327 -2.2121339 0.65723079 1.4727235e-38
1.8743043 -2.2119029 0.6702649 1.5094931e-38
1.8787149 -2.2116823 0.68585503 1.5370797e-38
1.8814934 -2.2115052 0.69894946 1.6014728e-38
1.8907446 -2.2112732 0.7118603 1.546479e-38
1.8994641 -2.2110331 0.72585213 1.3628438e-38
1.9073774 -2.2108095 0.73903447 1.3537325e-38
1.91311 -2.2105994 0.75271398 1.3262186e-38
1.9155699 -2.210417 0.76651067 1.2525326e-38
1.7888333 -2.2143316 0.52660334 1.649689e-38
1.7949086 -2.2141249 0.53974581 1.7328461e-38
1.798025 -2.2139318 0.55395681 2.0003227e-38
1.8053167 -2.213717 0.56687987 1.9728075e-38
1.8118457 -2.2135003 0.58053094 2.0003948e-38
1.8194402 -2.2132781 0.59384936 1.9543694e-38
1.8236988 -2.2130718 0.60829437 1.8621743e-38
1.8274662 -2.2128706 0.62271541 1.7052281e-38
1.8378491 -2.2126341 0.63513917 1.2994598e-38
1.8465637 -2.2124076 0.64797783 1.2061845e-38
1.8496505 -2.2122052 0.66301805 1.3992912e-38
1.8553047 -2.2119803 0.67803228 1.5370801e-38
1.8574189 -2.2118123 0.69086391 1.4819428e-38
1.8670677 -2.2115796 0.70351714 1.6106561e-38
1.8769641 -2.2113221 0.71811587 1.4912339e-38
1.8833907 -2.2111187 0.73070228 1.4636113e-38
1.8909189 -2.2108958 0.74410164 1.4177294e-38
1.8957471 -2.2106836 0.75865191 1.3349324e-38
1.9019746 -2.2104886 0.77067631 1.3627696e-38
1.7648867 -2.2146368 0.51858485 1.7051508e-38
1.7734338 -2.214416 0.53106087 1.6865301e-38
1.7788701 -2.2142084 0.54475099 1.7604695e-38
1.7836976 -2.2140059 0.55846304 1.9819553e-38
1.7938439 -2.2137709 0.57095045 1.9820632e-38
1.7957649 -2.2136116 0.58316827 2.0005025e-38
1.799988 -2.2133746 0.60031104 2.0557121e-38
1.8084801 -2.2131503 0.61311495 1.9174561e-38
1.813398 -2.2129471 0.62682372 1.5485321e-38
1.8231189 -2.2127144 0.63942593 1.3451973e-38
1.8255534 -2.2125249 0.65385979 1.335943e-38
1.8350269 -2.2122798 0.66770375 1.2431715e-38
1.8403506 -2.2120733 0.68139803 1.3625215e-38
1.8450247 -2.2118723 0.69511545 1.4544283e-38
1.8529682 -2.2116356 0.70941097 1.5187844e-38
1.8596928 -2.2114253 0.7223599 1.509601e-38
1.8692985 -2.211195 0.73483795 1.4912335e-38
1.8707284 -2.211019 0.74887103 1.4452083e-38
1.8769975 -2.2107823 0.76440394 1.3532634e-38
1.76048 -2.2144835 0.53509766 1.7143344e-38
1.7645428 -2.2142813 0.54935759 2.0741148e-38
1.7671018 -2.214108 0.56231326 2.0187616e-38
1.7764316 -2.213851 0.57730198 2.0557119e-38
1.7854121 -2.2136202 0.59029698 2.0280897e-38
1.7852311 -2.2134533 0.60475653 2.0925902e-38
1.7937857 -2.2132158 0.61865318 1.9912835e-38
1.7962083 -2.2130258 0.63311636 2.0557847e-38
1.8054112 -2.2127981 0.64568847 1.7700518e-38
1.8122884 -2.2125783 0.65932703 1.4379703e-38
1.8188329 -2.2123609 0.67303193 1.5018224e-38
1.827643 -2.2121255 0.68654698 1.4831314e-38
1.8319094 -2.2119279 0.700279 1.353699e-38
1.8367076 -2.211726 0.713992 1.3717406e-38
1.8438531 -2.211529 0.72546774 1.4360973e-38
1.8514085 -2.2112787 0.74123532 1.4821228e-38
1.8577614 -2.2110634 0.75489271 1.4911982e-38
1.85823 -2.2108798 0.77028424 1.4270196e-38
1.7302932 -2.2149906 0.51445055 1.8339718e-38
1.7334372 -2.2147932 0.52902299 1.2992001e-38
1.7426335 -2.214566 0.54155153 1.4468215e-38
1.7490933 -2.2143497 0.55520505 1.6959678e-38
1.7530462 -2.214155 0.56894833 1.8436618e-38
1.762261 -2.2139263 0.58158231 2.0280529e-38
1.7632906 -2.213764 0.59472769 1.9450764e-38
1.7719504 -2.2135105 0.60992593 2.0189415e-38
1.7789544 -2.2132897 0.62355995 2.0280896e-38
1.7837654 -2.2130873 0.6372726 2.0649681e-38
1.7894068 -2.2128897 0.6499688 2.0005034e-38
1.7967614 -2.2126546 0.66457689 2.0373815e-38
1.8040016 -2.2124319 0.67820245 1.8160776e-38
1.8111227 -2.2122259 0.69046515 1.7513612e-38
1.8142904 -2.2120121 0.70643741 1.6866802e-38
1.8228621 -2.2117877 0.71918166 1.437106e-38
1.8322406 -2.2115412 0.73324412 1.4275987e-38
1.8358735 -2.2113392 0.7478193 1.3816439e-38
1.8418328 -2.2111485 0.75967443 1.2520296e-38
1.7203565 -2.2148607 0.53315824 1.1515064e-38
1.7276342 -2.2146387 0.54668003 1.2068243e-38
1.73375 -2.2144244 0.56044835 1.2070052e-38
1.7400818 -2.2142093 0.57410645 1.6498689e-38
1.7455412 -2.2140017 0.58779585 1.6683808e-38
1.7513605 -2.2137909 0.60147226 1.6867844e-38
1.7593521 -2.2135708 0.61431348 1.9175625e-38
1.7629153 -2.2133625 0.62949717 2.055784e-38
1.7687175 -2.2131593 0.64250529 2.1110652e-38
1.7761196 -2.2129354 0.65612507 2.0557124e-38
1.7850978 -2.212693 0.67012036 2.1017744e-38
1.7909974 -2.2124867 0.68336207 2.0557126e-38
1.8005495 -2.2122521 0.69623953 2.0189067e-38
1.8011489 -2.2120776 0.71076822 1.871394e-38
1.8079439 -2.2118633 0.7240153 1.9267113e-38
1.81608 -2.2116284 0.73800325 1.7974582e-38
1.8235067 -2.2114043 0.7516222 1.3731443e-38
1.8257602 -2.2112236 0.76542628 1.4008383e-38
1.7331176 -2.2138822 0.60748428 1.2069685e-38
1.7420728 -2.2136528 0.6203835 1.6590174e-38
1.7469746 -2.2134497 0.63409281 1.5764023e-38
1.754665 -2.2132258 0.64749217 1.7054043e-38
1.7573247 -2.2130256 0.66263586 1.7976361e-38
1.7670634 -2.2127953 0.67502803 2.0834431e-38
1.7760301 -2.2125611 0.68833417 2.1295047e-38
1.7805207 -2.2123563 0.70249212 2.0742236e-38
1.788289 -2.2121313 0.71592259 2.083515e-38
1.7944427 -2.2119179 0.72958702 2.0189786e-38
1.7993767 -2.2117221 0.74263519 2.0189065e-38
1.8042855 -2.2114987 0.75809586 1.917455e-38
1.708105 -2.2143693 0.58463919 1.3450456e-38
1.7218207 -2.2138948 0.61496842 1.1422872e-38
1.7399033 -2.2132931 0.65292484 1.4285289e-38
1.7458872 -2.2130806 0.66659534 1.5670749e-38
1.7500143 -2.2128952 0.67939633 1.6131e-38
1.758041 -2.2126548 0.69392985 1.9175264e-38
1.7668545 -2.2124188 0.70749915 2.0466372e-38
1.771929 -2.2122266 0.72016102 1.972808e-38
1.7862482 -2.2115772 0.76505262 1.8620291e-38
1.7107133 -2.2138076 0.63089418 1.3540837e-38
1.7306643 -2.2131541 0.67183435 1.2252996e-38
1.7464328 -2.2127092 0.69807559 1.4194889e-38
1.7496607 -2.2125127 0.71249527 1.7884886e-38
1.7520967 -2.2123468 0.72488838 1.7514657e-38
1.7696313 -2.211832 0.75578558 1.8989068e-38
1.6967496 -2.2138631 0.63671839 1.787874e-38
1.7341408 -2.212585 0.71805829 1.437783e-38
1.7404714 -2.2123702 0.73171645 1.4747338e-38
1.7445043 -2.2121933 0.74384022 1.4193803e-38
1.7535533 -2.2119026 0.76193094 1.7974919e-38
2.0597613 -2.2084532 0.82568431 9.3974578e-39
2.0636826 -2.2084274 0.82491225 1.0409448e-38
2.7921927 -2.2038081 0.66863948 9.0365758e-39
2.7233801 -2.2044244 0.66795391 8.8511e-39
2.6542132 -2.2050364 0.66790074 9.2206112e-39
2.6176088 -2.2053564 0.66819793 8.9436641e-39
2.5888255 -2.2054822 0.67924112 8.4830363e-39
2.5550961 -2.2056801 0.68784314 8.5752361e-39
2.5206218 -2.2060566 0.68168384 8.2990122e-39
2.5308943 -2.2056718 0.70692855 7.9295038e-39
2.5375032 -2.2054329 0.72243702 7.377409e-39
2.5150573 -2.20591 0.69850296 8.2975618e-39
2.5171726 -2.2057221 0.7130301 7.5610814e-39
2.5222547 -2.2054961 0.72858399 7.2848561e-39
2.5288651 -2.2052643 0.74344987 7.3770503e-39
2.5304468 -2.2050943 0.75685418 7.2844945e-39
2.4927771 -2.2061851 0.69178325 8.3897603e-39
2.5118158 -2.2055297 0.73360807 7.1008193e-39
2.5138836 -2.2053757 0.74525821 7.1004634e-39
2.4724097 -2.2064519 0.68433338 9.0351381e-39
2.4824109 -2.2060483 0.7113958 7.5607213e-39
2.4905391 -2.205816 0.72517908 7.2848533e-39
2.4960406 -2.2054427 0.75305623 7.1001005e-39
2.458627 -2.2063541 0.70317668 7.4692431e-39
2.4682872 -2.2061105 0.71678489 7.7451139e-39
2.4631298 -2.2059705 0.73271108 6.6394824e-39
2.4748039 -2.2058985 0.73002601 7.2848533e-39
2.4797456 -2.2056978 0.74350846 7.3766831e-39
2.4822316 -2.2055078 0.75794005 7.1922933e-39
2.4885678 -2.2052927 0.77159798 7.0075461e-39
2.4428644 -2.2066131 0.69294649 7.8373026e-39
2.4469018 -2.2063761 0.71020484 7.929501e-39
2.4519479 -2.2061799 0.72322267 7.1001033e-39
2.4533613 -2.2060196 0.73589808 6.6394824e-39
2.4604328 -2.2057827 0.75087732 7.1001005e-39
2.4676151 -2.2055874 0.76219213 6.9160707e-39
2.4679217 -2.205426 0.77582592 6.8238737e-39
2.4190848 -2.206722 0.7016362 6.822436e-39
2.4277835 -2.2065041 0.71373802 6.8231576e-39
2.4405348 -2.2062438 0.72638744 7.4685285e-39
2.4409668 -2.2060695 0.7410357 7.3759699e-39
2.4452572 -2.2058716 0.75476676 7.2841316e-39
2.4531698 -2.2056372 0.76887506 6.8238737e-39
2.4093182 -2.2067645 0.7053895 6.7298844e-39
2.4250033 -2.206311 0.73241633 6.9149903e-39
2.4341836 -2.2059102 0.75985724 6.6402013e-39
2.4394822 -2.2057037 0.77355242 6.9160693e-39
2.4071381 -2.2064092 0.73752582 5.4391498e-39
2.3692315 -2.2057028 0.82694858 7.6464373e-39
2.2930777 -2.2064064 0.82433867 7.8301419e-39
2.2647452 -2.2066002 0.82921547 1.14207e-38
2.2455509 -2.2067642 0.82969981 1.1512894e-38
2.2577012 -2.2067266 0.82371187 8.5673384e-39
2.2525873 -2.206691 0.83065027 1.1420702e-38
2.2593544 -2.2065649 0.83632892 1.0961165e-38
2.2436643 -2.2066481 0.84109229 1.1328509e-38
2.2090611 -2.2070315 0.83443791 1.1328869e-38
2.2253964 -2.2069025 0.83312035 1.0594911e-38
2.212043 -2.2069852 0.83615863 1.086897e-38
2.2013428 -2.2072136 0.82466865 9.2141428e-39
2.2192366 -2.2076647 0.77233875 7.6522527e-39
2.2030776 -2.2077382 0.77830768 6.9161422e-39
2.1648419 -2.2081125 0.77517962 8.0214108e-39
1.6321559 -2.2118468 0.85883397 7.3662855e-39
1.5818186 -2.2127964 0.81551361 1.0410894e-38
1.5891747 -2.2127264 0.81593865 1.0780761e-38
1.5956318 -2.2126763 0.81533718 1.0965151e-38
1.586237 -2.2125728 0.83135921 8.9361265e-39
1.5892484 -2.2125311 0.83264494 8.7517367e-39
1.6233561 -2.211972 0.85476911 8.4726149e-39
1.5947342 -2.2124798 0.83288956 1.0780045e-38
1.5987315 -2.2120984 0.86259997 8.7502793e-39
1.6065311 -2.2118716 0.8761481 8.5662454e-39
1.6128621 -2.2122257 0.84094727 8.9328755e-39
1.6152998 -2.2121131 0.84876615 7.4573909e-39
1.6231462 -2.2120028 0.85228056 7.9161915e-39
1.6032298 -2.2123852 0.83456653 8.9328755e-39
1.5929319 -2.2124002 0.84109145 9.6722272e-39
1.5996244 -2.2123177 0.84310323 1.0040651e-38
2.0613427 -2.2118783 0.53044063 1.797347e-38
1.5902108 -2.2125041 0.83423781 7.3662855e-39
1.5679704 -2.2129166 0.81570232 9.3038076e-39
1.568967 -2.2127299 0.83096701 9.67223e-39
1.5860666 -2.2125173 0.83625287 9.209824e-39
1.5777057 -2.2126658 0.8298431 9.2109002e-39
1.5818489 -2.2124577 0.84456813 9.7640697e-39
1.8685201 -2.2137799 0.51351821 1.6128463e-38
1.8481903 -2.2140596 0.50491458 2.0829731e-38
1.8525703 -2.213861 0.51864254 1.8157127e-38
1.8619503 -2.2136278 0.53155816 1.622139e-38
1.8669735 -2.2134247 0.5451749 2.0832984e-38
1.8345013 -2.2140992 0.51190728 1.7974172e-38
1.8391267 -2.2139297 0.52296668 1.6314651e-38
1.8420459 -2.2137632 0.53504092 1.7881284e-38
1.8488214 -2.2135146 0.55124044 1.9911751e-38
1.8556513 -2.2132955 0.56488067 2.0188699e-38
1.8137496 -2.2138624 0.54799914 2.009614e-38
1.8185487 -2.2136602 0.56171221 2.0003948e-38
1.7001837 -2.2151423 0.52428854 1.7879104e-38
1.7509305 -2.2147124 0.52267569 1.4469672e-38
1.703495 -2.2149608 0.53734565 1.6311774e-38
1.6882318 -2.2150218 0.54369628 1.9448599e-38
1.6480595 -2.2127657 0.7678827 1.8344796e-38
1.618984 -2.212904 0.77807361 1.5486725e-38
2.1347282 -2.2080402 0.80424005 5.8072639e-39
2.0695863 -2.208904 0.77952397 9.3081839e-39
2.077527 -2.2085047 0.80777633 8.3829472e-39
1.8559952 -2.2107496 0.78316343 1.3993584e-38
1.8208067 -2.2111018 0.77963674 1.1696642e-38
1.8052313 -2.2111802 0.78473991 1.3917611e-38
1.7491375 -2.2118104 0.77319688 1.8802879e-38
1.7340802 -2.211884 0.77829355 1.2534287e-38
1.7181013 -2.2119691 0.7831049 1.1149543e-38
1.6839203 -2.2122502 0.784926 1.0598542e-38
2.1213372 -2.2081072 0.80865926 4.4264917e-39
2.1063318 -2.2081702 0.81462914 5.0714981e-39
2.1016691 -2.2082908 0.80780894 1.0130686e-38
1.6791458 -2.2124591 0.77060074 1.5673272e-38
1.6753665 -2.2123709 0.78104442 1.447184e-38
1.6621003 -2.212465 0.78303277 1.1983641e-38
1.6645464 -2.2125196 0.77648324 1.7608667e-38
1.6470503 -2.2126064 0.78231817 1.6133899e-38
1.6328931 -2.2128108 0.77551854 1.668743e-38
2.1142325 -2.2081594 0.80956608 1.1880236e-38
2.080379 -2.2084332 0.81175739 1.1237399e-38
2.0463121 -2.2087138 0.81353414 1.0592753e-38
2.0914452 -2.208416 0.80483377 9.6725916e-39
2.0631256 -2.2086093 0.80971462 1.0592027e-38
2.0694964 -2.20855 0.80997515 9.4871283e-39
2.0263979 -2.2093105 0.77739483 1.0225096e-38
1.9821137 -2.2097027 0.77733111 1.3080262e-38
1.9651499 -2.2098145 0.78060222 1.1607306e-38
1.9464899 -2.2099457 0.78350025 1.3447596e-38
1.931807 -2.210094 0.78191024 1.1329279e-38
1.9047232 -2.2103198 0.78308183 1.2889404e-38
1.9170163 -2.2102733 0.77774823 1.2248732e-38
1.8967298 -2.2104204 0.7805106 1.2889404e-38
1.870744 -2.2106659 0.77914035 1.4362017e-38
1.8818904 -2.2105961 0.77669376 1.3810294e-38
1.8379163 -2.211004 0.7750597 1.2522814e-38
1.8245338 -2.2111611 0.77172017 1.0221529e-38
1.8023268 -2.2113197 0.77495706 1.5854075e-38
1.8103825 -2.2113054 0.77006644 1.6774601e-38
1.8148159 -2.2111032 0.78407151 1.6500523e-38
1.7790675 -2.2114818 0.77868277 1.7790529e-38
1.7888224 -2.2114253 0.77613664 1.7882733e-38
1.7679596 -2.2116969 0.7686606 1.8435897e-38
1.7342948 -2.2119718 0.77059865 1.2534287e-38
1.71966 -2.21208 0.77241862 1.2438112e-38
1.7030294 -2.2121341 0.78038502 1.1699107e-38
1.7045741 -2.2121849 0.77485305 1.5756081e-38
1.6895809 -2.212275 0.77849698 1.502213e-38
1.670408 -2.2123775 0.78423798 1.4009423e-38
2.127414 -2.2080512 0.80885023 8.0141548e-39
2.1074865 -2.2082164 0.80977553 1.077714e-38
2.1142063 -2.2081428 0.81101042 1.059383e-38
2.0867224 -2.2083895 0.81067342 1.0500916e-38
2.0975492 -2.2082441 0.81494355 5.4388457e-39
1.6938896 -2.2121334 0.78738409 7.9227019e-39
1.7606598 -2.2115614 0.78582931 1.327259e-38
1.764376 -2.2115767 0.78168666 1.7697608e-38
1.7480797 -2.2116642 0.78655416 1.8431207e-38
1.7320434 -2.2118392 0.78369033 1.6587659e-38
1.7125093 -2.2119734 0.78698421 1.087297e-38
1.7011874 -2.2120757 0.78680164 9.4885759e-39
2.0731697 -2.2085137 0.81029934 1.1695856e-38
2.0516956 -2.2087317 0.80789995 1.252201e-38
2.0340965 -2.2088683 0.80954123 1.2431251e-38
2.0382507 -2.208791 0.81301469 1.206283e-38
2.0606825 -2.2085743 0.81457436 1.1327777e-38
2.0926979 -2.2083797 0.80698901 1.0870414e-38
2.3968003 -2.2056849 0.80757117 5.1600672e-39
2.3799238 -2.2058077 0.80983901 9.4892947e-39
2.3539326 -2.2060878 0.805507 8.5684258e-39
2.3628395 -2.2059546 0.81018496 8.7560555e-39
2.3412275 -2.2061601 0.80893528 8.198923e-39
2.3546801 -2.2060621 0.80715108 7.0929636e-39
2.3192635 -2.2064171 0.80354381 8.3836646e-39
2.3287566 -2.206238 0.81170332 7.6439416e-39
2.3073227 -2.206454 0.80942273 1.2798241e-38
2.2857008 -2.2066784 0.80658877 1.0868252e-38
2.2348905 -2.2071786 0.80221194 5.6239502e-39
2.2999921 -2.2065198 0.80936897 7.4606307e-39
2.2699065 -2.2068605 0.80294544 6.7274125e-39
2.2599306 -2.2068338 0.81280267 3.961901e-39
2.2663867 -2.2066774 0.8213414 5.9883971e-39
2.2395651 -2.2069731 0.81631714 8.753173e-39
2.3292139 -2.2063568 0.80116719 1.2339087e-38
2.313314 -2.2064435 0.80578673 7.2762577e-39
2.3943713 -2.20557 0.81926852 2.3034292e-39
2.3868639 -2.2055609 0.82575828 5.5291846e-39
2.3944352 -2.2055452 0.82135606 2.1193995e-39
2.3971448 -2.2057092 0.8052147 8.29252e-39
2.3707802 -2.2058754 0.81095654 7.3727567e-39
2.393899 -2.205725 0.80633569 4.0551462e-39
2.3632939 -2.2059526 0.80999726 7.3727567e-39
2.372647 -2.205847 0.81196874 4.6050815e-39
2.3408699 -2.2062218 0.80390853 9.5818561e-39
2.3318069 -2.206228 0.81026506 1.0414502e-38
2.338804 -2.2061644 0.81041282 1.0689273e-38
2.3040686 -2.2065454 0.80407697 1.1603301e-38
2.3140786 -2.2064106 0.80802667 8.658825e-39
2.3275723 -2.2062283 0.81345004 8.3836646e-39
2.2825899 -2.2066774 0.80903226 1.2155387e-38
2.2899144 -2.2066333 0.80726802 1.4733251e-38
2.2975266 -2.206547 0.80890888 1.0498394e-38
2.2782254 -2.2067707 0.80435067 1.1879519e-38
