# .PCD v0.7 - Point Cloud Data file format
VERSION 0.7
FIELDS x y z rgb
SIZE 4 4 4 4
TYPE F F F F
COUNT 1 1 1 1
WIDTH 1039
HEIGHT 1
VIEWPOINT 0 0 0 1 0 0 0
POINTS 1039
DATA ascii
1.6204127 0.068041794 0.86623853 1.5935374e-38
1.6242769 0.053523082 0.86589581 1.575062e-38
1.6309413 0.040497277 0.86542755 1.5750258e-38
1.6400418 0.0285844 0.8648482 1.6486382e-38
1.6438788 0.014234493 0.86450851 1.5473311e-38
1.6508714 0.0013608292 0.86402535 1.5473673e-38
1.6610509 -0.0097757298 0.86339968 1.5566227e-38
1.6669697 -0.025390888 0.86294246 1.6303069e-38
1.6744473 -0.035940595 0.86245859 1.5659506e-38
1.6774784 -0.048655674 0.86217618 1.6303436e-38
1.5218281 0.28097385 0.87337255 1.1607603e-38
1.528089 0.25117365 0.8727529 1.2805057e-38
1.5202761 0.2305381 0.87293452 1.142393e-38
1.5263425 0.21733227 0.87249446 1.4001437e-38
1.5335916 0.2044552 0.87199837 1.280506e-38
1.5378643 0.19019589 0.8716377 1.372485e-38
1.5470107 0.18030326 0.87107676 1.6856973e-38
1.5550739 0.16462155 0.870511 1.7225389e-38
1.56049 0.14982337 0.87008733 1.7316868e-38
1.569096 0.14034826 0.8695578 1.7500898e-38
1.5757184 0.12728849 0.86909127 1.7041001e-38
1.5797709 0.11290023 0.86874038 1.6488188e-38
1.587064 0.10021729 0.86824411 1.6119767e-38
1.5955037 0.08620774 0.8676765 1.593573e-38
1.5993454 0.073685557 0.86735529 1.7132831e-38
1.607495 0.063415863 0.8668406 1.6303797e-38
1.6132132 0.047788642 0.86639327 1.5290361e-38
1.6197571 0.034676194 0.8659302 1.6394909e-38
1.6264294 0.021643752 0.86546141 1.4737187e-38
1.6336237 0.0089368895 0.86496979 1.5381119e-38
1.6404794 -0.0039810664 0.86449307 1.5934287e-38
1.6498092 -0.015669482 0.86390448 1.7131745e-38
1.6531701 -0.030453635 0.86358428 1.6578934e-38
1.6600074 -0.043383066 0.86310828 1.6395628e-38
1.5522488 0.13155365 0.87031466 1.6856612e-38
1.6263111 -0.011386685 0.86512947 1.6578937e-38
1.6330626 -0.024369745 0.86465734 1.6946995e-38
1.6394933 -0.03755264 0.8641991 1.5842094e-38
1.6531528 -0.063421048 0.86324787 1.4921582e-38
1.5211375 0.19858736 0.87256438 1.206786e-38
1.5267009 0.18439464 0.87213945 1.3264592e-38
1.5327662 0.1709839 0.87169743 1.4462408e-38
1.539567 0.1580316 0.87122303 1.6672939e-38
1.5464071 0.14510381 0.87074697 1.6856612e-38
1.5592692 0.11873825 0.86983067 1.5659147e-38
1.5671377 0.10645171 0.86930948 1.7224671e-38
1.5733806 0.093151599 0.86885959 1.7039567e-38
1.5803875 0.080327779 0.8683762 1.6763696e-38
1.5866537 0.067042239 0.86792529 1.6856965e-38
1.5929121 0.053751841 0.86747473 1.6764409e-38
1.6002685 0.041145943 0.86697602 1.6211594e-38
1.606761 0.028001437 0.86651516 1.685517e-38
1.613184 0.014813547 0.86605734 1.6395268e-38
1.6468706 -0.050145634 0.86369944 1.6026128e-38
1.5327821 0.13803697 0.87135959 1.3264232e-38
1.5388246 0.12461186 0.87091845 1.3817044e-38
1.5461117 0.11196284 0.87042278 1.5291449e-38
1.5526793 0.098865189 0.86995858 1.5199251e-38
1.5595493 0.085956059 0.86948121 1.8882383e-38
1.5663674 0.073014669 0.8690061 1.5751339e-38
1.5729725 0.059940394 0.86854035 1.6395629e-38
1.5794775 0.046803758 0.86807895 1.7132831e-38
1.586545 0.03401769 0.86759287 1.6488181e-38
1.5931699 0.02095568 0.86712623 1.6027566e-38
1.5996389 0.0077966568 0.86666644 1.5014494e-38
1.6131148 -0.018186282 0.86572325 1.6579303e-38
1.6195906 -0.031341102 0.86526316 1.6671492e-38
1.6260841 -0.044484973 0.8648023 1.510633e-38
1.5267315 0.15145698 0.87180096 1.2804341e-38
1.5328683 0.1051339 0.87101865 1.2160049e-38
1.5388603 0.093457334 0.8705979 1.5199247e-38
1.5455076 0.079591811 0.87012196 1.4921589e-38
1.5530673 0.06405066 0.86958295 1.6395636e-38
1.5601712 0.053291894 0.86911583 1.7961514e-38
1.5680113 0.04084114 0.86859435 1.6948802e-38
1.5740452 0.0274988 0.86815459 1.7040632e-38
1.5819494 0.012516641 0.8676039 1.6487822e-38
1.6021032 -0.023921251 0.86621809 1.6303069e-38
1.6090652 -0.036797881 0.86573637 1.7223944e-38
1.5325207 0.071960419 0.87069672 1.3079484e-38
1.5394853 0.059110414 0.87021518 1.5013786e-38
1.5453701 0.045587037 0.8697809 1.5750626e-38
1.5525532 0.032873098 0.86928988 1.556695e-38
1.5591505 0.019793913 0.86882436 1.694844e-38
1.5655712 0.0066046645 0.86836672 1.5751698e-38
1.5790441 -0.019380044 0.86742359 1.5935011e-38
1.5454305 0.012667876 0.86944115 1.3724485e-38
2.2417958 0.57174665 0.84015697 2.1833026e-38
2.2285755 0.59816426 0.84109175 1.3820668e-38
2.2356527 0.58255112 0.84057629 1.7136458e-38
2.2489238 0.57561666 0.83983827 2.1833026e-38
2.2573867 0.5462687 0.83911264 2.1556799e-38
2.2631073 0.53345656 0.83869398 2.1006515e-38
2.2737858 0.51544797 0.837973 1.7046426e-38
2.2785535 0.5087021 0.83766431 2.1556085e-38
2.241008 0.53837174 0.83985513 2.1557161e-38
2.2478669 0.52504659 0.83937407 2.0911796e-38
2.2598493 0.4992305 0.83850753 2.017638e-38
2.2172322 0.59224457 0.84160143 1.3820666e-38
2.2232404 0.57879817 0.84116185 1.2531727e-38
2.229696 0.56563079 0.84070259 1.9438456e-38
2.2701669 0.50432986 0.83804113 2.1280561e-38
2.2724907 0.48907092 0.8377682 2.1558594e-38
2.2821922 0.47760755 0.83716327 2.1651884e-38
2.1950016 0.59689945 0.84276646 1.8333563e-38
2.2020319 0.58414739 0.84228271 1.372811e-38
2.2085125 0.57104564 0.84182292 1.805733e-38
2.2171862 0.55903506 0.84126395 1.9622487e-38
2.2418916 0.50589275 0.83947843 2.1463156e-38
2.2492719 0.4918901 0.83896422 2.1558957e-38
2.2545111 0.47954294 0.83857453 2.1001826e-38
2.2617764 0.46815076 0.83809274 1.5205034e-38
2.2270315 0.49805591 0.84014523 2.1371685e-38
2.2341046 0.48527339 0.83965892 2.1279488e-38
2.2412534 0.47253802 0.83916926 2.1370244e-38
2.175998 0.60447735 0.84379923 2.1650804e-38
2.1821816 0.59043968 0.84334481 2.2017783e-38
2.1881757 0.57698464 0.84290588 2.0359339e-38
2.1944802 0.56372279 0.84245324 2.0544084e-38
2.2492549 0.46033439 0.83864218 2.0634836e-38
2.2605252 0.44972643 0.83796722 2.1282736e-38
2.1571255 0.5937829 0.84463853 1.9254797e-38
2.1640337 0.58088255 0.84415931 1.9162598e-38
2.2391124 0.33945459 0.8379153 2.072559e-38
2.2440715 0.32563066 0.83752465 2.0633391e-38
2.254801 0.3147729 0.83687425 2.0909256e-38
2.2627554 0.3025398 0.83634925 2.1645032e-38
2.2720671 0.29091769 0.83576226 2.1738668e-38
2.2761204 0.2764878 0.83541089 2.1925943e-38
2.2256048 0.3323825 0.83852202 2.072523e-38
2.2321773 0.3192879 0.8380577 2.0725587e-38
2.2408948 0.30700767 0.83749378 2.0172776e-38
2.247788 0.29458061 0.83702022 2.1739387e-38
2.2543483 0.28148234 0.83655643 2.1739026e-38
2.2618549 0.26891303 0.83605045 2.1833748e-38
2.2679343 0.25487342 0.83560127 1.1612653e-38
2.2219591 0.29983613 0.83837229 2.1000736e-38
2.2288437 0.2845723 0.83787 2.0816342e-38
2.2355165 0.27154833 0.83740139 2.0540115e-38
2.2461181 0.26063809 0.83675689 2.1092571e-38
2.2551661 0.24908692 0.83618391 2.109365e-38
2.2648394 0.2345475 0.83554888 1.6766232e-38
2.2038848 0.30450448 0.83932859 2.0724511e-38
2.2104564 0.29140911 0.83886421 2.0540475e-38
2.2172167 0.27843174 0.83839172 2.109221e-38
2.2242534 0.26562637 0.83790696 2.0632671e-38
2.2302332 0.25456309 0.83749318 2.0909258e-38
2.2397356 0.24089447 0.83687574 2.0633388e-38
2.2488418 0.22937945 0.83630013 2.0540475e-38
2.1906898 0.29770547 0.83992231 1.7962966e-38
2.1966159 0.28420791 0.8394863 1.7871128e-38
2.2121344 0.25949845 0.83845341 2.1092571e-38
2.2181723 0.24607074 0.83801264 2.1185124e-38
2.2254291 0.23497851 0.83753431 2.0909259e-38
2.2328954 0.22224823 0.8370288 2.0816703e-38
2.2403085 0.20824902 0.83651292 2.0632314e-38
2.2497327 0.19663362 0.83592033 2.0540475e-38
2.2539401 0.18235525 0.83556283 1.9988029e-38
2.1771798 0.29062995 0.84052902 1.9436293e-38
2.1843522 0.27785662 0.84003776 1.7686376e-38
2.1913068 0.26437527 0.83955026 1.906787e-38
2.1948981 0.25044262 0.8392272 1.7778576e-38
2.2034941 0.23849367 0.83867288 2.0541193e-38
2.2116892 0.22626428 0.83813578 2.1001455e-38
2.2155488 0.21168679 0.83779269 2.109329e-38
2.2221844 0.19863629 0.83732563 2.0356803e-38
2.2311611 0.18682739 0.83675355 2.0355723e-38
2.2410264 0.17578568 0.83614469 2.0724504e-38
2.2478275 0.1628336 0.83567029 2.1829055e-38
2.2541862 0.14960562 0.83521539 1.280578e-38
2.2606144 0.13677092 0.83476096 1.6304528e-38
2.2092607 0.19179331 0.83790523 2.0356803e-38
2.0037804 0.59664559 0.85237592 2.045298e-38
2.1564138 0.29638371 0.84163165 1.8883125e-38
2.1697276 0.27029982 0.84069562 1.7317595e-38
2.1767533 0.25748762 0.84021139 1.7134284e-38
2.1830499 0.24422109 0.83975917 1.7686381e-38
2.1910827 0.2320369 0.83923066 2.1277326e-38
2.1997666 0.21995907 0.83867067 2.0909261e-38
2.2027259 0.20491157 0.83836788 2.1093289e-38
2.216332 0.18103124 0.83743972 2.0908538e-38
2.2231188 0.1662958 0.8369478 2.0816701e-38
2.2296736 0.15319732 0.83648431 2.0632309e-38
2.2529244 0.11586228 0.83493364 2.0263167e-38
2.2605715 0.10343768 0.83442205 1.9896545e-38
2.1360888 0.30233204 0.84271425 1.842322e-38
2.1498289 0.27651373 0.84175938 1.6857342e-38
2.156146 0.26326019 0.84130627 1.6672952e-38
2.1630273 0.2503579 0.84082836 1.6488921e-38
2.1693854 0.23712951 0.84037346 1.9987663e-38
2.1761818 0.22417456 0.83989924 1.8882762e-38
2.1796865 0.20941736 0.83957219 1.7317597e-38
2.1966033 0.18532977 0.83847541 1.7594545e-38
2.2103193 0.15949646 0.83752161 2.0540474e-38
1.9903464 0.58970195 0.8529802 1.6586165e-38
1.9975771 0.57530528 0.85246944 1.6493251e-38
2.0035574 0.56354976 0.85204858 1.6861312e-38
2.009784 0.5502395 0.8515994 1.9070403e-38
2.0694404 0.43270224 0.84739816 1.897604e-38
2.2037168 0.17257248 0.8379873 2.1185124e-38
2.2172587 0.14663064 0.83704114 2.0816341e-38
2.2239711 0.13602166 0.83659518 2.0815982e-38
2.2385385 0.10842855 0.83558065 2.0264966e-38
2.2464216 0.096043386 0.83505762 2.0356436e-38
2.2529721 0.082581669 0.83459067 1.6211975e-38
2.2602565 0.070155039 0.83409739 1.2069305e-38
2.016041 0.50399148 0.85081172 1.594079e-38
2.0360844 0.46491084 0.84940439 1.768782e-38
2.0425265 0.45173496 0.84894574 1.7779657e-38
2.0496135 0.43896097 0.84845889 1.8608697e-38
2.0558527 0.42565879 0.84800917 1.7503431e-38
2.0627902 0.41279167 0.84752876 1.7411233e-38
2.0660527 0.39793709 0.84721279 1.759526e-38
2.1150053 0.30811322 0.84383321 1.8146996e-38
2.1225731 0.2953333 0.84332204 1.6674028e-38
2.1293914 0.282392 0.84284687 1.8146634e-38
2.1364205 0.26958203 0.84236246 1.6581472e-38
2.1428854 0.25642043 0.84190285 1.6857698e-38
2.1469576 0.24203239 0.84155101 1.9803279e-38
2.155401 0.22987589 0.84100217 1.7961884e-38
2.1622496 0.21483941 0.84050405 1.7317955e-38
2.176209 0.19116905 0.83956027 1.7962246e-38
2.1841309 0.17877214 0.83903521 2.1185126e-38
2.190371 0.1655267 0.83858603 2.1093288e-38
2.1971769 0.15147325 0.83810019 2.0540114e-38
2.2047527 0.14026158 0.83760464 2.0724502e-38
2.2113268 0.12716804 0.8371402 2.0632309e-38
2.2247884 0.10117619 0.83619767 2.0264965e-38
2.2443247 0.061779402 0.83481258 1.9987286e-38
2.2481735 0.05136187 0.83451247 1.1610131e-38
1.9725504 0.59702814 0.85394973 2.1740826e-38
1.9765707 0.58253694 0.85359931 1.6770196e-38
1.9833817 0.56959122 0.8531245 1.5940799e-38
1.989669 0.55631864 0.8526727 1.8979283e-38
2.0031495 0.53033853 0.85172933 1.7413762e-38
2.0099881 0.51740998 0.85125327 1.8518305e-38
2.2201545 0.11545865 0.8365767 1.8790203e-38
2.1745944 0.15727133 0.83929461 1.6212693e-38
1.9567217 0.58878195 0.85466093 1.7138256e-38
1.9630373 0.57552719 0.85420787 1.6125187e-38
1.9698707 0.56259525 0.85373211 1.6585804e-38
1.9764695 0.54951715 0.8532666 1.7321925e-38
1.9895378 0.52328014 0.85234129 1.8150244e-38
1.9935416 0.50883222 0.85199225 1.7505596e-38
1.9995182 0.49544638 0.85155487 1.7413761e-38
2.0145135 0.4702124 0.85054296 1.7595986e-38
2.0215657 0.45737222 0.85005707 1.8148436e-38
2.0296538 0.44513717 0.84952533 1.750379e-38
2.0353096 0.43151677 0.84910172 1.8516501e-38
2.04214 0.4185704 0.8486259 1.8700893e-38
2.0490413 0.40560359 0.84814632 1.7319034e-38
2.0752664 0.35322875 0.84629226 1.8423586e-38
2.0816491 0.3400158 0.84583622 1.6858055e-38
2.0885057 0.32709843 0.84535939 1.7594182e-38
2.1020834 0.3011789 0.84441179 1.8607254e-38
2.1115391 0.28964546 0.84381843 1.823919e-38
2.1187975 0.27691531 0.84332341 1.8331024e-38
2.1245158 0.26340619 0.84289771 1.6673309e-38
2.1295273 0.25011051 0.84250981 1.8146274e-38
2.135474 0.23603511 0.84206682 1.8790928e-38
2.1423953 0.22315791 0.84158719 1.8054081e-38
2.1487386 0.20992044 0.84113294 1.6581472e-38
2.1556036 0.19700821 0.84065574 1.7777853e-38
2.1617835 0.18366893 0.84020865 1.8145914e-38
2.1686366 0.17074929 0.83973193 1.7409791e-38
2.182955 0.14529149 0.83875179 2.0816699e-38
2.1915116 0.13200752 0.83818573 2.1000373e-38
2.1988351 0.12080771 0.83770305 1.8606169e-38
2.2040651 0.10685608 0.83729744 2.0264606e-38
2.2120755 0.094677806 0.83677018 1.7040643e-38
2.2188668 0.081719793 0.83629626 2.1090418e-38
2.2255981 0.068724208 0.83582491 2.0448633e-38
2.229126 0.053966962 0.8354966 2.0076978e-38
2.2382851 0.042161107 0.8349154 1.6119062e-38
2.0546949 0.35902324 0.84738564 1.7134289e-38
2.0680902 0.33299011 0.84644592 1.8331033e-38
2.074584 0.31984633 0.84598505 1.8239194e-38
2.0814588 0.30694038 0.8455075 1.7871487e-38
2.0883398 0.29403803 0.84502953 1.8146994e-38
2.101814 0.26805416 0.84408641 1.6397081e-38
2.1085913 0.25508717 0.84361309 1.8422498e-38
2.1148541 0.24179953 0.8431623 1.8054437e-38
2.1215017 0.22875163 0.8426947 1.7317597e-38
2.1354482 0.20306222 0.84173077 1.8238111e-38
2.1420681 0.18999733 0.84126443 1.7961883e-38
2.1486015 0.17687815 0.84080178 1.9527404e-38
2.1548085 0.16355577 0.84035343 1.6212691e-38
2.1615489 0.15056576 0.83988178 1.740979e-38
2.1691468 0.1381105 0.8393724 1.5843907e-38
2.2163069 0.047166925 0.83607143 1.9984783e-38
1.9363481 0.59329087 0.85573125 1.9992348e-38
1.949861 0.56874007 0.85480076 1.8242441e-38
1.9534779 0.55413795 0.85446954 1.9070398e-38
1.9623337 0.54097581 0.85388976 1.8794892e-38
1.978058 0.51730967 0.85285723 1.7137533e-38
1.9888003 0.48986346 0.85203654 1.7597792e-38
1.997385 0.47803086 0.85148388 1.8425026e-38
2.008764 0.45073318 0.85063267 1.870089e-38
2.0177803 0.4390108 0.85005951 1.7411594e-38
2.0226038 0.42497709 0.84967345 1.8608697e-38
2.0291619 0.41187364 0.84920973 1.8700893e-38
2.0363564 0.3991667 0.84871811 1.7319036e-38
2.0954549 0.28128165 0.84454137 1.8238834e-38
2.1290362 0.21625693 0.84218818 1.6765147e-38
2.1767926 0.12568508 0.83886099 1.8882039e-38
2.1863205 0.11415116 0.83826399 1.8698009e-38
2.1900628 0.099573962 0.83792681 1.7133197e-38
2.200336 0.088462874 0.83729672 1.6027578e-38
2.2050028 0.074497342 0.83691925 2.054119e-38
2.2131774 0.062163278 0.83638221 2.0170248e-38
2.2233603 0.036622997 0.83560902 1.8973532e-38
2.2303727 0.02176556 0.83510453 2.0814551e-38
2.2393124 0.0077172648 0.8345114 2.1274798e-38
2.2457335 -0.0033162863 0.83407581 2.2748482e-38
2.0019982 0.43075043 0.85076833 1.8978198e-38
2.0084496 0.41758022 0.85030925 1.9069677e-38
2.0217953 0.3915163 0.84937179 1.8424302e-38
2.0281906 0.37831128 0.84891522 1.8148073e-38
2.0416663 0.35232809 0.84797204 1.7134645e-38
2.054775 0.32611644 0.84704494 1.7134289e-38
2.0595744 0.31206182 0.8466599 1.6674031e-38
2.0687044 0.30041629 0.84608179 1.8423224e-38
2.0751879 0.28726622 0.84562135 1.7042094e-38
2.0816333 0.27409226 0.84516263 1.8239193e-38
2.088635 0.26126534 0.84467936 1.8146634e-38
2.0944157 0.2476479 0.84424955 1.6304885e-38
2.1027503 0.23546927 0.84370595 1.6212693e-38
2.1082804 0.22145303 0.84328467 1.6764785e-38
2.1156132 0.20931594 0.84279186 1.6396721e-38
2.1223316 0.19631226 0.84232104 1.8145914e-38
2.1256902 0.18154481 0.8420012 1.9158981e-38
2.1348238 0.17019039 0.8414259 1.6489277e-38
2.1421454 0.15701002 0.84092307 1.7133204e-38
2.1486406 0.14356819 0.84045899 1.6488555e-38
2.1559691 0.13132261 0.8399654 1.823775e-38
2.1631274 0.11859326 0.83947533 1.7409428e-38
2.1697752 0.10554551 0.83900768 1.6027584e-38
2.1748734 0.09156695 0.83860838 1.6394919e-38
2.1834271 0.079672545 0.83805674 1.6026858e-38
2.1901383 0.066664442 0.83758628 1.7594904e-38
2.1962698 0.053294741 0.83714134 1.4645057e-38
2.2036772 0.040720586 0.8366403 1.381996e-38
2.2134438 0.012743237 0.83586311 2.0723426e-38
2.220361 -0.0001708816 0.83538336 1.9432682e-38
1.9292731 0.57452446 0.85589486 1.5757122e-38
1.942932 0.54865563 0.85494363 1.9070397e-38
1.9494059 0.53549963 0.8544836 1.9070758e-38
1.9621551 0.50906372 0.85357225 1.7229371e-38
1.9753413 0.48290023 0.85264176 1.5940073e-38
1.9824797 0.47015843 0.85215259 1.8240633e-38
1.9889748 0.45701551 0.85169166 1.8240995e-38
1.9955955 0.44395089 0.85122526 1.9346978e-38
2.0158653 0.40501148 0.84980792 1.870089e-38
2.2108278 0.027986633 0.83615065 2.0630531e-38
2.2385092 -0.023524493 0.83423215 1.9709624e-38
2.2449932 -0.036674246 0.83377165 1.2064989e-38
1.9224367 0.55449778 0.85603362 1.6217378e-38
1.9288564 0.54130793 0.85557592 1.6677636e-38
1.9355791 0.52830696 0.85510504 1.6585083e-38
1.9415863 0.51485997 0.85466552 1.6676919e-38
1.9483141 0.50186217 0.85419428 1.7597433e-38
1.9519813 0.48724103 0.85386044 1.686059e-38
1.961952 0.47598019 0.85324401 1.6953141e-38
1.9652371 0.46117857 0.85292745 2.0175298e-38
1.9721705 0.44825178 0.85244673 1.8425023e-38
1.9794164 0.43551153 0.85195214 1.851758e-38
1.9864755 0.42268115 0.85146606 1.9531011e-38
1.9929335 0.40956363 0.85100722 1.7596703e-38
2.0023408 0.39800733 0.85041612 1.8793087e-38
2.0077202 0.38421267 0.85000455 1.8793447e-38
2.0147898 0.37132892 0.84951741 1.7503426e-38
2.0209129 0.35800931 0.84907335 1.7042449e-38
2.0298932 0.34618071 0.84850091 1.8239549e-38
2.0432444 0.32015896 0.84756362 1.7042093e-38
2.048116 0.30620039 0.8471759 1.6674031e-38
2.0573227 0.29445481 0.84659296 1.7042092e-38
2.0618474 0.27994555 0.84621704 1.8054443e-38
2.0710962 0.2686384 0.84563649 1.7962606e-38
2.0749221 0.25422639 0.84529674 1.7225401e-38
2.0814373 0.24101348 0.84483409 1.6304525e-38
2.0875545 0.22763492 0.84438968 1.777785e-38
2.0962863 0.21592647 0.84383094 1.6765143e-38
2.1022391 0.2024063 0.84339345 1.7317593e-38
2.1089561 0.18920398 0.84292078 1.7593821e-38
2.1145859 0.17571887 0.84249973 2.0079856e-38
2.1216376 0.16292289 0.84201443 1.7593824e-38
2.1271918 0.14919353 0.8415947 1.6212331e-38
2.1347783 0.136731 0.84108591 1.7593821e-38
2.1445572 0.12538783 0.8404783 1.7961164e-38
2.1494358 0.11147162 0.84009069 1.584463e-38
2.1575837 0.099170662 0.83955526 1.6487472e-38
2.1624267 0.08519958 0.83916891 1.6487112e-38
2.1676111 0.072988667 0.83878338 1.685734e-38
2.17383 0.058244232 0.8383199 1.0412371e-38
2.182451 0.04411703 0.83774203 1.0782948e-38
2.1904209 0.033788238 0.83723575 2.0354666e-38
2.1973147 0.02085091 0.83675689 2.0354659e-38
2.2017653 0.0065718265 0.8363871 2.0539756e-38
2.2082849 -0.0065558604 0.83592504 1.9156815e-38
2.2150264 -0.01752889 0.8354739 1.8790211e-38
2.2240608 -0.031104527 0.83488089 1.8882752e-38
2.2313125 -0.043775748 0.83438677 1.9984415e-38
2.0071361 0.35084802 0.84969258 1.6950253e-38
2.0406518 0.28578213 0.84734219 1.8422863e-38
2.0744154 0.22087099 0.84498096 1.7686016e-38
2.1010749 0.16872299 0.84310734 1.906643e-38
2.1073532 0.15544492 0.8426559 1.7869687e-38
2.1144488 0.14267643 0.84216857 1.998766e-38
2.1281791 0.11685216 0.84121424 1.6396003e-38
2.1817002 0.012682122 0.83745813 1.0410896e-38
2.187372 -0.00097399595 0.83703339 1.4464627e-38
2.2022014 -0.026113067 0.83603078 1.9712529e-38
1.8880849 0.58598572 0.85808253 1.5572371e-38
1.9064714 0.54618335 0.85675102 1.6492879e-38
1.91361 0.53341717 0.85626167 1.6769466e-38
1.9216453 0.52123928 0.85573316 1.5664926e-38
1.9279754 0.50883669 0.85528803 1.6860947e-38
1.9369572 0.49597907 0.85470498 1.722937e-38
1.9412831 0.4817141 0.85434163 1.6492528e-38
1.9488562 0.46920973 0.85383302 1.6861303e-38
1.9543165 0.45545533 0.85341787 1.9714682e-38
1.961166 0.44253346 0.85294133 1.8425025e-38
1.9678613 0.42951536 0.85247159 1.9070393e-38
1.9744964 0.41645986 0.85200453 1.934698e-38
1.9810147 0.4033314 0.85154259 1.7412312e-38
1.9915422 0.39234617 0.85090101 1.7227562e-38
1.9945035 0.37735656 0.85059881 1.9069674e-38
2.0009754 0.36419922 0.8501389 1.8424659e-38
2.0207026 0.32492146 0.84874541 1.8607615e-38
2.0280342 0.31230024 0.84824771 1.9528493e-38
2.0345275 0.29915634 0.84778684 1.8515415e-38
2.0478747 0.27309301 0.84684932 1.8146277e-38
2.0543501 0.25993791 0.84638923 1.8145918e-38
2.0620151 0.24752446 0.84587693 1.787041e-38
2.0680816 0.23411441 0.84543478 1.6765505e-38
2.0813663 0.20801219 0.84449995 1.6212688e-38
2.0880885 0.19501087 0.84402907 1.7501984e-38
2.0950878 0.18218261 0.84354597 1.6304527e-38
2.1219831 0.13018152 0.84166205 1.823775e-38
2.1356158 0.10429641 0.84071195 1.7132128e-38
2.1422064 0.091213122 0.8402468 1.8328868e-38
2.149127 0.078335479 0.83976716 1.8329229e-38
2.1567614 0.065903112 0.83925629 1.5937922e-38
2.1630154 0.052609865 0.83880585 7.1891502e-39
2.1701484 0.039864652 0.83831692 7.2845828e-39
2.1753707 0.025928253 0.83791184 9.4000012e-39
2.1962354 -0.012640406 0.83646852 1.722363e-38
2.209892 -0.037238017 0.8355304 1.7869003e-38
2.2166188 -0.051356617 0.83504778 1.7047576e-38
1.940523 0.44828355 0.85403782 1.796477e-38
1.9472703 0.43529779 0.85356581 1.7872568e-38
1.9540781 0.42234987 0.85309118 1.9162225e-38
1.9672737 0.39619228 0.85216022 1.7595628e-38
1.9741026 0.3832576 0.85168469 1.8700893e-38
1.980639 0.37014049 0.85122192 1.8608699e-38
1.9872111 0.35704556 0.85075754 1.7319399e-38
1.9938966 0.34402144 0.85028827 1.7135002e-38
2.0010691 0.33130082 0.84979755 1.8055878e-38
2.0071664 0.31790999 0.84935409 1.9067876e-38
2.0139668 0.30495754 0.84887975 1.8791649e-38
2.0200717 0.29157159 0.84843588 1.9436291e-38
2.0274174 0.27895886 0.84793764 1.8422501e-38
2.0342212 0.26600844 0.84746313 1.8329945e-38
2.0410349 0.25306433 0.84698814 1.6581109e-38
2.0544529 0.22704536 0.84604758 1.621233e-38
2.0613034 0.21412414 0.84557098 1.7961526e-38
2.0686603 0.20151855 0.84507227 1.6212693e-38
2.0753047 0.18846862 0.84460479 1.7685658e-38
2.0777805 0.17316276 0.84432375 1.8053361e-38
2.0856266 0.16069864 0.84380174 1.7869329e-38
2.0938435 0.14917721 0.84327084 1.7961523e-38
2.1013305 0.13592559 0.84275895 1.7593459e-38
2.1080821 0.12294247 0.84228677 1.6211968e-38
2.1120541 0.10845749 0.84193885 1.5935743e-38
2.1217895 0.097104035 0.84133339 1.5659512e-38
2.1255319 0.082498223 0.84099585 1.5198172e-38
2.1352117 0.07108783 0.84039253 1.5841746e-38
2.1420989 0.058189448 0.83991438 8.0189108e-39
2.1487138 0.045121208 0.83944815 4.3465994e-39
2.1556237 0.03223693 0.83896905 6.1821995e-39
2.1623487 0.019237431 0.838498 6.2704127e-39
2.1652448 0.0041810744 0.83819842 5.2598859e-39
2.1733027 -0.0081624733 0.83766705 7.189848e-39
2.1810491 -0.020249411 0.83715403 1.9711086e-38
2.1892624 -0.0327521 0.83661324 1.1885728e-38
2.1961281 -0.045663886 0.83613598 1.6396057e-38
1.9010935 0.52685446 0.85682368 1.6861303e-38
1.9151226 0.50121647 0.85585618 1.7136455e-38
1.9214602 0.48797545 0.85540217 1.6953141e-38
1.9279813 0.47484872 0.85494 1.5387978e-38
1.9350888 0.46208778 0.85445225 1.9070033e-38
2.0488901 0.24076945 0.84646761 1.6765503e-38
2.2033541 -0.05835117 0.83564299 2.3508075e-38
1.8878577 0.52003032 0.85741913 1.6308131e-38
1.8944328 0.50693727 0.85695469 1.6675833e-38
1.901184 0.49395403 0.85648251 1.7504515e-38
1.907342 0.4806011 0.85603637 1.6400324e-38
1.9147552 0.46803072 0.85553515 1.5019914e-38
1.9217715 0.4552128 0.85505128 1.8701257e-38
1.9245113 0.43999979 0.85475791 1.8793444e-38
1.9320502 0.42740524 0.85425007 1.7780014e-38
1.9403433 0.41521463 0.85370857 1.8516856e-38
1.947098 0.40223366 0.85323626 1.8700531e-38
1.9533124 0.38771668 0.85277534 1.8884567e-38
1.9612926 0.37655702 0.85225999 1.8516504e-38
1.9747714 0.35057926 0.85131669 1.7042811e-38
1.9815749 0.33762121 0.85084212 1.6858777e-38
1.9890654 0.32497808 0.85033631 1.9160426e-38
1.9936424 0.3112995 0.84996629 1.8423944e-38
2.0009823 0.29728514 0.84945399 1.8423581e-38
2.0088205 0.28478375 0.84893203 1.906715e-38
2.0124164 0.27124542 0.84861279 1.7778216e-38
2.0211034 0.25925785 0.84805346 1.9159344e-38
2.0278223 0.24625446 0.8475827 1.8699448e-38
2.034555 0.23105441 0.84708881 1.823775e-38
2.0425248 0.21909292 0.84656578 1.7777134e-38
2.0483286 0.20746256 0.84615511 1.7777852e-38
2.0537548 0.19373989 0.84574193 1.7685658e-38
2.0604048 0.17874771 0.84525424 1.7961884e-38
2.0668464 0.16743076 0.84481466 1.8053001e-38
2.0735099 0.15439306 0.84434634 1.7593461e-38
2.0802565 0.14140691 0.84387434 1.7593458e-38
2.0903735 0.13022539 0.84325141 1.796152e-38
2.0969417 0.11713678 0.84278733 1.602794e-38
2.1009934 0.10275875 0.84243661 1.5843187e-38
2.1105399 0.091202125 0.84183854 1.5383288e-38
2.1137712 0.076340474 0.841524 1.5289283e-38
2.1218548 0.064170226 0.84099317 1.2436339e-38
2.1301107 0.051921394 0.84045279 5.2645886e-39
2.1354139 0.038225457 0.84004611 7.1055936e-39
2.1421013 0.025207207 0.83957684 6.3625999e-39
2.1500566 0.012806932 0.83905005 6.3647719e-39
2.1542335 -0.0015865264 0.8386929 6.4540935e-39
2.160476 -0.014886859 0.83824301 7.8337615e-39
2.1677327 -0.02755498 0.83774865 1.0595675e-38
2.1774559 -0.038973846 0.837143 1.2898053e-38
2.1831017 -0.052473288 0.83672112 9.1151719e-39
2.1902137 -0.065298088 0.83623242 2.341805e-38
2.0599718 0.14738022 0.84495509 1.8606889e-38
2.0936806 0.082434893 0.84259629 1.5290012e-38
2.1139777 0.043512467 0.84117776 4.9897982e-39
2.1339025 0.0043579531 0.83977562 5.63336e-39
2.1402912 -0.0088514397 0.83931935 6.274021e-39
2.1465836 -0.022120468 0.83886731 5.2602278e-39
2.1536033 -0.034936316 0.83838338 5.7219136e-39
2.1611636 -0.047415044 0.83787566 4.0606098e-39
2.1677649 -0.060491823 0.83741003 2.2958867e-38
1.8668504 0.52651095 0.85854143 1.5756039e-38
1.8739178 0.51276076 0.85804552 1.6308128e-38
1.8815937 0.49877343 0.85751653 1.7504512e-38
1.8942655 0.47393954 0.85662556 1.5664202e-38
1.8987577 0.45976168 0.85625464 1.5755679e-38
1.9069313 0.44542131 0.8556971 1.8701253e-38
1.9134369 0.43425193 0.85525578 1.8701609e-38
1.9198372 0.42105001 0.85479897 1.7872568e-38
1.9272021 0.4087964 0.85430342 1.7871851e-38
1.934292 0.39687538 0.85382509 1.7871854e-38
1.9404459 0.38232177 0.85336685 1.9068598e-38
1.9460076 0.36859712 0.85294694 1.777966e-38
1.9528589 0.35567629 0.85247034 1.8883843e-38
1.9602813 0.34311152 0.85196865 1.8884561e-38
1.9666177 0.32986972 0.8515147 1.9068952e-38
1.9729933 0.3166523 0.85105896 1.7319036e-38
1.9798392 0.30372819 0.8505826 1.8976755e-38
1.9862897 0.29055762 0.85012358 1.7042809e-38
1.9933692 0.27777907 0.84963709 1.7133929e-38
2.0008628 0.26525873 0.8491323 1.8330667e-38
2.00809 0.25311324 0.84864479 1.823883e-38
2.0150726 0.24026768 0.84816235 1.8699088e-38
2.0207253 0.22606528 0.8477329 1.8238107e-38
2.0279768 0.21339399 0.84723872 1.8422142e-38
2.0381136 0.20216604 0.84661436 1.6488199e-38
2.0413244 0.18733127 0.8463012 1.7870049e-38
2.0478618 0.17421475 0.84583837 1.8146634e-38
2.05388 0.16077459 0.84539831 1.8329585e-38
2.0675349 0.13490321 0.84444726 1.8422497e-38
2.0742607 0.12190421 0.8439762 1.8237748e-38
2.0806334 0.10868508 0.84352064 1.8328865e-38
2.0877736 0.095944293 0.84303135 1.7225389e-38
2.1014566 0.070090555 0.8420791 1.7042825e-38
2.1081674 0.057082139 0.8416087 5.3506592e-39
2.1211579 0.03079672 0.84068674 5.3553395e-39
2.128124 0.017947605 0.84020519 6.4580633e-39
1.9323562 0.36151382 0.85356063 1.7503431e-38
1.9398185 0.34897399 0.85305727 1.9068952e-38
1.9466618 0.33604819 0.85258102 1.7687461e-38
1.9592998 0.30954283 0.85167462 1.9160786e-38
1.9664946 0.2968362 0.85118294 1.8976395e-38
1.9726943 0.28350922 0.85073495 1.8147718e-38
1.9801315 0.27095371 0.85023266 1.7962966e-38
1.9867849 0.25790954 0.8497647 1.8054797e-38
1.9939282 0.24517086 0.84927535 1.8147355e-38
2.0005879 0.23213066 0.84880716 1.7041733e-38
2.0070047 0.21893898 0.84834969 1.6949537e-38
2.0275204 0.18015286 0.84692162 1.6304528e-38
2.0342016 0.16712601 0.84645253 1.7133201e-38
2.0398369 0.153447 0.84602928 1.6764783e-38
2.0470321 0.1407405 0.84553754 1.7777134e-38
2.0535862 0.12763457 0.84507412 1.6120131e-38
2.0605111 0.11475977 0.8445943 1.5842828e-38
2.0677745 0.10209588 0.84409964 1.6118693e-38
2.0742013 0.08891052 0.8436417 1.5751347e-38
2.0811727 0.076064631 0.84315979 1.5382569e-38
2.0880003 0.063128941 0.84268421 1.2252299e-38
2.0939405 0.049640216 0.84224766 4.3426464e-39
2.0983524 0.035380606 0.84188002 3.2366547e-39
2.1043892 0.022029668 0.84143996 4.5266719e-39
2.1110349 0.0090128276 0.84097278 4.8947369e-39
2.1202862 -0.0027034557 0.84038788 4.0653294e-39
2.1244891 -0.016995413 0.84003037 4.8018126e-39
2.1344955 -0.028229168 0.83941245 4.9880186e-39
2.1414425 -0.041090298 0.83893168 5.0787709e-39
2.1481593 -0.054094989 0.83846098 8.4065576e-40
1.860471 0.50581139 0.85865027 1.5387618e-38
1.8807654 0.46688735 0.85723197 1.5387256e-38
1.8873804 0.45381919 0.85676575 1.5203587e-38
1.8941964 0.44087642 0.85629076 1.8701253e-38
1.9002447 0.42745498 0.85584944 1.851722e-38
1.907099 0.41453606 0.85537267 1.8608336e-38
1.9145889 0.40201339 0.85486811 1.7503786e-38
1.9211005 0.38888088 0.85440648 1.7595982e-38
1.9275827 0.37572998 0.85394603 1.8700893e-38
1.953757 0.3232795 0.8520937 1.9252985e-38
2.0145009 0.20642011 0.84784478 1.6673309e-38
2.0213661 0.19350812 0.84736758 1.8330308e-38
1.8670607 0.45977074 0.85784805 1.7780743e-38
1.8736428 0.44668216 0.85738331 1.6308131e-38
1.8795829 0.43319324 0.85694671 1.7504146e-38
1.8869171 0.42057362 0.85644895 1.7503431e-38
1.8935469 0.40751469 0.85598207 1.8792734e-38
1.9070308 0.38153681 0.85503852 1.8793087e-38
1.9103777 0.36671028 0.85471863 1.8424662e-38
1.918821 0.35436857 0.85416788 1.8148078e-38
1.9274168 0.34246162 0.85361403 1.7871491e-38
1.9332287 0.32901886 0.85318434 1.9989828e-38
1.9400343 0.31605464 0.85270959 1.9528851e-38
1.9480554 0.30370614 0.85218006 1.7503427e-38
1.9543518 0.29048318 0.85172832 1.7503068e-38
1.9603052 0.27711821 0.85129231 1.6766584e-38
1.9676772 0.26191729 0.85076624 1.7686737e-38
1.9710888 0.24978697 0.85047066 1.8515058e-38
1.9799855 0.23790592 0.84990185 1.8791288e-38
1.9875096 0.22540465 0.84939575 1.7962963e-38
1.9930503 0.21168226 0.84897691 1.6765145e-38
2.0008476 0.19933562 0.84845859 1.6488916e-38
2.0065799 0.18623152 0.84803635 1.6396364e-38
2.0138354 0.17298174 0.84753615 1.8330304e-38
2.0206923 0.16004634 0.84705919 1.9895463e-38
2.0287602 0.14772527 0.84652758 1.8329945e-38
2.0347476 0.13435483 0.84608984 1.6027937e-38
2.0426865 0.12194251 0.84556377 1.6119414e-38
2.0480578 0.10828081 0.84515399 1.6210536e-38
2.0545056 0.095143959 0.84469545 1.5842823e-38
2.0620966 0.080380999 0.84416288 1.5382939e-38
2.0655718 0.067986213 0.84386134 1.3724527e-38
2.0737889 0.058102977 0.84334719 8.3884136e-39
2.0824966 0.043690894 0.84276199 3.0536998e-39
2.0863976 0.029173242 0.84241748 3.4206887e-39
2.093565 0.016449343 0.84192699 4.4337574e-39
2.0996263 0.0030360015 0.84148502 5.3560794e-39
2.1081507 -0.0089147789 0.84093434 4.7106932e-39
2.113683 -0.022584824 0.84051645 4.7103457e-39
2.1212006 -0.035115156 0.84001034 3.9749344e-39
2.1278391 -0.048233878 0.83954239 1.1071092e-38
2.186569 -0.16600958 0.83538532 1.3076236e-38
2.1936536 -0.17883095 0.83489799 1.0775307e-38
2.200727 -0.19167247 0.83441108 8.7509716e-39
2.0659537 0.035047088 0.8435052 4.0645825e-39
2.0795019 0.009109362 0.8425588 2.038822e-39
2.0864317 -0.0037625164 0.84207875 3.973868e-39
2.1803238 -0.18591653 0.83549559 8.566216e-39
1.8671522 0.42722389 0.85751045 1.7595623e-38
1.8718985 0.41280875 0.85712445 1.8976757e-38
1.8787292 0.39985642 0.85664856 1.86087e-38
1.8848615 0.38657111 0.85620439 1.879309e-38
1.8933333 0.37404197 0.85565037 1.8608697e-38
1.8989527 0.3607358 0.85523176 1.85165e-38
1.9065093 0.3482548 0.85472429 1.8424663e-38
1.9122487 0.3346408 0.85429645 1.8607974e-38
1.9196703 0.32207564 0.85379481 1.8792364e-38
1.9256997 0.30864242 0.85335433 1.8700526e-38
1.9324601 0.29566494 0.85288173 1.8884195e-38
1.9392656 0.28271565 0.85240716 1.7318676e-38
1.9466575 0.27013195 0.8519069 1.8331386e-38
1.9527596 0.256744 0.85146314 1.823847e-38
1.960057 0.24410133 0.85096699 1.8423225e-38
1.968944 0.23225874 0.85039908 1.805516e-38
1.9759922 0.21938987 0.84991318 1.7962243e-38
1.9800391 0.20498261 0.84956235 1.6765145e-38
1.9898518 0.19359796 0.84895265 1.6489278e-38
1.9934553 0.17896248 0.84862173 1.6212693e-38
2.0004463 0.16612868 0.84813905 1.8513978e-38
2.0069087 0.15296547 0.84767962 1.8606173e-38
2.0129538 0.13954195 0.84723836 1.7317237e-38
2.0198088 0.12662353 0.84676158 1.7961884e-38
2.0261941 0.11341221 0.84630549 1.6303808e-38
2.0338459 0.10099059 0.84579372 1.6027219e-38
2.0400844 0.087687731 0.84534407 1.7223954e-38
2.0470343 0.074828617 0.84486318 1.5474403e-38
2.0536034 0.061731607 0.84439898 1.0778611e-38
2.0601912 0.048646796 0.843934 8.7586157e-39
2.0732191 0.022384461 0.84301043 2.3150446e-39
2.0936966 -0.016425461 0.84158403 3.9745841e-39
2.1000907 -0.029631242 0.84112751 3.0504572e-39
2.1070697 -0.042472396 0.84064537 2.9564567e-39
2.1143966 -0.055096757 0.84014791 1.1065353e-38
2.1672647 -0.15967399 0.83642054 1.3629407e-38
2.1740346 -0.17264548 0.83594751 1.2892561e-38
2.1874237 -0.19868231 0.83500808 8.9353642e-39
2.1982014 -0.20948695 0.83435577 1.1972071e-38
1.8855934 0.35383478 0.85583264 1.7319037e-38
1.8921463 0.34072796 0.85536921 1.750307e-38
1.9120421 0.30155528 0.85396838 1.7226837e-38
1.9184405 0.28835213 0.85351163 1.7134642e-38
1.9254798 0.27554852 0.85302681 1.8423579e-38
1.9322841 0.26259851 0.85255229 1.6949893e-38
1.9390559 0.24962817 0.85207915 1.6765503e-38
1.9461308 0.23684676 0.85159278 1.6857703e-38
1.9596685 0.21090242 0.85064691 1.7041732e-38
1.9729135 0.1847755 0.8497138 1.786969e-38
1.9796368 0.17177495 0.84924287 1.6396722e-38
1.9861759 0.15865962 0.84877998 1.8974594e-38
1.9922628 0.14526229 0.84833694 1.7869689e-38
1.9990424 0.13229671 0.84786355 1.6028298e-38
2.0062728 0.11961234 0.84737033 1.6303805e-38
2.0134664 0.10690484 0.84687865 1.6580036e-38
2.0404532 0.05496097 0.84499073 1.4462443e-38
2.0463428 0.041440696 0.84455639 1.225552e-38
2.052978 0.028385103 0.84408927 1.1154582e-38
2.0596421 0.015347651 0.8436209 6.5498722e-39
2.0643618 0.0012444494 0.84323937 4.1571439e-39
2.0729125 -0.010763409 0.84268677 1.7611533e-39
2.0787768 -0.023815632 0.84225839 4.52596e-39
2.0859642 -0.037684489 0.84175521 4.339401e-39
2.0899131 -0.051408894 0.84141636 1.0234169e-38
2.0996501 -0.062862784 0.84080964 2.3507374e-38
2.1459975 -0.15431297 0.83754432 1.3721967e-38
2.1532874 -0.16702351 0.83704782 1.3076588e-38
2.159615 -0.18021382 0.83659482 8.4740218e-39
2.1673427 -0.19273436 0.83607835 8.3832667e-39
1.8524796 0.41915098 0.85816544 1.7504146e-38
1.8593682 0.40625358 0.85768723 1.8976757e-38
1.8663046 0.39338583 0.85720688 1.8516504e-38
1.8729267 0.38032207 0.85674042 1.897748e-38
1.87929 0.36709708 0.85628521 1.8608697e-38
1.8997008 0.32824555 0.8548618 1.851578e-38
1.9062595 0.31514233 0.85439807 1.7963682e-38
1.9530243 0.22395226 0.85111433 1.7041733e-38
1.96666 0.19806899 0.85016412 1.8238471e-38
2.0204513 0.094067357 0.84639627 1.6856253e-38
2.0274847 0.081260234 0.84591168 1.8237025e-38
2.0338035 0.068007395 0.84545851 1.7316875e-38
1.8394208 0.41243729 0.85875314 1.8332468e-38
1.8420247 0.39720103 0.85846639 1.8700172e-38
1.8522792 0.38606933 0.85783708 1.8608333e-38
1.8591341 0.37315086 0.8573603 1.870125e-38
1.8660867 0.36029318 0.85687929 1.8240269e-38
1.8724968 0.34709734 0.85642207 1.869981e-38
1.8769096 0.3328073 0.85605407 1.9252623e-38
1.8856984 0.32094347 0.85549092 1.9437012e-38
1.8920094 0.30768576 0.85503805 1.7318673e-38
1.8986746 0.294649 0.85456961 1.7226839e-38
1.9058744 0.28194541 0.8540777 1.7226482e-38
1.9113127 0.26819789 0.85366374 1.7962602e-38
1.9162087 0.25429732 0.85327548 1.7870764e-38
1.9234899 0.24156661 0.85277921 1.7133923e-38
1.9326904 0.2298951 0.85219729 1.6857343e-38
1.9387664 0.21649086 0.85175472 1.6489277e-38
1.9445146 0.20298739 0.8513276 1.6581112e-38
1.9527633 0.19083285 0.85078865 1.6488916e-38
1.9597869 0.17801943 0.85030448 1.7593461e-38
1.966785 0.1651902 0.84982151 1.7961519e-38
1.9727601 0.14918526 0.84935737 1.7685296e-38
1.9804118 0.13911943 0.8488698 1.704101e-38
1.984655 0.12613206 0.84852362 1.6396359e-38
1.9932876 0.11294443 0.84795487 1.6395642e-38
2.0001307 0.10001842 0.84747857 1.6763706e-38
2.0067418 0.086947955 0.84701252 1.7685293e-38
2.0134342 0.073927969 0.84654289 1.7685295e-38
2.0203471 0.061045781 0.84606361 1.704138e-38
2.0258553 0.045675941 0.84562951 1.3359341e-38
2.0350051 0.035508189 0.84506559 8.0210338e-39
2.041949 0.022617992 0.84458464 7.8384418e-39
2.0476129 0.0090959761 0.84416157 5.4439016e-39
2.0516326 -0.0054103425 0.84381115 3.8805598e-39
2.0609529 -0.016948767 0.84322459 1.3920121e-39
2.0653203 -0.031261362 0.84285861 2.3146998e-39
2.0727758 -0.043805409 0.84235549 2.5887672e-39
2.0792537 -0.056958962 0.84189534 1.7882435e-38
2.1326227 -0.16122374 0.83814603 1.1511431e-38
2.1391344 -0.17435636 0.83768427 1.059128e-38
2.1456156 -0.18750782 0.83722395 1.0867501e-38
2.1523724 -0.20048746 0.83675152 1.0868584e-38
2.1594615 -0.21326005 0.83626455 1.4460642e-38
2.0316248 0.00073555548 0.84487975 8.8482651e-39
2.0386488 -0.012077575 0.84439558 6.7320971e-39
2.0520213 -0.038124956 0.84345698 3.1412025e-39
2.1121147 -0.15538967 0.83923656 1.5379671e-38
2.1192191 -0.16815266 0.83874887 1.0683469e-38
2.1255379 -0.18140562 0.83829564 1.1327393e-38
2.1324868 -0.19426543 0.83781475 1.1879861e-38
2.1392145 -0.20726328 0.83734363 1.3998553e-38
1.8252327 0.40466151 0.8593868 1.7779655e-38
1.8310369 0.39144567 0.85895979 1.8607977e-38
1.8387583 0.37841296 0.85843837 1.8148075e-38
1.8469808 0.36681172 0.8579064 1.8793086e-38
1.8537698 0.35383752 0.85743237 1.8792721e-38
1.8602915 0.34074771 0.85697061 1.8607615e-38
1.8649571 0.32663208 0.8565917 1.9068593e-38
1.8750342 0.31537497 0.85596997 1.8516136e-38
1.8803005 0.30039895 0.85555202 1.7595261e-38
1.885281 0.28781149 0.85517299 1.8699091e-38
1.8926696 0.27323991 0.85465246 1.7226119e-38
1.8984729 0.26156637 0.85424131 1.6581828e-38
1.9053481 0.24866046 0.85376376 1.79626e-38
1.9120164 0.23562564 0.85329509 1.7686375e-38
1.9213065 0.22400077 0.85270917 1.8330668e-38
1.9267595 0.21037525 0.8522957 1.7870765e-38
1.932431 0.19677639 0.85187155 1.6673308e-38
1.9413165 0.18492486 0.85130358 1.6580753e-38
1.947728 0.17176476 0.85084665 1.6488196e-38
1.9518973 0.1587363 0.85050386 1.7224678e-38
1.9581428 0.14403753 0.85003954 1.6211612e-38
1.9652058 0.13124882 0.84955364 1.6672586e-38
1.9728287 0.11880914 0.84904325 1.6119774e-38
1.9812561 0.10672743 0.84849602 1.8329585e-38
1.9890739 0.09425842 0.84797537 1.8605812e-38
1.9947733 0.080757283 0.84755081 1.7501262e-38
1.9998577 0.067287512 0.84715742 1.6672589e-38
2.0086415 0.054962009 0.8465898 1.4094373e-38
2.0125246 0.040404145 0.84624571 1.5843923e-38
2.0197911 0.027742222 0.84575087 1.4185859e-38
2.0264132 0.014678533 0.84528434 1.2623579e-38
2.0455568 -0.024963053 0.84391654 5.2580684e-39
2.05899 -0.050972551 0.84297514 3.87556e-39
1.837428 0.34528112 0.85816634 1.7135003e-38
1.8504202 0.31899676 0.85724425 1.7042811e-38
1.858072 0.30657503 0.85673261 1.7134649e-38
1.925114 0.17645013 0.85203129 1.8514692e-38
1.9450837 0.1373236 0.85062724 1.8237744e-38
1.9521539 0.12453927 0.85014111 1.9066423e-38
1.9723341 0.085543938 0.84872776 1.8696923e-38
1.9786364 0.072280847 0.84827524 1.7684929e-38
1.9924335 0.046498254 0.84731799 1.510706e-38
1.998841 0.03330081 0.84686077 1.3634463e-38
2.0059152 0.020518983 0.84637445 1.3725588e-38
2.0126369 0.0075173322 0.84590358 1.4922694e-38
2.0180135 -0.0063228766 0.84549171 1.4462797e-38
2.024698 -0.019347548 0.8450225 1.5569498e-38
2.0320079 -0.031982411 0.84452575 1.0137189e-38
2.0386493 -0.045034017 0.84405839 9.8616856e-39
2.0450339 -0.058245875 0.8436023 2.1106306e-38
2.0921533 -0.1492148 0.84030306 1.5285678e-38
2.0983205 -0.162562 0.83985651 1.0867142e-38
2.1061845 -0.17742196 0.83930922 1.1235919e-38
2.1132374 -0.18922845 0.83883393 1.169654e-38
2.1159356 -0.20280296 0.83855939 1.1514325e-38
2.125334 -0.21375965 0.83797491 1.3629058e-38
1.8117293 0.39802819 0.85999775 1.7411234e-38
1.8180135 0.38475391 0.85954601 1.7962966e-38
1.8249439 0.37188241 0.85906595 1.7043165e-38
1.8313235 0.35866752 0.85861009 1.713608e-38
1.8446534 0.33259356 0.85767329 1.8515781e-38
1.8652905 0.29388314 0.85623986 1.8239552e-38
1.8719327 0.28083202 0.8557725 1.8790926e-38
1.8783451 0.26763761 0.85531521 1.7962605e-38
1.8852252 0.25473481 0.85483736 1.8054802e-38
1.8920683 0.24180898 0.85436112 1.7870408e-38
1.8989587 0.2289125 0.85388279 1.6581474e-38
1.905292 0.21566886 0.85342896 1.6673302e-38
1.9124784 0.20295694 0.85293764 1.7778209e-38
1.9189987 0.18982977 0.85247564 1.8699084e-38
1.9325374 0.16388603 0.85152966 1.6672585e-38
1.9400043 0.15134913 0.85102606 1.8238104e-38
1.95973 0.11207035 0.84963274 1.8698365e-38
1.9659536 0.098758191 0.84918368 1.6764063e-38
1.9859632 0.059656609 0.84777778 1.9987655e-38
1.8115722 0.36497355 0.85966748 1.7964404e-38
1.8174908 0.35147122 0.85923177 1.7135002e-38
1.8235283 0.33830523 0.85879356 1.8147716e-38
1.8311291 0.32438907 0.85826921 1.7503067e-38
1.8376505 0.31246316 0.85781932 1.7134642e-38
1.8449004 0.29979092 0.85732526 1.7134282e-38
1.8508317 0.28629655 0.85688907 1.8238829e-38
1.8580363 0.27359596 0.85639703 1.833103e-38
1.865075 0.26079211 0.85591221 1.8055156e-38
1.8719792 0.24790429 0.85543329 1.787041e-38
1.8783915 0.23470978 0.85497594 1.6212694e-38
1.8848704 0.22155677 0.85451567 1.7778216e-38
1.8922731 0.20897985 0.85401499 1.8054437e-38
1.8986847 0.19578493 0.85355771 1.7961527e-38
1.9054744 0.18282571 0.85308379 1.777785e-38
1.9117532 0.16954802 0.85263234 1.7501258e-38
1.9194973 0.1571838 0.85211658 1.7685655e-38
1.9249191 0.14337188 0.85170269 1.796188e-38
1.9320028 0.13059594 0.8512159 1.658039e-38
1.9386536 0.11755024 0.85074818 1.8513612e-38
1.9454356 0.10458618 0.85027468 1.6580386e-38
1.9524441 0.091763377 0.84979117 1.6395996e-38
1.9555104 0.076835744 0.84948432 1.6763698e-38
1.9665232 0.066156648 0.84882146 1.7500539e-38
1.9720619 0.052417435 0.8484025 1.7316867e-38
1.975595 0.037764478 0.84807497 1.6580378e-38
1.9855359 0.025938738 0.84745431 1.2529209e-38
1.9919212 0.011108616 0.84698164 1.5199265e-38
1.9994991 0.0006149254 0.8464933 1.5106006e-38
2.0043321 -0.012037119 0.84612101 1.3266415e-38
2.0109694 -0.026359916 0.84564078 1.5106721e-38
2.0185704 -0.03892003 0.84513021 1.6305976e-38
2.0246444 -0.052228075 0.84468877 2.0275446e-38
2.0812514 -0.15484275 0.84079349 1.2616336e-38
2.0849531 -0.16798143 0.840473 1.178765e-38
2.092669 -0.18316086 0.83992988 1.270853e-38
2.0980818 -0.19566762 0.83952981 1.2157514e-38
2.1047242 -0.2087186 0.83906245 1.114664e-38
2.0780442 -0.18954027 0.84059978 1.3168791e-38
2.0845072 -0.20270316 0.84014016 1.2156456e-38
1.7975212 0.35919133 0.86031455 1.8332465e-38
1.8047812 0.34391201 0.85979331 1.7871488e-38
1.8110996 0.33172205 0.85935104 1.6950613e-38
1.8176087 0.31858793 0.8588894 1.7042449e-38
1.8241516 0.30629617 0.85843474 1.8239546e-38
1.8299437 0.29207942 0.85799819 1.7686374e-38
1.8388584 0.28226063 0.85744965 1.7594542e-38
1.8433456 0.26820233 0.85708028 1.8054442e-38
1.8515586 0.25412369 0.85652333 1.7870768e-38
1.8575872 0.24045143 0.85608047 1.6397081e-38
1.865624 0.22817759 0.85555089 1.6488561e-38
1.8716848 0.21477011 0.8551091 1.722576e-38
1.877056 0.20110743 0.85469931 1.7133564e-38
1.8835126 0.18798341 0.85424048 1.6120494e-38
1.8922647 0.17434895 0.85366106 1.7409425e-38
1.9008282 0.16388507 0.85312355 1.7501258e-38
1.9054922 0.14986375 0.85274565 1.7685296e-38
1.9139961 0.1377569 0.85219437 1.6580392e-38
1.9213644 0.12506311 0.85169411 1.7869682e-38
1.9272537 0.11165652 0.8512609 1.6395996e-38
1.9343882 0.098859496 0.85077137 1.6580388e-38
1.9415513 0.08606264 0.8502804 1.6764057e-38
1.9448948 0.071292236 0.84996122 1.6763698e-38
1.9538115 0.059468403 0.849392 1.869764e-38
1.9612875 0.046867035 0.84888732 1.777712e-38
1.9653721 0.032482121 0.84853482 1.639635e-38
1.9715285 0.019128162 0.8480888 1.5107776e-38
1.9784541 0.0062536891 0.84760892 1.5015591e-38
1.9850042 -0.0068548992 0.84714556 1.6488918e-38
1.9916813 -0.01988419 0.84667659 1.2713961e-38
1.9988798 -0.032588553 0.84618485 1.713285e-38
2.0048621 -0.046051152 0.84574634 2.0266039e-38
2.0598221 -0.14932401 0.84192717 1.1788367e-38
2.0652628 -0.16312438 0.8415125 1.1235556e-38
2.0727277 -0.17566255 0.84100902 1.280036e-38
1.9111066 0.10323135 0.85198641 1.6027575e-38
1.9644527 -0.0010477769 0.84823799 1.8974585e-38
1.971365 -0.0139306 0.84775871 1.7870751e-38
1.9852076 -0.039684866 0.84679943 1.6580399e-38
1.9900043 -0.051359549 0.84643888 2.2293281e-38
2.0384505 -0.14402825 0.84305561 1.0222126e-38
2.0454049 -0.15688476 0.84257448 1.3168425e-38
2.052007 -0.16996104 0.84210891 1.4088931e-38
2.0586896 -0.18298703 0.84163964 1.3166987e-38
2.0616856 -0.19799766 0.84133554 1.2156083e-38
2.0696974 -0.21094081 0.84080034 1.3998204e-38
1.783955 0.35061079 0.86090869 1.8424659e-38
1.7907778 0.33767238 0.8604334 1.823991e-38
1.8046684 0.31194806 0.85947198 1.8700171e-38
1.8113532 0.29892343 0.85900271 1.8515411e-38
1.8177891 0.28574362 0.85854435 1.8331023e-38
1.824519 0.27274719 0.85807306 1.8515058e-38
1.8316125 0.2599774 0.85758591 1.7041732e-38
1.8377068 0.24658465 0.85714257 1.6765145e-38
1.8445872 0.23368199 0.85666466 1.6489277e-38
1.8582906 0.20784096 0.85571146 1.6581471e-38
1.8651396 0.19491875 0.85523498 1.6396721e-38
1.8713475 0.18159685 0.85478669 1.5936103e-38
1.8779275 0.16850698 0.85432202 1.7777848e-38
1.885101 0.15578704 0.85383123 1.6580751e-38
1.8919476 0.14286332 0.85335493 1.7224681e-38
1.8983924 0.12968916 0.85289615 1.7868966e-38
1.9044989 0.11630402 0.85245228 1.777677e-38
1.918276 0.090508841 0.85149586 1.7408706e-38
1.9248048 0.077387065 0.85103339 1.7224311e-38
1.9321424 0.064769439 0.85053551 1.7408343e-38
1.9385453 0.051569149 0.85007858 1.759274e-38
1.9452093 0.038531516 0.84961027 1.7684572e-38
1.9519089 0.025516205 0.84914035 1.7500178e-38
1.9584967 0.01243108 0.84867525 1.6119049e-38
1.9784919 -0.026679488 0.84727013 1.5937534e-38
1.7973287 0.29160753 0.85963279 1.713428e-38
1.8038484 0.27847996 0.85917079 1.8699445e-38
1.8108941 0.26568043 0.85868567 1.7133926e-38
1.8174806 0.25259453 0.85822076 1.6857698e-38
1.8241906 0.23958562 0.8577503 1.7778211e-38
1.8447838 0.20084789 0.85631895 1.6397081e-38
1.8510041 0.18753371 0.85587001 1.621269e-38
1.8577001 0.17451608 0.85540026 1.602866e-38
1.8643242 0.1614536 0.85493362 1.6856975e-38
1.8712612 0.14858627 0.85445327 1.7869329e-38
1.8782368 0.13574298 0.85397124 1.8145553e-38
1.8844467 0.12242237 0.85352278 1.7869686e-38
1.8915724 0.10967267 0.8530342 1.6119414e-38
1.8980008 0.09648823 0.8525762 1.6856256e-38
1.9049457 0.083625831 0.85209554 1.6027933e-38
1.9114383 0.070481412 0.85163468 1.6303439e-38
1.9186386 0.057778161 0.85114276 1.6027214e-38
1.924767 0.044406746 0.85069793 1.5659152e-38
1.9316547 0.03150868 0.85021967 1.5935014e-38
1.9349303 0.016658943 0.84990323 1.8789833e-38
1.9417902 0.0037170565 0.84942591 1.8053353e-38
1.9516203 -0.0076204715 0.84881586 1.6579309e-38
1.9585937 -0.02046516 0.8483339 1.5843904e-38
1.9653976 -0.033415399 0.84785932 1.7225393e-38
1.9708205 -0.046058603 0.84745747 1.7593854e-38
1.9774981 -0.060255866 0.84697652 2.3142535e-38
2.0169387 -0.13881993 0.84419024 7.4605915e-39
2.0228665 -0.1508304 0.84376937 1.2063879e-38
2.0310574 -0.16195531 0.84324384 1.4180405e-38
2.0384345 -0.17703637 0.84271872 1.4915819e-38
2.0460596 -0.18962975 0.8422066 1.2707445e-38
2.0506105 -0.20378841 0.841833 1.1512167e-38
2.0570726 -0.21695189 0.8413735 1.6299492e-38
1.8315817 0.22700144 0.85725009 1.6212693e-38
1.9549501 -0.05469257 0.84816682 2.3508779e-38
1.992164 -0.13533136 0.84547126 1.1787654e-38
2.0237606 -0.18471593 0.84337777 1.2798561e-38
2.030494 -0.19771019 0.8429063 1.2891126e-38
2.0498269 -0.23723364 0.8415302 1.6574625e-38
1.7840694 0.28200695 0.86020112 1.8699447e-38
1.7920544 0.27008578 0.85967773 1.8146996e-38
1.7960435 0.25799009 0.85935354 1.8146274e-38
1.8028203 0.24500579 0.85887998 1.8331026e-38
1.8148873 0.21833436 0.85800058 1.7870766e-38
1.8218718 0.20545711 0.85751778 1.7961884e-38
1.8312248 0.19382206 0.85692853 1.6304885e-38
1.8351225 0.17934938 0.85658455 1.6857695e-38
1.8432446 0.16704381 0.85605043 1.7593459e-38
1.8492758 0.15371011 0.85561079 1.7684932e-38
1.8549558 0.14019911 0.85518706 1.7500901e-38
1.8633971 0.12804109 0.8546384 1.7408705e-38
