# .PCD v0.7 - Point Cloud Data file format
VERSION 0.7
FIELDS x y z rgb
SIZE 4 4 4 4
TYPE F F F F
COUNT 1 1 1 1
WIDTH 1052
HEIGHT 1
VIEWPOINT 0 0 0 1 0 0 0
POINTS 1052
DATA ascii
2.8621819 0.22945707 0.80821091 5.3494863e-39
2.8641293 0.21391805 0.80523425 5.072898e-39
2.8656533 0.19982615 0.80301028 4.8888655e-39
2.8624446 0.18291746 0.81025559 4.8888697e-39
2.8677676 0.13582858 0.80237067 5.4420407e-39
2.859869 0.16492185 0.81631452 5.6271508e-39
2.861722 0.15008283 0.81348413 5.4416833e-39
2.8653836 0.11506807 0.80820537 5.5335188e-39
2.87042 0.066336825 0.80097526 4.9803423e-39
2.862802 0.098187298 0.81421477 5.9012224e-39
2.8637886 0.08360742 0.81307513 4.980701e-39
2.8678563 0.048643965 0.80699402 4.9799835e-39
2.868715 0.034374714 0.80608904 4.7033966e-39
2.8623648 0.062110234 0.81705981 4.9796234e-39
2.8613851 0.04348471 0.82001323 4.7952335e-39
2.8643668 0.027778437 0.81500995 4.6115625e-39
2.8687067 -0.0050209574 0.80827379 4.3349771e-39
2.8709674 -0.030800296 0.80524284 4.4271699e-39
2.8720887 -0.043679006 0.80374455 2.7680101e-39
2.8776431 -0.054729115 0.79342163 4.2431402e-39
2.8761632 -0.070516847 0.79720312 3.9672679e-39
2.8623838 0.010228466 0.81987703 4.5193669e-39
2.8619609 -0.0058824802 0.82159632 4.5197256e-39
2.8674884 -0.01686679 0.81132317 4.0587489e-39
2.8718722 -0.055959105 0.80484688 3.1371499e-39
2.8747821 -0.088188283 0.80089319 3.3219027e-39
2.8753963 -0.096779451 0.80015749 3.5059395e-39
2.8613245 -0.022147123 0.82374394 4.2431374e-39
2.8631725 -0.036438979 0.82089341 4.0591034e-39
2.8684592 -0.062545396 0.81192571 3.9672707e-39
2.8719165 -0.10928494 0.80769372 2.399229e-39
2.8735006 -0.13068295 0.80575389 3.671402e-43
2.8685586 -0.12496483 0.81516469 3.6914265e-40
2.8698623 -0.14190881 0.8135311 9.2202636e-41
2.8695829 -0.15743704 0.81493539 1.5684019e-39
2.8670876 -0.15584683 0.81975853 1.8446301e-39
2.8673375 -0.16559954 0.81980377 6.4537081e-40
2.862515 -0.1614626 0.82906669 2.1204981e-39
2.8249016 1.3626584 0.81922364 3.5984868e-39
2.8227458 1.2891226 0.82751215 4.059465e-39
2.8246827 1.2779859 0.82431275 3.3215412e-39
2.8264847 1.2646644 0.82149988 3.3215412e-39
2.8238182 1.2434399 0.82791537 3.5977679e-39
2.8276536 1.2298295 0.82111681 4.3360476e-39
2.8273129 1.2173613 0.82247287 3.7825179e-39
2.8288937 1.2042799 0.82008165 3.5059339e-39
2.832454 1.1905509 0.81383061 4.4282447e-39
2.8340271 1.157607 0.81254727 3.690681e-39
2.8314817 1.1378487 0.81864381 3.6903223e-39
2.8346627 1.1141844 0.81368637 4.5197228e-39
2.8359978 1.1029327 0.8116774 4.7955853e-39
2.8302329 1.120424 0.8220607 4.4275272e-39
2.8313653 1.0981631 0.82105678 4.3360504e-39
2.8325186 1.0852696 0.81949675 3.6903251e-39
2.8338342 1.0715675 0.81766146 3.6914041e-39
2.8318064 1.0539478 0.82262206 3.598491e-39
2.8347974 1.0174025 0.81874609 3.6906852e-39
2.8383005 0.990686 0.81332308 3.4140956e-39
2.8289211 1.0482446 0.828614 3.321544e-39
2.8284924 1.0326891 0.83031356 3.4140998e-39
2.8366568 0.96930325 0.81773436 3.4144571e-39
2.835165 0.95545566 0.82143146 3.6903237e-39
2.8286066 0.99933308 0.8319239 3.506294e-39
2.8330557 0.97258866 0.82463968 3.414097e-39
2.8423808 0.91241604 0.80959946 3.5062926e-39
2.8441799 0.89931571 0.80678028 3.4140984e-39
2.8462899 0.88618279 0.80334991 3.414097e-39
2.847012 0.87159306 0.80273157 3.4137382e-39
2.8521705 0.83687627 0.79449069 3.5981155e-39
2.8342233 0.93954957 0.8241604 3.9676309e-39
2.8363428 0.92525131 0.82077622 3.5066527e-39
2.8358469 0.90991622 0.82259548 3.0453158e-39
2.8374367 0.89660692 0.82019937 3.4137368e-39
2.8446944 0.85960269 0.8079527 3.412655e-39
2.8472226 0.84674454 0.80368418 4.5197158e-39
2.8454518 0.84812677 0.80709314 3.7828739e-39
2.8484337 0.83955258 0.80169702 3.7828739e-39
2.8484168 0.82614744 0.80246747 3.1371415e-39
2.8514931 0.80889696 0.79736328 1.9375319e-39
2.8520827 0.80118406 0.79662699 1.1074224e-39
2.8542597 0.78855252 0.79303765 5.8101099e-39
2.8369522 0.87993246 0.82206994 3.2293456e-39
2.8385568 0.86815286 0.81956089 3.2293456e-39
2.8418691 0.84109724 0.81453037 3.8747094e-39
2.8522267 0.77877188 0.79757714 6.2707237e-39
2.8426831 0.83135998 0.81346434 3.1375045e-39
2.8445587 0.81987518 0.81040591 3.0453074e-39
2.8457065 0.80599236 0.80891109 1.4765566e-39
2.8483226 0.78147477 0.80511099 6.3632781e-39
2.8524396 0.7456429 0.79898053 6.363634e-39
2.8470755 0.76211154 0.80863118 5.718266e-39
2.8472059 0.74003768 0.80958933 5.4420379e-39
2.8495865 0.7275399 0.80559182 5.6260676e-39
2.8502405 0.71146214 0.80518961 4.8881438e-39
2.8420653 0.75476545 0.81889534 5.4420365e-39
2.8487735 0.69430047 0.80902112 5.6257089e-39
2.8495178 0.6794861 0.80837125 5.0736141e-39
2.8478172 0.66168982 0.81269777 5.0732568e-39
2.8496056 0.64659029 0.81000841 5.0732568e-39
2.8531549 0.63451087 0.80368841 5.4416777e-39
2.8526266 0.61543185 0.8057785 5.2572865e-39
2.85478 0.6018942 0.80228472 5.3494821e-39
2.8564188 0.58867854 0.79978716 5.3494835e-39
2.8529768 0.57471681 0.80732906 6.3636354e-39
2.8491023 0.56230515 0.81563687 5.0732582e-39
2.8544474 0.53000629 0.80689484 5.4413218e-39
2.8548398 0.51526499 0.80693394 5.1650937e-39
2.8503609 0.5290463 0.81499028 4.8885082e-39
2.8521249 0.49510512 0.81338584 5.0728994e-39
2.8564544 0.43139973 0.80837119 4.9814241e-39
2.8561411 0.41548878 0.80986333 5.2580124e-39
2.8534143 0.3964285 0.81627858 4.9814227e-39
2.8580713 0.31486923 0.8116017 5.1654552e-39
2.8553259 0.29810604 0.81792635 5.4416819e-39
2.8557968 0.24300957 0.82003158 5.1647363e-39
2.8217213 2.236449 0.77740115 2.7730015e-40
2.8241093 2.2167943 0.77378303 4.6205014e-40
2.8262956 2.1916971 0.77086133 1.5683921e-39
2.8168645 2.2371285 0.78692174 1.8510592e-40
2.8183866 2.2234409 0.78468043 9.2911693e-41
2.8133166 2.123656 0.80014801 1.2918038e-39
2.814204 2.110882 0.79910493 1.5683893e-39
2.8169229 2.0972886 0.79450196 1.4765566e-39
2.8124845 2.0704982 0.80471057 2.2144762e-39
2.8159275 2.0450301 0.79933608 2.1212001e-39
2.8123839 2.0326405 0.80699188 2.5828958e-39
2.8147669 1.987545 0.80478364 2.5832545e-39
2.8089323 2.0188854 0.8145408 2.5828943e-39
2.8144608 1.9710331 0.80629462 2.7676457e-39
2.8061197 1.9996648 0.82113385 2.4906973e-39
2.8080275 1.9860506 0.81812823 2.85984e-39
2.8102205 1.972698 0.81454706 2.6754501e-39
2.8110518 1.9521551 0.81404173 2.7672842e-39
2.8168502 1.9248725 0.80413222 2.5818139e-39
2.8180101 1.9119765 0.80255884 3.5044863e-39
2.8087695 1.9322487 0.81962866 2.8594812e-39
2.8120043 1.9189271 0.8139959 3.7810704e-39
2.8127186 1.9062306 0.81328863 2.49034e-39
2.8161254 1.8923295 0.80734938 3.4130109e-39
2.8100581 1.8993077 0.81890559 2.9513153e-39
2.8133035 1.8831517 0.8134076 3.0435124e-39
2.8139029 1.8695052 0.81297874 2.67509e-39
2.8128033 1.8531085 0.81604505 2.9520356e-39
2.8103597 1.832867 0.82196796 2.8601987e-39
2.8121314 1.8194841 0.81921756 3.1364255e-39
2.8152671 1.806489 0.81376153 3.5970435e-39
2.8016887 1.7844255 0.84169793 2.8601973e-39
2.8033364 1.7693968 0.83928204 3.1364241e-39
2.8018122 1.7528721 0.84319061 2.9527531e-39
2.8022962 1.7383503 0.84303719 3.1364269e-39
2.8060489 1.7017767 0.83766437 3.0445928e-39
2.8083463 1.6759732 0.83456331 3.1364269e-39
2.7996595 1.7190733 0.8492865 3.3211783e-39
2.8053782 1.6595165 0.84130967 3.3208167e-39
2.800281 1.6742903 0.850528 3.6906768e-39
2.8017147 1.6503577 0.8490243 3.9665421e-39
2.8058796 1.6189679 0.84255421 3.2293414e-39
2.8077149 1.6046367 0.83973068 3.321537e-39
2.7995188 1.6328917 0.85430592 3.9661833e-39
2.8037515 1.5939394 0.84811956 3.2286225e-39
2.7971828 1.6166154 0.85979825 3.4130123e-39
2.7985408 1.5989343 0.85809928 3.4133711e-39
2.8067014 1.5656972 0.84386849 3.2289826e-39
2.8005531 1.5785943 0.85525864 3.2286225e-39
2.7940688 1.6098944 0.86629766 3.1367856e-39
2.7996943 1.5627323 0.85782087 3.0449501e-39
2.801486 1.5497 0.85501248 3.136787e-39
2.8009274 1.5340178 0.85697442 3.3211769e-39
2.7934821 1.5781057 0.86920035 3.8743464e-39
2.7931075 1.5623448 0.87080544 3.3218957e-39
2.7970283 1.5478616 0.86388606 4.0583776e-39
2.8045883 1.4868585 0.85236508 3.6899608e-39
2.8083858 1.4720155 0.84570837 3.3211797e-39
2.7981334 1.5154562 0.86349422 3.0445942e-39
2.7999346 1.5020449 0.86068779 3.0442354e-39
2.8069491 1.440277 0.85028213 3.5977665e-39
2.7969842 1.4828745 0.8675493 3.4130152e-39
2.7987144 1.4697224 0.86486721 2.9527573e-39
2.8009789 1.4541792 0.86126643 3.1367898e-39
2.8009589 1.4405334 0.86205614 3.3211811e-39
2.8047237 1.4206425 0.85574228 3.7825151e-39
2.8046889 1.4062603 0.8566016 4.2431346e-39
2.7975774 1.434162 0.86906177 3.966905e-39
2.8031282 1.3888357 0.86063266 3.5052136e-39
2.8028557 1.3727595 0.86205292 3.3211811e-39
2.7953632 1.4167672 0.8743766 3.5981253e-39
2.7989571 1.4031532 0.8680529 2.9531188e-39
2.8013418 1.3634131 0.865547 3.5977665e-39
2.7926471 1.3970516 0.88080651 3.0449529e-39
2.7945542 1.3833071 0.87780905 3.0445942e-39
2.7979648 1.3707299 0.87179005 3.228984e-39
2.7978351 1.3506294 0.8731516 3.7821564e-39
2.7915797 1.3652312 0.88465852 3.2293442e-39
2.7998719 1.3300288 0.87027621 3.6899594e-39
2.7943392 1.3364943 0.88080895 3.4133739e-39
2.7899916 1.3464352 0.88881761 3.2289854e-39
2.7967837 1.3098495 0.877464 3.2289854e-39
2.7902853 1.3246469 0.88943845 3.3208223e-39
2.7939098 1.2912616 0.8841427 3.0449543e-39
2.7956121 1.2781731 0.88151294 3.0445956e-39
2.7971377 1.2656642 0.87919867 3.0445984e-39
2.799376 1.2484196 0.87574333 2.8602057e-39
2.8009558 1.2387236 0.87316734 3.1371513e-39
2.7878275 1.3059838 0.8953023 3.2289854e-39
2.7876413 1.2899027 0.89655387 2.860563e-39
2.7898037 1.2773796 0.89298749 3.1371499e-39
2.8002541 1.2063832 0.87632811 2.9524013e-39
2.8010552 1.1934935 0.87546015 3.2293484e-39
2.7885828 1.2605509 0.89631647 2.7683702e-39
2.7904162 1.2452465 0.89354968 3.0449571e-39
2.7919607 1.2335979 0.89115155 2.7676527e-39
2.7957888 1.2197447 0.8843801 3.2286267e-39
2.7962704 1.186662 0.88525271 3.229347e-39
2.7983134 1.1740255 0.88192749 3.4140984e-39
2.7908306 1.2168221 0.8942982 3.4126578e-39
2.7908905 1.2025104 0.89496857 3.2293442e-39
2.7929442 1.16766 0.89284462 3.0453158e-39
2.7963514 1.1549855 0.88683611 3.0445956e-39
2.7976615 1.1417849 0.88498479 3.5984882e-39
2.7884586 1.1811017 0.90093243 3.0449557e-39
2.7952516 1.121467 0.89084512 3.7825207e-39
2.7951379 1.1058819 0.89192647 2.860926e-39
2.7856171 1.1645544 0.90743452 2.860926e-39
2.7874553 1.1485735 0.90469617 3.5062912e-39
2.7899814 1.1344208 0.90050423 3.6906838e-39
2.7920465 1.1216824 0.8971408 3.2297085e-39
2.797127 1.0876775 0.88901365 3.414097e-39
2.7930095 1.0903881 0.89696741 3.4140984e-39
2.7843115 1.1308715 0.91185772 3.2297071e-39
2.7878211 1.1041486 0.90642118 3.1371527e-39
2.7920566 1.0722082 0.89984363 4.9814157e-39
2.7848241 1.0848464 0.9133811 2.9527601e-39
2.7863803 1.0721908 0.91101515 3.5066513e-39
2.792712 1.046697 0.89995712 3.6906824e-39
2.7867355 1.0634817 0.91079509 3.7828767e-39
2.7815795 1.0671812 0.9207381 3.5992057e-39
2.7906499 1.0285366 0.90501535 2.7683716e-39
2.7939157 1.0029751 0.89999384 2.953123e-39
2.7841837 1.0443889 0.91686755 3.0453158e-39
2.7894993 1.0122699 0.90817463 2.9531202e-39
2.793143 0.9862892 0.90243274 3.8754338e-39
2.7928178 0.97092456 0.90391845 3.6914041e-39
2.7821243 1.0260469 0.9219299 3.6914041e-39
2.784431 1.0137221 0.91806853 3.5992085e-39
2.7846022 0.99963486 0.91850686 3.691044e-39
2.7865791 0.98556989 0.91538978 3.6910426e-39
2.7919521 0.95367002 0.90657157 3.507373e-39
2.7919879 0.93950814 0.90728062 3.8757954e-39
2.793298 0.92615986 0.90543705 3.4148186e-39
2.7838919 0.96672702 0.92171586 3.5066527e-39
2.7855961 0.95154852 0.91919643 3.9676309e-39
2.7891712 0.90641034 0.91464436 3.506294e-39
2.7926457 0.89251333 0.90857196 3.5988497e-39
2.7953191 0.87124854 0.90448105 3.2300686e-39
2.7917554 0.86166632 0.91202128 2.9538405e-39
2.7932117 0.846973 0.90996385 3.4140927e-39
2.7947791 0.8330915 0.90764302 2.9523915e-39
2.7833347 0.83090973 0.93028522 2.4928525e-39
2.7829165 0.81744438 0.93184924 1.9375263e-39
2.7854793 0.78337854 0.92868048 5.164379e-39
2.781898 0.77756906 0.93604761 4.9803451e-39
2.7854028 0.74172282 0.93112278 4.3349729e-39
2.7799666 0.76081675 0.94077045 4.7037554e-39
2.7807248 0.73773998 0.94054824 4.0591048e-39
2.7831039 0.72421181 0.93661028 4.0587447e-39
2.782548 0.70837981 0.93857616 3.7821564e-39
2.7880938 0.69731241 0.92827117 3.7821606e-39
2.7759132 0.75077248 0.94930035 4.2434961e-39
2.7755952 0.73822838 0.95061642 3.8747136e-39
2.7908459 0.65289104 0.92529917 3.7821592e-39
2.7816668 0.69230282 0.94119495 3.6903237e-39
2.7837229 0.67776108 0.93794823 3.8743534e-39
2.7853053 0.66410285 0.93558657 3.9665491e-39
2.7852623 0.65013903 0.93643898 3.9669092e-39
2.7753413 0.70811021 0.95277303 4.1512977e-39
2.7903748 0.61886901 0.92809814 4.0587475e-39
2.7842526 0.63308072 0.93936384 4.6119199e-39
2.7777765 0.63277984 0.95212609 6.2714356e-39
2.7826478 0.61206138 0.94367915 5.9948459e-39
2.7831621 0.59914809 0.94337803 5.5342293e-39
2.7878692 0.55837852 0.93635768 5.5342293e-39
2.7767439 0.59567505 0.95619977 5.9026517e-39
2.7808287 0.58117038 0.94895923 5.0736127e-39
2.7840061 0.54721755 0.94457424 5.3498408e-39
2.7790539 0.55231327 0.95403975 4.9810569e-39
2.7774665 0.54199457 0.95773113 6.4558269e-39
2.7811723 0.52892733 0.95115757 5.6267865e-39
2.7831554 0.51506764 0.94801742 5.0736155e-39
2.7825398 0.49856353 0.95013708 5.1658111e-39
2.7743707 0.54793262 0.96349728 6.4558269e-39
2.7785103 0.4962835 0.95819283 6.1796015e-39
2.7819977 0.48233512 0.95209724 5.350201e-39
2.7721663 0.53920698 0.9683156 6.3629124e-39
2.7717707 0.52442789 0.96990681 5.6264277e-39
2.7744498 0.50967926 0.96544623 5.9952089e-39
2.7787414 0.46707994 0.95934439 6.3639928e-39
2.7732885 0.49427229 0.96857947 6.0874045e-39
2.7725756 0.47862446 0.97084385 6.6402167e-39
2.778935 0.44273618 0.96030283 6.8238905e-39
2.775116 0.45647794 0.96706235 6.3636326e-39
2.7748485 0.44152769 0.96841192 6.5476638e-39
2.77825 0.42878628 0.96241903 5.9030146e-39
2.7703965 0.45898238 0.97621286 5.8104575e-39
2.7755604 0.41202092 0.96863467 5.8111777e-39
2.7765753 0.3992455 0.96734005 5.719701e-39
2.7709515 0.42581731 0.97694516 5.9030146e-39
2.7811489 0.36293975 0.9603371 5.9955704e-39
2.7827761 0.349325 0.95788425 5.8111805e-39
2.7709982 0.40530637 0.97798204 5.8108162e-39
2.7711525 0.39286044 0.97836387 5.8111791e-39
2.7759304 0.37718046 0.96982384 5.9033762e-39
2.7794924 0.3325907 0.96526748 5.7189835e-39
2.7833605 0.30495411 0.95917547 5.810826e-39
2.7736008 0.36235532 0.97522354 5.7186276e-39
2.7744091 0.33895221 0.97492081 5.7189821e-39
2.7781277 0.31974173 0.96866006 5.8115365e-39
2.7792647 0.28719014 0.96821338 5.4431197e-39
2.7706819 0.32752666 0.98288459 5.5349552e-39
2.7742064 0.31338277 0.97672641 5.534951e-39
2.7739916 0.30214357 0.97776753 5.4431155e-39
2.7695925 0.31037617 0.98597223 5.5353139e-39
2.7731173 0.26731986 0.98140472 5.3512814e-39
2.775296 0.24887225 0.97813207 5.4431197e-39
2.7760959 0.23439126 0.97735476 5.8115435e-39
2.7740371 0.21788697 0.98231494 4.9814269e-39
2.7672582 0.24520361 0.99415225 5.534595e-39
2.7777977 0.18025126 0.97698492 5.0739742e-39
2.7698579 0.20856084 0.99105209 5.5342307e-39
2.7708888 0.1943185 0.98980749 5.1658083e-39
2.7636039 0.22018631 1.00272 5.718259e-39
2.7683389 0.17720214 0.9957667 4.7970202e-39
2.7784679 0.088646479 0.98070633 4.0594636e-39
2.7660055 0.1446026 1.0021527 3.8739821e-39
2.7692151 0.13063209 0.99660516 4.6119171e-39
2.7708762 0.11726689 0.99407196 4.243136e-39
2.7740529 0.083628029 0.98967087 3.9669064e-39
2.7664707 0.12726858 1.0021911 4.3349672e-39
2.7686052 0.08372356 1.0003864 3.3204496e-39
2.7730575 0.051332753 0.99340695 4.6115513e-39
2.7753294 0.039440315 0.98959082 3.9683497e-39
2.7585964 0.11931396 1.0181254 1.756019e-39
2.7605586 0.10605908 1.0149934 1.5716333e-39
2.7625742 0.092780329 1.0117573 3.7807103e-39
2.7627933 0.080305152 1.0120122 9.0315269e-39
2.7741392 0.0035437318 0.99390805 3.6899608e-39
2.7570071 0.1111092 1.0217046 2.4925022e-39
2.7660341 0.03318302 1.0082277 5.1625545e-39
2.7713196 -0.014133701 1.0004295 3.5974022e-39
2.7616577 0.015078833 1.0178362 1.2069305e-38
2.7654774 0.0024715562 1.0110132 4.0558538e-39
2.7667236 -0.0225318 1.0099363 5.8986818e-39
2.7609174 -0.0023051971 1.0202495 1.1427169e-38
2.7588491 -0.013921167 1.0249592 7.4186843e-40
2.7619424 -0.026723033 1.0195757 4.1484208e-39
2.7643802 -0.037976071 1.0153978 3.8729073e-39
2.7673471 -0.064461753 1.0110165 7.0957957e-39
2.7564163 0.0011975571 1.028915 6.496742e-40
2.7517366 0.0060980767 1.0378548 1.1092062e-39
2.7538824 -0.0073612654 1.0343726 8.3298366e-40
2.758157 -0.020071181 1.0266597 7.4186983e-40
2.758383 -0.034420874 1.0270048 5.6221005e-39
2.7590485 -0.045224171 1.0262896 8.3406546e-40
2.7595425 -0.059441756 1.0260998 4.6635914e-40
2.7618041 -0.072556593 1.0223708 3.7452084e-40
2.7525034 -0.013277975 1.0374119 7.4042789e-40
2.7481806 0.0016809627 1.045096 1.015933e-39
2.7492578 -0.013217687 1.0437952 6.4607706e-40
2.7510393 -0.026921159 1.0410441 1.1081412e-39
2.7556629 -0.039445508 1.0326341 7.4186983e-40
2.7553668 -0.051716633 1.033892 7.4186843e-40
2.7588069 -0.065606043 1.0278866 2.8268674e-40
2.7606645 -0.078814112 1.0249581 4.659962e-40
2.762265 -0.091907255 1.0225281 6.5002733e-40
2.7608852 -0.10363495 1.0258889 2.3974227e-39
2.7630377 -0.11761844 1.0224223 6.485938e-40
2.7515504 -0.032871339 1.0403661 7.404335e-40
2.7534089 -0.047041852 1.037488 8.3334519e-40
2.7585998 -0.086379193 1.0294367 1.4776272e-39
2.7624261 -0.12484636 1.0240241 5.567597e-40
2.7639153 -0.14093153 1.021978 3.7345165e-40
2.7662339 -0.15130402 1.0179858 2.8125461e-40
2.7667572 -0.16391511 1.0176502 4.055142e-39
2.7498782 -0.043350197 1.0442331 1.0152197e-39
2.7512341 -0.061823033 1.0425818 4.6421235e-40
2.7521489 -0.072519943 1.0413698 3.7129365e-40
2.75721 -0.097759008 1.0327981 1.015947e-39
2.7589145 -0.11089836 1.0301673 9.2409748e-40
2.7566185 -0.11011018 1.034642 8.3262352e-40
2.7587559 -0.11968716 1.0309628 2.3974255e-39
2.757129 -0.13058993 1.0347644 9.2374716e-40
2.7613888 -0.14258808 1.0270412 3.7345165e-40
2.7617538 -0.15469292 1.0269889 2.1215603e-39
2.7623241 -0.17004517 1.0267112 4.606871e-39
2.7501328 -0.089567482 1.0462747 7.3827129e-40
2.7525761 -0.10379908 1.04225 8.2974806e-40
2.7632134 -0.19545208 1.0263592 0
2.7534351 -0.12433698 1.0416899 9.2374716e-40
2.7547724 -0.13764867 1.0397905 4.6097114e-40
2.7567568 -0.15075988 1.0366064 2.8017561e-40
2.762291 -0.18978609 1.0278627 1.0317602e-38
2.7511532 -0.14190564 1.047147 1.8654085e-40
2.7519426 -0.14748943 1.0459006 1.382196e-39
2.753655 -0.16064729 1.0432552 1.8582479e-40
2.755868 -0.17224425 1.0395379 2.8017561e-40
2.7564135 -0.18090764 1.0389414 1.8618352e-40
2.7510078 -0.18141781 1.0496079 2.7658409e-40
2.7562842 -0.19050987 1.0397241 3.5873241e-43
2.7515981 -0.18905617 1.0488662 9.2194229e-41
2.7507672 -0.19315232 1.0507264 7.1746481e-43
2.7823555 0.93542308 0.9264614 3.5984896e-39
2.7846344 0.92034703 0.92280632 3.5062926e-39
2.7915239 0.88060373 0.91143501 3.7821564e-39
2.7950947 0.81855798 0.9078213 2.3981416e-39
2.7819793 0.90077382 0.92910808 3.4148186e-39
2.7857757 0.88743913 0.92237067 3.692123e-39
2.7852554 0.87647647 0.92399836 3.230426e-39
2.7864671 0.84188569 0.92351699 2.6776109e-39
2.7930222 0.80818623 0.91247064 1.1081384e-39
2.7923825 0.7993421 0.91421646 1.8510592e-40
2.7956038 0.78890681 0.9084509 4.7959566e-39
2.7790065 0.88307089 0.93593287 3.2304274e-39
2.780556 0.86798096 0.93371403 3.0460347e-39
2.7824402 0.85438144 0.93075407 3.0456746e-39
2.7839484 0.84124082 0.92850882 2.860919e-39
2.7875729 0.83213311 0.92187703 3.1371415e-39
2.7915583 0.78279972 0.91674888 4.8888725e-39
2.788023 0.76303393 0.92479372 5.2569277e-39
2.790097 0.75026578 0.92141503 4.335333e-39
2.7895079 0.72954696 0.9237147 4.5197214e-39
2.7874646 0.70997095 0.92881286 3.8747122e-39
2.8141904 2.2430346 0.79185969 3.6913705e-40
2.8181489 2.2311685 0.78472197 9.2911693e-41
2.8204575 2.2201366 0.78078645 7.3899436e-40
2.8233652 2.2053852 0.77587563 9.2266536e-40
2.8169446 2.2206347 0.7876721 5.5460591e-40
2.8247168 2.1595364 0.77573836 2.0286458e-39
2.8105395 2.241977 0.79910266 1.8510732e-40
2.8151836 2.2133799 0.79153663 2.7802182e-40
2.8164744 2.2025452 0.78959304 7.382755e-40
2.8185871 2.1866012 0.78631192 1.1992508e-39
2.8225336 2.1728902 0.77930027 1.1066993e-39
2.8257306 2.1467059 0.77444929 2.0297206e-39
2.8193116 2.1814237 0.78517109 8.3083126e-40
2.8195903 2.1721148 0.78513503 1.2910877e-39
2.8067133 2.2375963 0.80687344 1.8510592e-40
2.8088655 2.2080226 0.80426496 2.7801902e-40
2.8161533 2.1800082 0.79146427 9.2266676e-40
2.8177121 2.1704106 0.78892452 1.1067007e-39
2.8174872 2.153569 0.79029423 1.1988921e-39
2.8190866 2.1403084 0.78787625 1.2914437e-39
2.8208826 2.1279278 0.78502345 1.3836379e-39
2.822428 2.1173282 0.78256536 1.4754762e-39
2.8250895 2.1017454 0.77818471 1.7524232e-39
2.8132067 2.1689496 0.79787225 1.0148652e-39
2.8141522 2.1724448 0.79581881 6.4644e-40
2.8278437 2.0829589 0.77379847 2.213037e-39
2.8115978 2.1739333 0.80076402 8.3190886e-40
2.8222911 2.0833077 0.78470623 3.7821522e-39
2.8253117 2.0687819 0.77956122 2.0290059e-39
2.825526 2.0458248 0.78040314 2.6747326e-39
2.8069825 2.1554499 0.81086385 8.3047253e-40
2.8178351 2.0792394 0.79369903 2.8594826e-39
2.8188033 2.0629282 0.79269159 1.8449762e-39
2.8203702 2.0509367 0.79026866 2.7665667e-39
2.8215821 2.0357637 0.78871781 2.6747312e-39
2.8169181 2.0234942 0.79857165 3.6895978e-39
2.8141634 2.0047979 0.80502146 2.6747298e-39
2.820545 1.9561101 0.79514235 2.7676457e-39
2.8173475 1.9365685 0.80251002 2.8594798e-39
2.8195453 1.9266595 0.7987296 3.0438711e-39
2.8194058 1.8841462 0.80134404 2.8591197e-39
2.8066359 1.9548236 0.82258564 2.6747312e-39
2.8059154 1.913501 0.8262769 3.1360639e-39
2.8054855 1.8973427 0.82801205 2.9516755e-39
2.804986 1.88082 0.8299042 3.0438711e-39
2.8063738 1.8664975 0.82796156 2.7676457e-39
2.8037791 1.8492267 0.83401823 3.4130123e-39
2.8091986 1.8018173 0.82596105 2.9520342e-39
2.8108618 1.7873451 0.82348496 3.1364241e-39
2.812664 1.773682 0.82068968 3.2289798e-39
2.814122 1.7601089 0.81856692 3.4130109e-39
2.8160827 1.748503 0.81534749 3.9658218e-39
2.8027294 1.8315908 0.83705449 2.9520342e-39
2.8030705 1.815428 0.83727211 2.85984e-39
2.8030362 1.8010279 0.8381328 2.85984e-39
2.8078306 1.7564583 0.83114952 3.7817907e-39
2.8111553 1.7427231 0.82536274 3.2289784e-39
2.815434 1.728303 0.81773573 3.505208e-39
2.809191 1.7244376 0.83023435 3.505208e-39
2.8101404 1.7100059 0.82916015 3.7814361e-39
2.8140659 1.6762745 0.8232913 3.2286225e-39
2.8082469 1.6893883 0.83402079 3.0445928e-39
2.8113325 1.6563122 0.82976854 3.5974036e-39
2.8076537 1.637903 0.83802104 4.058379e-39
3.05075 -0.31375647 0.46700573 1.0136489e-38
3.0521314 -0.32586846 0.46495414 1.8621745e-38
3.0459847 -0.31373471 0.47638306 1.16109e-38
3.0416169 -0.31720078 0.48516947 1.7237727e-38
3.0411813 -0.31190115 0.48573452 1.2442827e-38
3.042773 -0.32435694 0.48328787 9.0322977e-39
3.0373769 -0.32191506 0.49377304 1.5669314e-38
3.0330491 -0.32184151 0.50228584 1.2166962e-38
3.0162909 -0.30408153 0.53428787 1.7324502e-38
3.0402415 -0.34356746 0.48932627 6.7299321e-39
3.0315289 -0.31622091 0.50496829 1.585191e-38
3.0332465 -0.32752874 0.50221044 9.6780356e-39
3.0349445 -0.34257841 0.49969691 1.1063501e-38
3.0275316 -0.31924292 0.51300132 9.7684278e-39
3.0289063 -0.33129945 0.51095897 1.7055149e-38
3.0220175 -0.31227362 0.52346909 1.6129582e-38
3.0231957 -0.32452655 0.5218243 1.6225016e-38
3.016722 -0.30742651 0.53362393 1.5943015e-38
3.0175698 -0.32341343 0.53283459 1.5024302e-38
3.0138097 -0.32226503 0.54017222 1.8251531e-38
3.022954 -0.3205519 0.52208114 1.2904888e-38
3.0250287 -0.33219573 0.51863921 1.0508877e-38
3.0199285 -0.33135176 0.52863032 1.0879103e-38
3.0119376 -0.3079291 0.5430668 1.7326681e-38
3.0145245 -0.31694001 0.53847146 1.7326681e-38
3.0147121 -0.33225739 0.53894597 1.1890759e-38
3.0169723 -0.35620582 0.53581524 2.2998699e-39
3.0075653 -0.31368995 0.5519889 1.6680218e-38
3.0108943 -0.3405481 0.54691499 8.384064e-39
3.0036604 -0.31888106 0.55995876 1.8896185e-38
3.0059419 -0.33888534 0.55657017 1.926028e-38
3.0138197 -0.32377195 0.54023528 1.5296554e-38
3.0150332 -0.33753651 0.53860432 1.059965e-38
3.0096447 -0.30965 0.54767406 1.6772778e-38
3.0078151 -0.32023051 0.55185717 1.4280235e-38
3.0121586 -0.3483516 0.54485637 2.2998699e-39
3.0033183 -0.3204942 0.56072116 1.7878776e-38
2.9990125 -0.31727004 0.56901729 1.5851541e-38
2.9957004 -0.33009085 0.57624102 1.317966e-38
3.0377886 -0.45539069 0.50030714 7.5546382e-39
3.0400205 -0.46845248 0.49663389 9.1212353e-39
3.032829 -0.45297843 0.50993496 7.2780429e-39
3.0343504 -0.46914923 0.50783098 8.8446442e-39
3.0062544 -0.33877659 0.55594832 1.4373895e-38
2.9994106 -0.32779738 0.56881279 1.0317608e-38
2.9949822 -0.32372457 0.57730436 1.4838464e-38
2.9903157 -0.32741624 0.58669072 9.4918087e-39
2.9873462 -0.33471164 0.5929358 1.6036656e-38
3.0290465 -0.45888197 0.51770324 7.0925741e-39
3.0150578 -0.45295501 0.54490614 7.5495866e-39
3.0155537 -0.46582767 0.54463905 8.3789871e-39
2.9894562 -0.32000479 0.58797491 1.3818889e-38
2.9866369 -0.33036098 0.59409249 1.6031968e-38
2.9823446 -0.34171918 0.60316449 1.4098006e-38
2.9779739 -0.33707103 0.61151004 1.0965139e-38
3.0183606 -0.44830081 0.53815079 8.9310707e-39
3.0122406 -0.44458959 0.54999006 7.271192e-39
3.0105662 -0.46244061 0.55426782 8.3807864e-39
3.0060279 -0.46988449 0.56360871 8.6577334e-39
2.9817684 -0.33664158 0.60401875 1.2252288e-38
2.9768825 -0.33517969 0.61355352 1.2528869e-38
2.9709315 -0.33350804 0.62517345 1.0411974e-38
2.9673069 -0.32837847 0.63202435 1.1336449e-38
2.9220173 -0.18258257 0.71313012 3.6842659e-40
3.0128617 -0.45486346 0.54933345 7.7325331e-39
3.0094492 -0.45558849 0.55608928 8.2878663e-39
3.0054746 -0.46073404 0.56419384 8.8417603e-39
3.0010362 -0.46473104 0.57314926 1.2716515e-38
2.9953856 -0.45579904 0.58377695 1.5298722e-38
2.9719515 -0.33927351 0.62348348 1.0134664e-38
2.9660523 -0.32318193 0.63420761 1.0414145e-38
2.9621553 -0.33146349 0.6423322 1.2992004e-38
2.9564915 -0.32356295 0.65304399 1.0227234e-38
2.9225173 -0.1938908 0.71276855 1.8403673e-40
2.9244337 -0.20576249 0.7096501 3.6770632e-40
2.9266717 -0.21808939 0.70592368 5.5173745e-40
2.9273014 -0.23282845 0.7054956 4.5989635e-40
2.9153795 -0.1821878 0.72617131 9.2557165e-41
2.9119377 -0.17475842 0.73253584 2.7623376e-40
3.0001099 -0.45700613 0.57454681 8.565179e-39
2.994375 -0.45739213 0.58585358 1.2901988e-38
2.9907632 -0.45185715 0.59265745 1.2072227e-38
2.9616337 -0.327016 0.64311409 1.0504537e-38
2.9571509 -0.32841152 0.65201277 1.0043201e-38
2.9524128 -0.32969415 0.66140741 1.013504e-38
2.9466214 -0.32456702 0.6725226 9.7658928e-39
2.9401693 -0.3095952 0.68439609 2.394927e-39
2.9259071 -0.23974374 0.70861989 9.1835496e-41
2.9277654 -0.25319511 0.70570308 9.1835496e-41
2.9296005 -0.26796636 0.7029047 1.4012985e-45
2.9318829 -0.28220823 0.69919741 9.2198432e-41
2.9361711 -0.29453453 0.69143611 1.8439406e-40
2.9169941 -0.18525322 0.72316265 2.7695123e-40
2.9202275 -0.19935293 0.71757537 1.8439827e-40
2.9219737 -0.21276541 0.71487665 9.1842503e-41
2.9237108 -0.22617471 0.71219575 1.8367379e-40
2.9109051 -0.17454392 0.7345559 1.8439126e-40
2.9045603 -0.17037505 0.74681324 9.1838299e-41
2.9010613 -0.16365285 0.7533288 1.8439406e-40
2.8946865 -0.15762372 0.76554251 2.7659109e-40
2.9900973 -0.44484594 0.59358209 1.1887115e-38
2.9865284 -0.44731987 0.60074204 9.2141554e-39
2.9790635 -0.44607335 0.6153633 7.8333859e-39
2.975575 -0.44313878 0.62206775 8.6627907e-39
2.9698634 -0.44108242 0.63319445 8.384043e-39
2.9525738 -0.33123481 0.66117507 1.0135037e-38
2.9484205 -0.32909557 0.66923141 1.2346289e-38
2.9404974 -0.3182084 0.68422472 5.3433837e-39
2.9342077 -0.30302405 0.6957671 1.8403533e-40
2.9207625 -0.21976037 0.71764535 1.8367239e-40
2.9227271 -0.23257628 0.71448356 3.6770212e-40
2.9247296 -0.24555372 0.7112574 9.2194229e-41
2.9265344 -0.25888959 0.70843935 9.219563e-41
2.9285736 -0.27349409 0.70522946 1.4012985e-45
2.9307213 -0.28704599 0.70174921 9.2558566e-41
2.9060035 -0.17665091 0.74431854 9.1836897e-41
2.9008451 -0.16998556 0.75410378 1.4012985e-45
2.8957534 -0.1671048 0.76396525 1.4012985e-45
2.890672 -0.16431351 0.77381164 3.629363e-43
2.9743083 -0.43478858 0.62410086 8.4791183e-39
2.9686491 -0.43410209 0.6352005 8.4762358e-39
2.9636176 -0.43858549 0.64534837 8.3862052e-39
2.9605505 -0.4430795 0.65163183 7.4610007e-39
2.9428043 -0.32922906 0.68029052 1.2530318e-38
2.9352708 -0.31166607 0.69415057 3.3168819e-39
2.9391074 -0.32159141 0.68714666 6.2656959e-39
2.9292088 -0.29380092 0.70509678 9.2199834e-41
2.9221928 -0.26568151 0.71735728 2.8025969e-45
2.9248695 -0.27941787 0.71284544 1.8439266e-40
2.8962188 -0.17131536 0.76328045 1.4012985e-45
2.8900695 -0.16520996 0.77504671 2.8025969e-45
2.8856065 -0.16331808 0.7837249 3.629363e-43
2.9638615 -0.42449191 0.64409345 8.7513836e-39
2.9595203 -0.42858273 0.65286171 8.2885893e-39
2.958051 -0.43903023 0.65632844 7.0951048e-39
2.9546492 -0.44190323 0.66318053 6.82032e-39
2.9496136 -0.44051915 0.67301482 3.5019962e-39
2.8809824 -0.17034911 0.79321218 1.4012985e-45
2.9535558 -0.43356097 0.66487324 4.8827586e-39
2.9497814 -0.42721403 0.67195195 4.236313e-39
2.9454699 -0.43026179 0.6806047 1.5655264e-39
2.9443099 -0.44308224 0.68359298 1.8402972e-40
2.9481914 -0.45542493 0.67663342 3.0413754e-39
2.8542826 -0.15548499 0.84493893 4.2038954e-45
2.9468558 -0.43693134 0.67824394 1.5651649e-39
2.9446514 -0.44879273 0.6832357 3.6770212e-40
2.9445875 -0.46157527 0.68406481 1.836752e-40
2.9461465 -0.47550616 0.68176335 1.3825785e-39
2.9454317 -0.48851496 0.68388516 2.7622816e-40
2.8511589 -0.15247063 0.85092026 4.2038954e-45
2.8527935 -0.16680422 0.84849221 2.2126937e-39
2.9403346 -0.45450333 0.69204533 1.8439126e-40
2.9418414 -0.46783257 0.68981284 2.8025969e-45
2.942853 -0.48098922 0.68854642 1.8403253e-40
2.9443069 -0.49429992 0.68641746 4.6062222e-40
2.9426782 -0.50347757 0.69012761 1.10527e-39
2.8358915 -0.13361093 0.87992877 9.2204038e-41
2.8295028 -0.12976083 0.89228976 8.4077908e-45
2.9395602 -0.48705623 0.6953606 1.8367099e-40
2.9405622 -0.50020981 0.69411188 9.1836897e-41
2.9401782 -0.51354676 0.69560194 7.3684337e-40
2.9397466 -0.52727747 0.69720626 2.7586802e-40
2.9400358 -0.53844053 0.69725132 6.4429041e-40
2.8496878 -0.18875788 0.85581243 1.1992593e-39
2.8532925 -0.19838834 0.84924775 1.107065e-39
2.8302755 -0.13666554 0.89114863 1.2611686e-44
2.8319285 -0.15444829 0.88887382 3.6838567e-39
2.9383469 -0.51945633 0.69953072 2.7587223e-40
2.9392924 -0.54625809 0.69914454 1.1974558e-39
2.9388227 -0.55803585 0.70071739 2.7586802e-40
2.8156686 -0.14389707 0.92029178 1.3450104e-38
2.8141067 -0.14329566 0.92333329 8.5738012e-39
2.9373245 -0.55192286 0.70332897 1.8402972e-40
2.937499 -0.56349587 0.70362276 1.1978187e-39
2.9376893 -0.57764977 0.704027 8.2867887e-40
2.9368887 -0.59018517 0.70629233 1.6587927e-39
2.8142343 -0.16336298 0.92418593 1.142107e-38
2.8087497 -0.15699819 0.9346292 1.3263189e-38
2.934411 -0.57092643 0.7101087 3.6806365e-40
2.933594 -0.58372235 0.71242034 6.4464634e-40
2.9353662 -0.59706473 0.70966697 2.119754e-39
2.9332111 -0.60892296 0.71456051 1.842814e-39
2.809938 -0.16920686 0.93296313 9.6697133e-39
2.8046412 -0.16286507 0.94303763 8.5673272e-39
2.9289668 -0.58795357 0.72175974 8.2940054e-40
2.9285612 -0.60171288 0.72331506 1.9350152e-39
2.9287558 -0.61752856 0.72380251 1.56659e-39
2.8003986 -0.16755821 0.9516449 6.9139225e-39
2.7953477 -0.17072314 0.96175915 1.1331411e-38
2.9238842 -0.61758608 0.73339278 1.6587815e-39
2.9186857 -0.61690235 0.74358535 2.6725662e-39
2.7940736 -0.17798014 0.96466613 1.4829799e-38
2.9187834 -0.62120533 0.74362969 9.2194649e-40
2.9138405 -0.62291962 0.75345135 1.1967341e-39
2.9069948 -0.62865096 0.76723868 8.3011239e-40
2.9061358 -0.63572884 0.76931876 2.0272108e-39
2.9512248 -1.2411853 0.71390116 7.9280619e-39
2.9485276 -1.2599769 0.7202425 7.8362306e-39
2.9288146 -1.2566363 0.7588532 7.5600024e-39
2.816124 -0.88091052 0.95995086 6.2627644e-39
2.8151541 -0.89406943 0.96258324 5.159665e-39
2.8208089 -0.93065846 0.95346791 3.8725486e-39
2.9896324 -1.5326765 0.65435565 8.7574568e-39
2.7972472 -0.93620229 1.0001417 4.5139369e-39
2.7677455 -0.86926961 1.0545176 8.1077335e-39
2.8675599 -1.2030413 0.87645125 5.808277e-39
2.8676724 -1.2180717 0.87705714 5.8086428e-39
2.8610909 -1.2033801 0.88920093 4.9792422e-39
2.7862265 -0.97191441 1.0237952 2.9455532e-39
2.7634878 -0.86219615 1.062507 8.8435077e-39
2.7661288 -0.87639368 1.0580914 8.4754385e-39
2.7663727 -0.89041066 1.0583826 8.475793e-39
2.7707169 -0.93213403 1.0521284 8.1995662e-39
2.7665136 -0.90166318 1.0587244 8.1995662e-39
3.008944 -1.7231152 0.62682927 1.2443874e-38
2.8581634 -1.2226509 0.89602262 5.4395015e-39
2.8490026 -1.1962432 0.91259843 5.4387799e-39
2.8520074 -1.2078118 0.90732145 5.4387799e-39
2.8430855 -1.1669806 0.92263222 4.9788863e-39
2.8234601 -1.0832274 0.95664591 4.0562182e-39
2.7865138 -0.98124176 1.0237428 2.1172387e-39
2.7818513 -0.96517324 1.0320343 2.0250444e-39
2.7812786 -0.97954333 1.0339526 2.9484259e-39
2.7848685 -0.99217629 1.0275825 2.7629612e-39
2.7746162 -0.95108873 1.0454985 7.2783428e-39
2.7665541 -0.92359394 1.0598514 8.5672726e-39
2.7704787 -0.9358654 1.0528032 8.1995662e-39
2.8551509 -1.2353919 0.90265197 5.5316972e-39
2.8492959 -1.226732 0.91369849 5.2540313e-39
2.8411369 -1.1970663 0.92812318 4.8863305e-39
2.8336701 -1.1710792 0.94138658 4.5175522e-39
2.823643 -1.1439008 0.95962459 4.4246349e-39
2.8175476 -1.1129599 0.96991777 3.9643771e-39
2.8090992 -1.0842891 0.98496693 3.7792669e-39
2.8055286 -1.0833236 0.99193984 3.9632924e-39
2.7934916 -1.0290734 1.0126433 2.8569491e-39
3.0087302 -1.79021 0.63094217 1.3274348e-38
2.8307357 -1.1886764 0.94812995 4.4257139e-39
2.8253303 -1.1759075 0.95806533 4.4249965e-39
2.8109124 -1.1180197 0.98325342 3.3193678e-39
2.8177459 -1.1434896 0.97120696 4.2406024e-39
2.8195286 -1.1713631 0.96923274 4.2402451e-39
2.8100173 -1.1314383 0.98575395 3.8718171e-39
2.8118534 -1.1447277 0.98287213 3.8714584e-39
2.7987423 -1.0909145 1.0057132 2.9495035e-39
2.7909276 -1.0475161 1.0187041 2.9480643e-39
2.7915874 -1.0613337 1.0181663 2.395615e-39
2.780808 -1.0179096 1.0369899 4.1469662e-39
2.7842016 -1.0328298 1.031132 2.670767e-39
2.7870519 -1.0744792 1.0278147 2.7636773e-39
2.8289783 -1.2149725 0.95303547 4.5171865e-39
2.8153794 -1.1777582 0.9777503 3.5955973e-39
2.8039379 -1.1216983 0.99718177 3.0427795e-39
2.8087182 -1.1624613 0.99001759 3.2264547e-39
2.7973824 -1.1084486 1.0093542 2.9498636e-39
2.8008735 -1.1353177 1.0039623 3.1342562e-39
2.8024199 -1.14863 1.0016512 3.1342562e-39
2.8038094 -1.1611893 0.99960816 3.4108417e-39
2.7917993 -1.1063724 1.0202264 2.8558687e-39
2.7926178 -1.1198643 1.0193588 3.4997934e-39
2.7963667 -1.1327658 1.0126908 3.3182818e-39
2.7825899 -1.0769616 1.0367324 3.5015954e-39
2.7863233 -1.090008 1.0301031 2.9484259e-39
2.7876244 -1.1031221 1.0282643 3.500515e-39
3.0129442 -1.8693514 0.62700325 1.216872e-38
2.8260803 -1.2419727 0.96022475 4.1491284e-39
2.8143039 -1.1947231 0.98080063 3.7792669e-39
2.8147173 -1.211485 0.98090869 3.9632967e-39
2.80598 -1.1821934 0.99649173 3.0424222e-39
2.8078895 -1.1971743 0.99355894 3.3186475e-39
2.8094094 -1.2089735 0.9912169 3.7789054e-39
2.8004191 -1.1734987 1.0069569 2.9502279e-39
2.799638 -1.1805364 1.0088813 3.1342562e-39
2.802521 -1.1938848 1.0039424 3.1342548e-39
2.7773926 -1.069561 1.0465534 4.2387961e-39
2.7819428 -1.0980742 1.0391672 3.6859867e-39
2.7847114 -1.1095219 1.0343486 2.948786e-39
2.7859919 -1.1244627 1.0326509 2.579286e-39
2.7855597 -1.1384437 1.0342705 4.7001316e-39
3.0131576 -1.8886936 0.62764788 1.2537859e-38
2.8057745 -1.2205877 0.99900913 3.5948743e-39
2.800631 -1.2100677 1.0085524 3.2264505e-39
2.7849708 -1.143435 1.0357045 4.7001316e-39
2.7862904 -1.1566987 1.033838 3.5015968e-39
2.7846684 -1.1688745 1.0376992 5.7121115e-39
3.0093932 -1.9205805 0.63681126 9.4031947e-39
2.8669472 -1.4378216 0.89057666 5.3487534e-39
2.8074095 -1.2353952 0.99660647 3.5948729e-39
2.8017302 -1.2321475 1.0076041 3.5945099e-39
2.7961321 -1.218522 1.0178719 3.1331772e-39
2.790163 -1.2091209 1.0291005 3.0406201e-39
2.7770314 -1.1222752 1.0501648 4.2387961e-39
2.7828863 -1.1755316 1.0415732 3.6852678e-39
2.7845659 -1.1889207 1.0390049 4.5132194e-39
2.7898684 -1.2235887 1.0304769 3.6845518e-39
2.7934334 -1.2379754 1.0242523 2.9484287e-39
2.7810493 -1.1833351 1.0456183 6.3563977e-39
2.7835927 -1.2102947 1.0420953 5.8968643e-39
2.8449357 -1.4164274 0.93271762 4.3353218e-39
2.8422344 -1.4309741 0.93883324 4.5193515e-39
2.8026464 -1.2736158 1.0080825 3.5945141e-39
2.7944534 -1.2605571 1.0234878 2.8573148e-39
2.7871385 -1.2426562 1.0368985 5.7124731e-39
2.8373942 -1.4338205 0.9485153 4.3356847e-39
2.833194 -1.4195726 0.95599735 4.2427688e-39
2.825264 -1.3916699 0.97006756 4.242766e-39
2.8283613 -1.4050673 0.96470994 4.2424101e-39
2.7951984 -1.2747178 1.0228006 2.7644017e-39
2.7868576 -1.2628939 1.038565 6.1720275e-39
2.7896283 -1.276345 1.033852 2.670411e-39
2.7817862 -1.2480065 1.047726 6.9999679e-39
2.7802813 -1.2628112 1.0515026 1.98065e-38
2.7814271 -1.2766708 1.0500103 1.8978901e-38
2.7783523 -1.2725064 1.0558317 2.008597e-38
2.8467808 -1.495355 0.933429 4.6122674e-39
2.840343 -1.4818732 0.94535631 4.5193529e-39
2.8302679 -1.4392475 0.96283865 4.4267985e-39
2.807693 -1.3828309 1.0041609 3.5041178e-39
2.7998884 -1.3541611 1.0179427 2.8580393e-39
2.7917106 -1.3083922 1.0315179 5.9894425e-39
2.7929859 -1.3230859 1.0298164 6.2653077e-39
2.7855029 -1.2950658 1.0430008 1.5752793e-38
2.7766864 -1.2641865 1.0586523 9.8576905e-39
2.781311 -1.2961196 1.0513084 1.9068945e-38
2.7741828 -1.265378 1.063645 1.9711424e-38
2.7735546 -1.2728275 1.0652915 1.8880941e-38
2.8378105 -1.5107007 0.95192641 4.335326e-39
2.830941 -1.469071 0.96315491 4.4267985e-39
2.8309257 -1.4834063 0.963974 4.1509319e-39
2.814621 -1.4292593 0.99308193 4.2413213e-39
2.8161037 -1.4570525 0.99169272 4.0576545e-39
2.8040113 -1.3854096 1.0115483 3.2264603e-39
2.8063214 -1.3971502 1.0076481 3.4115662e-39
2.7923477 -1.3545716 1.0328051 4.6079444e-39
2.7848263 -1.3287218 1.0461848 7.3720098e-39
2.7843759 -1.3430897 1.0478616 2.3052257e-39
2.7786083 -1.3125453 1.0575306 0
2.7776802 -1.3283318 1.0602267 0
2.7803674 -1.3400283 1.0555816 0
2.8360445 -1.5286987 0.95639223 4.5193571e-39
2.8299372 -1.5168937 0.96776181 4.3353218e-39
2.8198707 -1.4751883 0.98527765 4.0583719e-39
2.8218064 -1.4882253 0.9821859 4.2424045e-39
2.8235922 -1.5026958 0.97946745 4.5186312e-39
2.804307 -1.4176229 1.0127389 3.1342591e-39
2.8081973 -1.4457853 1.0066328 3.4122893e-39
2.7978008 -1.4040993 1.0247991 5.0700085e-39
2.7833664 -1.3590999 1.0507286 5.3447892e-39
2.7865491 -1.3871424 1.0460087 5.9894439e-39
2.7777934 -1.3520224 1.0613073 1.0761972e-42
2.8258758 -1.5231898 0.97610122 4.4267999e-39
2.8208365 -1.5210811 0.98590207 4.0580174e-39
2.8132284 -1.492938 0.99932611 3.9658204e-39
2.8149223 -1.5068958 0.99675995 3.9658218e-39
2.8054011 -1.468945 1.0134101 3.0431508e-39
2.8081112 -1.4780904 1.00858 3.0431508e-39
2.8001511 -1.4465983 1.0225114 8.1092245e-39
2.8002946 -1.4632323 1.0231442 5.5299049e-39
2.7889223 -1.4067223 1.042416 5.6224663e-39
2.7903476 -1.4210563 1.0403996 3.7807103e-39
2.7957361 -1.4481741 1.0312873 1.0410857e-38
2.781667 -1.3904573 1.0557989 2.7730015e-40
2.7821023 -1.4081509 1.0559163 2.7801762e-40
2.774436 -1.3639212 1.0685692 0
2.777987 -1.3779736 1.0623544 9.2194229e-41
2.7775831 -1.3906444 1.0638469 5.5280804e-40
2.7776332 -1.4040246 1.0644841 4.8838264e-39
2.7808449 -1.4173571 1.0588968 9.3270426e-41
2.811938 -1.5252637 1.0036442 3.5966833e-39
2.8037806 -1.4811269 1.0172695 3.2275393e-39
2.8036816 -1.4958575 1.0182744 3.3197363e-39
2.8051078 -1.5089136 1.016186 3.5959631e-39
2.7859318 -1.4269084 1.0494118 8.3118859e-40
2.7892683 -1.453545 1.0443118 2.0307996e-39
2.7930355 -1.4672521 1.037652 4.5164732e-39
2.7831125 -1.4222006 1.0547007 1.8582339e-40
2.7815926 -1.4372957 1.0585223 2.4896281e-39
2.7825902 -1.453869 1.057471 6.3611131e-39
2.7847686 -1.4662797 1.0538672 1.4761839e-39
2.7745271 -1.4223964 1.0716075 0
2.7773542 -1.43609 1.0667976 7.3723714e-39
2.7729912 -1.419031 1.0744447 0
2.8091207 -1.5440934 1.0102248 3.4122907e-39
2.8087981 -1.5601103 1.0117407 4.9781688e-39
2.803302 -1.5270442 1.0207375 4.7019435e-39
2.7938638 -1.5005146 1.0378519 4.2424073e-39
2.7967334 -1.5118862 1.0328304 7.1894178e-39
2.7887113 -1.4694331 1.0462812 2.0304408e-39
2.7879813 -1.4856763 1.0486124 1.5691096e-39
2.7829325 -1.4836556 1.0584375 5.8075778e-39
2.7831442 -1.4994944 1.0588918 1.1336778e-38
2.774488 -1.4487249 1.0731335 1.2535304e-38
2.7763309 -1.4558467 1.069898 1.2535304e-38
2.777935 -1.4720868 1.0676351 1.1982503e-38
2.8127384 -1.5791112 1.0050322 3.5966819e-39
2.8052084 -1.5627422 1.0189507 5.3469514e-39
2.8079751 -1.5763512 1.0142542 5.3455164e-39
2.8095667 -1.590134 1.0118803 4.3331652e-39
2.7909641 -1.5037917 1.0437385 5.9004853e-39
2.7925444 -1.52073 1.0415606 5.8086512e-39
2.7931871 -1.5332657 1.0409865 2.9531132e-39
2.7946844 -1.5424263 1.038543 4.9799709e-39
2.7846549 -1.4962413 1.0557399 5.5603663e-40
2.7835996 -1.5040032 1.0582441 1.1336778e-38
2.7811637 -1.5073946 1.0632241 6.0838045e-39
2.8182352 -1.6255326 0.99676853 4.0583776e-39
2.8004332 -1.5682936 1.0286531 4.4249979e-39
2.7921011 -1.5397846 1.0434816 1.4787076e-39
2.8013504 -1.5814173 1.0275704 3.9640239e-39
2.7879784 -1.5255845 1.0508132 9.2445762e-40
2.7805836 -1.5024341 1.064093 7.4663761e-39
2.816812 -1.6531872 1.0010914 3.5044877e-39
2.8093765 -1.6298288 1.0144389 4.0576587e-39
2.8044286 -1.612645 1.0232302 8.3861617e-39
2.8036962 -1.6217053 1.0251713 6.4522213e-39
2.7934306 -1.5745021 1.0427765 2.3063103e-39
2.7960966 -1.5868019 1.0382059 2.9513237e-39
2.7964554 -1.6007181 1.0382653 2.4910589e-39
2.7871199 -1.5422236 1.0534189 1.1070538e-39
2.7877324 -1.5574466 1.0530515 7.3899296e-40
2.7795417 -1.5315974 1.0677478 1.2899416e-38
2.7816083 -1.54434 1.0643823 1.078073e-38
2.8282895 -1.7221797 0.98230016 3.6899594e-39
2.8017693 -1.6472708 1.0303695 3.7810746e-39
2.7951906 -1.6336145 1.0425646 2.0322387e-39
2.8280621 -1.7540171 0.98450023 3.5981211e-39
2.8061717 -1.6819263 1.023613 2.7680059e-39
2.7990699 -1.6656818 1.0366949 3.412655e-39
2.8010349 -1.680274 1.0336306 4.6097521e-39
2.7928023 -1.6384954 1.0475335 1.387228e-39
2.7935801 -1.6515708 1.0467224 2.3077508e-39
2.7823553 -1.601892 1.0660785 6.8224402e-39
2.8349543 -1.8127322 0.97416764 4.1505704e-39
2.8275206 -1.7864876 0.98735243 3.5981197e-39
2.8226225 -1.7713289 0.99615741 4.2416772e-39
2.7903976 -1.6705245 1.0540276 2.0297234e-39
2.8322294 -1.8340296 0.98070168 3.874345e-39
2.8323526 -1.8489058 0.98127759 3.7817907e-39
2.8221712 -1.8680308 1.0023671 5.7160954e-39
2.7978046 -1.7186857 1.042102 1.2003298e-39
2.8159389 -1.8236307 1.012188 2.6747284e-39
2.8182218 -1.8348401 1.0083123 3.4126494e-39
2.8000998 -1.7666148 1.0402219 1.8453321e-39
2.7909813 -1.777506 1.0587662 1.188275e-38
2.7911263 -1.8005883 1.0597515 1.1517215e-38
2.8093126 -1.8430239 1.0262963 2.3048711e-39
2.8108926 -1.8531232 1.0237418 2.213037e-39
2.8014495 -1.7956561 1.0391637 2.7669255e-39
2.8020861 -1.8099682 1.0386981 3.5044891e-39
2.8011391 -1.8270266 1.0415008 1.0416628e-38
2.7936914 -1.7823892 1.0537013 5.8994105e-39
2.7915344 -1.7921973 1.058486 1.1792714e-38
2.7908938 -1.8025848 1.0603181 8.2961311e-39
2.8068023 -1.8588094 1.032105 2.9505951e-39
2.7977622 -1.8008306 1.046705 6.4715326e-40
2.8005712 -1.8424617 1.0434676 1.0877243e-38
2.7962658 -1.8294218 1.0512232 1.2810452e-38
2.7989872 -1.8609819 1.0476042 1.2533157e-38
2.8001194 -1.8735476 1.0460675 1.0598491e-38
2.8553941 -2.0716434 0.94818896 3.8739793e-39
2.8476789 -2.0503228 0.96219891 3.8736178e-39
2.8494148 -2.0669188 0.95969576 3.7814221e-39
2.841445 -2.0383492 0.97380853 3.226819e-39
2.8457417 -2.0752325 0.96738154 2.4906945e-39
2.8383765 -2.0524106 0.98062086 2.2141076e-39
2.8404622 -2.0709569 0.97753668 2.4896183e-39
2.8285325 -2.0484951 0.99977773 6.8202752e-39
3.0666523 -0.3242169 0.43628678 1.4379297e-38
3.0611014 -0.32363215 0.44717818 1.8251889e-38
3.0677502 -0.33199906 0.43455383 1.3733211e-38
3.058275 -0.31611896 0.45232683 9.9520988e-39
3.0618501 -0.329613 0.44603407 1.7238093e-38
3.0560236 -0.31433293 0.45665959 1.2903088e-38
3.0512257 -0.3126013 0.46600679 1.4839922e-38
3.0461178 -0.313234 0.47609362 1.5300898e-38
3.0469229 -0.32583186 0.47520199 1.7238816e-38
3.0395262 -0.31185126 0.48898944 1.695609e-38
3.0483356 -0.33340001 0.47283822 1.419671e-38
3.0358756 -0.31507149 0.49635124 1.3733567e-38
3.0720038 -0.41672695 0.43084544 9.0283348e-39
3.0738072 -0.43254268 0.42816618 8.9357594e-39
3.0290222 -0.33335191 0.51084375 1.456622e-38
3.0203705 -0.3173531 0.5269897 1.7324502e-38
3.0390725 -0.46109533 0.49809405 7.9230578e-39
3.0383325 -0.47329023 0.50022155 8.108168e-39
3.031929 -0.4582569 0.51199657 7.4617125e-39
3.0291557 -0.46526995 0.51784039 7.2762451e-39
3.0327828 -0.4759911 0.51129228 8.7517367e-39
2.9675167 -1.2660173 0.68320566 8.1128105e-39
2.9788208 -1.3590991 0.66608024 9.0329647e-39
2.986362 -1.4542989 0.65647829 8.4801482e-39
2.9833214 -1.4876996 0.66430014 8.29648e-39
2.9803081 -1.5039115 0.67112261 8.1131706e-39
2.9903319 -1.5669521 0.65486419 7.8355047e-39
2.9911716 -1.6000668 0.65503484 8.2961213e-39
2.9873261 -1.585924 0.66182363 8.2042844e-39
2.8251119 -0.13315624 0.90111673 1.1338263e-38
2.8210628 -0.13954271 0.90943694 1.1888902e-38
2.8188014 -0.15248378 0.9145993 1.3818166e-38
2.8436205 -0.13317993 0.86469376 7.0064923e-45
2.8471634 -0.14446479 0.85834259 5.6051939e-45
2.8397727 -0.12778801 0.87196916 9.2204038e-41
2.8499503 -0.16345659 0.85390264 1.7517156e-39
2.8498154 -0.17974535 0.85506475 2.3052453e-39
2.8492885 -0.19406867 0.85688984 1.8446287e-39
2.8524261 -0.20547861 0.85134327 2.0290227e-39
2.8415968 -0.15207367 0.86971593 1.5666026e-39
2.8430235 -0.16517077 0.86762947 3.6878392e-40
2.8404276 -0.16363958 0.8726536 2.211965e-39
2.8436356 -0.17384402 0.86690199 4.6097815e-40
2.8342593 -0.14477657 0.88375491 8.4077908e-45
2.8367562 -0.16165829 0.8797701 1.4012985e-45
2.8767202 -1.2150931 0.85908777 5.9933942e-39
2.8630106 -0.17273541 0.82871169 4.2038954e-45
2.8550401 -0.161512 0.84378028 4.2038954e-45
2.8604913 -0.17621394 0.83386075 1.1981845e-39
2.8593364 -0.18241143 0.83647501 2.1208624e-39
2.8548825 -0.1814748 0.84518832 2.3974423e-39
2.8570688 -0.19481586 0.84162015 1.4754888e-39
3.0009851 -0.47015509 0.57354754 1.3823947e-38
2.996294 -0.46363544 0.58242059 1.5944453e-38
2.9911513 -0.46032453 0.59235924 8.8457372e-39
2.9752553 -0.4463408 0.62287301 7.3738581e-39
2.961216 -0.45079637 0.65074676 7.1872991e-39
2.9577644 -0.4602882 0.65806162 6.2671462e-39
2.9596345 -0.47618493 0.65525603 7.0979803e-39
2.9536068 -0.45863858 0.66615319 7.46713e-39
2.9562123 -0.44444296 0.6602447 5.252274e-39
2.9523699 -0.45451233 0.66835952 2.7644298e-39
2.9521377 -0.47136208 0.66974449 2.0283067e-39
2.9553244 -0.48221368 0.66406971 5.8998014e-39
2.9481544 -0.45967907 0.6769405 6.9139562e-39
2.9488652 -0.48273546 0.67681056 3.6734339e-40
2.9523635 -0.49291831 0.67048615 4.0555315e-39
2.9529831 -0.46305397 0.66762418 5.345906e-39
2.952636 -0.47555989 0.66899467 2.0283067e-39
2.9492395 -0.44876829 0.67420501 2.7647885e-39
2.9479742 -0.46147391 0.67739409 1.2903815e-39
2.9507439 -0.48719484 0.6733585 1.5669698e-39
2.9468262 -0.47012961 0.68012989 4.6025928e-40
2.9496961 -0.50014591 0.67613381 2.7647913e-39
2.9497352 -0.51428419 0.67683411 2.7640682e-39
2.9502747 -0.52017224 0.6760956 4.5147048e-39
2.9473462 -0.46812701 0.67899609 9.1836897e-41
2.9457378 -0.48030615 0.68283111 1.5666082e-39
2.948209 -0.49682689 0.67887706 2.5800427e-39
2.9489543 -0.54526424 0.68007594 3.5023437e-39
2.9456255 -0.50035059 0.68415505 8.2868027e-40
2.9454684 -0.51308435 0.68516517 1.1978243e-39
2.9418366 -0.52411187 0.69291931 8.2832154e-40
2.9427323 -0.53778225 0.69190884 1.1049014e-39
2.944746 -0.55038667 0.68863952 1.8421021e-39
2.945261 -0.56513113 0.68843657 2.8566086e-39
2.9423695 -0.51923513 0.69160193 2.7622956e-40
2.9433186 -0.53127319 0.69039667 5.5245211e-40
2.9422379 -0.54336852 0.69318962 2.1186904e-39
2.9432166 -0.55974001 0.69216448 1.8421021e-39
2.9444418 -0.57117498 0.69038188 2.8566086e-39
