# .PCD v0.7 - Point Cloud Data file format
VERSION 0.7
FIELDS x y z rgb
SIZE 4 4 4 4
TYPE F F F F
COUNT 1 1 1 1
WIDTH 1041
HEIGHT 1
VIEWPOINT 0 0 0 1 0 0 0
POINTS 1041
DATA ascii
0.56107688 1.4501641 0.87045175 4.3317457e-39
0.57169378 1.4530261 0.87010622 1.015961e-39
0.32059968 1.8372743 0.82845151 1.8508188e-38
0.38615441 1.7367016 0.83935463 8.1978034e-39
0.39397594 1.7225271 0.84089524 7.6460674e-39
0.3972303 1.7095122 0.84232104 7.8311817e-39
0.40747762 1.6982523 0.84353346 8.2917955e-39
0.41454262 1.6854688 0.84492296 8.844612e-39
0.42219028 1.6727866 0.84629953 8.7527765e-39
0.42988905 1.6601136 0.84767503 9.5829001e-39
0.4366813 1.6472824 0.84907049 1.0228631e-38
0.44447774 1.6346308 0.85044336 1.0044596e-38
0.45030788 1.6216272 0.85186046 1.0413737e-38
0.45680812 1.6087451 0.85326242 1.0137507e-38
0.4666214 1.5972522 0.85450178 1.0966188e-38
0.47226158 1.5837343 0.85597628 1.1150579e-38
0.47910571 1.5709611 0.85736519 1.1058385e-38
0.48483753 1.5575588 0.85882658 1.1151298e-38
0.49297523 1.5439461 0.86030442 1.087507e-38
0.49669236 1.5307364 0.8617503 1.1059825e-38
0.50664538 1.5193261 0.86298019 1.0598125e-38
0.51360202 1.5065235 0.86437207 1.0966909e-38
0.52029252 1.4936745 0.86576974 1.0507009e-38
0.52704114 1.4808357 0.86716622 1.2348758e-38
0.53323317 1.4678997 0.86857486 1.216365e-38
0.53975272 1.4550209 0.8699764 1.1056969e-38
0.55009985 1.441376 0.87145156 4.3317555e-39
0.30591804 1.8297985 0.82931715 1.8883084e-38
0.36535588 1.7422678 0.83879972 8.658783e-39
0.37206623 1.7294221 0.84019697 7.7375399e-39
0.37918195 1.7166475 0.84158522 7.9226528e-39
0.38636103 1.7038838 0.84297222 8.2921598e-39
0.39414966 1.6908062 0.844392 8.4765511e-39
0.40142116 1.6778027 0.84580511 8.5683852e-39
0.40831578 1.6656651 0.84712386 9.1219177e-39
0.41186118 1.6512008 0.84870851 9.5825343e-39
0.42244673 1.640098 0.84990275 9.9520413e-39
0.42930537 1.6272783 0.85129672 1.0136072e-38
0.43710381 1.6146227 0.85267001 1.0137872e-38
0.44367647 1.601753 0.85407031 1.0873995e-38
0.45050359 1.588928 0.85546505 1.0873993e-38
0.45719993 1.5760798 0.8568626 1.0321536e-38
0.46479812 1.5633894 0.85824031 1.1520442e-38
0.47209033 1.5506452 0.85962474 1.0966908e-38
0.47836262 1.5377233 0.86103171 1.1152024e-38
0.48474622 1.5248208 0.86243618 1.1244216e-38
0.49493006 1.5134826 0.86365747 1.1336052e-38
0.50113237 1.4983122 0.86531246 1.1059105e-38
0.50530636 1.4857521 0.86668545 1.1152025e-38
0.51110089 1.4723437 0.86814743 1.0967634e-38
0.52129573 1.4611161 0.86935645 1.2624271e-38
0.52698785 1.4480929 0.87077624 1.0227932e-38
0.53502589 1.435479 0.87214422 1.0691083e-38
0.5416103 1.4296584 0.87276733 8.311998e-40
0.3449071 1.7480154 0.83822364 8.4733001e-39
0.35924631 1.7224846 0.84099799 8.6584214e-39
0.36513934 1.7094966 0.84241325 8.4754721e-39
0.37289926 1.6968342 0.84378737 8.9360929e-39
0.37980106 1.6840219 0.84518045 8.6605836e-39
0.38734731 1.6713222 0.84655929 9.4899842e-39
0.3977139 1.6601576 0.84776098 9.8587653e-39
0.4013176 1.645727 0.84934169 9.7669256e-39
0.40964177 1.6335275 0.85066324 9.3059474e-39
0.41667378 1.619652 0.85217321 1.0044238e-38
0.42345569 1.6075406 0.85348934 1.0966556e-38
0.43045247 1.594745 0.85488021 1.0782881e-38
0.43698788 1.581869 0.8562814 1.0690324e-38
0.44378176 1.569038 0.8576768 1.050593e-38
0.45073339 1.5562347 0.85906875 1.1427892e-38
0.45814225 1.5435109 0.86045069 1.1612644e-38
0.46520185 1.5307263 0.86184025 1.1796676e-38
0.4724068 1.5179672 0.86322659 1.1520447e-38
0.4789691 1.5050956 0.86462718 1.1336415e-38
0.48573852 1.4922606 0.86602312 1.0874714e-38
0.49290016 1.4794936 0.86741048 1.0783603e-38
0.50045013 1.4667946 0.86878926 1.1151666e-38
0.51043594 1.4556621 0.86998844 1.0691043e-38
0.51307029 1.442361 0.87144738 1.0689601e-38
0.5222277 1.4299033 0.87279505 1.0228299e-38
0.53197438 1.4180522 0.8740741 8.3156554e-40
0.29273483 1.7897923 0.83376491 1.0590921e-38
0.3240405 1.7536905 0.83765686 9.6696783e-39
0.33297023 1.7420096 0.83891946 8.8410008e-39
0.33719274 1.7289037 0.84035254 8.3807429e-39
0.34459588 1.7158759 0.84176791 8.4733015e-39
0.35246599 1.7025846 0.84321105 8.1985251e-39
0.35896638 1.6897025 0.8446129 8.9368104e-39
0.36557031 1.6768383 0.84601265 9.3055887e-39
0.37317377 1.6641486 0.84739017 9.2137546e-39
0.37996858 1.6513177 0.84878558 1.0227188e-38
0.38732907 1.6385857 0.85016853 9.5828959e-39
0.39448425 1.6258177 0.85155594 9.4903387e-39
0.40196931 1.6131073 0.85293615 1.0227904e-38
0.41161856 1.6014205 0.85419738 1.0229713e-38
0.41753384 1.5880455 0.85565531 1.0506297e-38
0.42596012 1.5763 0.8569265 1.105839e-38
0.43056688 1.5618854 0.85850269 1.059813e-38
0.43776071 1.5468105 0.86014444 1.0967272e-38
0.44513518 1.5355966 0.86135995 1.0782881e-38
0.45166436 1.5236636 0.86265713 1.1336055e-38
0.45879593 1.5108916 0.86404508 1.1151665e-38
0.46565914 1.4980726 0.865439 1.1797396e-38
0.47199526 1.4851619 0.86684453 1.1244221e-38
0.47914383 1.4723928 0.86823213 1.1428612e-38
0.48638755 1.4596403 0.86961764 1.1520449e-38
0.49360645 1.4468836 0.87100375 1.1059469e-38
0.50085133 1.4341311 0.87238926 1.0966901e-38
0.50953931 1.4220458 0.8736971 7.6493268e-39
0.3241922 1.7209834 0.8412624 8.2878242e-39
0.33219874 1.7083639 0.8426311 8.4718568e-39
0.34143335 1.6968457 0.84387487 8.6576942e-39
0.34768069 1.683677 0.84530908 8.3818331e-39
0.35234153 1.6700959 0.84679329 9.0282857e-39
0.36089185 1.6578704 0.84811699 9.0293675e-39
0.36680248 1.643891 0.84964156 9.5821812e-39
0.37179482 1.6305629 0.85109687 1.013571e-38
0.3798382 1.6190475 0.85234368 9.4906988e-39
0.38808158 1.6059836 0.85376078 1.032082e-38
0.39535728 1.5932367 0.85514551 1.0228627e-38
0.40315196 1.5805801 0.85651892 1.0598494e-38
0.41002908 1.5677638 0.85791254 1.1151669e-38
0.41750243 1.5550513 0.85929304 1.1059832e-38
0.42365938 1.5421093 0.86070246 1.1151303e-38
0.4306671 1.5293156 0.86209321 1.1059109e-38
0.43994883 1.5175546 0.86336362 1.1520091e-38
0.44696984 1.5048988 0.86473912 1.1336059e-38
0.45280769 1.4914846 0.86620158 1.1151305e-38
0.45963791 1.4786628 0.86759585 1.1337138e-38
0.46753675 1.4665676 0.86890715 1.1427533e-38
0.47293323 1.4528786 0.87040108 1.1704839e-38
0.47927558 1.4397854 0.87182671 1.1428255e-38
0.4853541 1.4274361 0.87317109 1.0873986e-38
0.49769774 1.4116842 0.87487286 6.6362595e-39
0.28305346 1.7494818 0.83823645 9.6703971e-39
0.30400401 1.7267766 0.8406806 7.7335756e-39
0.31090611 1.7139646 0.84207368 7.8264887e-39
0.31771052 1.7011353 0.8434689 8.1952713e-39
0.32470155 1.6883388 0.84485996 8.1959957e-39
0.33231178 1.6756504 0.84623742 8.5655041e-39
0.3393203 1.6628568 0.84762812 8.7498968e-39
0.34633645 1.6500647 0.84901857 9.3055971e-39
0.35253373 1.6371295 0.85042721 9.8587625e-39
0.35970619 1.6243647 0.85181433 1.0688164e-38
0.36651048 1.6115354 0.85320944 1.0227908e-38
0.37573841 1.5996898 0.85448945 9.8598415e-39
0.38240209 1.5849395 0.85609686 1.059669e-38
0.38632941 1.5721287 0.85749817 1.1150227e-38
0.39242637 1.5589048 0.85893887 1.0782884e-38
0.40339112 1.5478885 0.86012244 1.1336058e-38
0.40991101 1.5350097 0.86152399 1.1243143e-38
0.41676232 1.5221888 0.86291808 1.1336419e-38
0.42389587 1.5094172 0.86430609 1.1612649e-38
0.43079916 1.4966054 0.86569905 1.1243859e-38
0.43795738 1.4838378 0.86708653 1.1520091e-38
0.44527665 1.4710985 0.86847031 1.1336418e-38
0.45201072 1.4582572 0.86986709 1.1428615e-38
0.4588314 1.4454309 0.87126195 1.2349854e-38
0.46506292 1.4325019 0.87266976 1.0599206e-38
0.47258356 1.4197977 0.87404913 1.1150576e-38
0.47824946 1.4077785 0.87535834 7.3701993e-39
0.48941192 1.3996142 0.87622696 4.424293e-39
0.29180753 1.7206733 0.84138793 6.8109033e-39
0.29783961 1.7060367 0.84298462 7.1811221e-39
0.30252048 1.693205 0.84438604 7.549183e-39
0.31051716 1.6813174 0.84567404 7.8264901e-39
0.31489584 1.6668261 0.8472594 8.7498898e-39
0.3255443 1.6557524 0.84845018 9.4885436e-39
0.33288237 1.6430165 0.84983361 9.7662109e-39
0.33972225 1.6301935 0.85122806 9.859124e-39
0.34641847 1.6173456 0.85262561 1.0044241e-38
0.35284159 1.6044497 0.85402924 1.0780361e-38
0.36038846 1.5917503 0.85540807 1.0135714e-38
0.36799341 1.5790609 0.85678566 1.0597048e-38
0.37460771 1.5661985 0.85818511 1.1334984e-38
0.38169318 1.5534184 0.85957402 1.0321548e-38
0.39007661 1.5398042 0.86105132 1.1151665e-38
0.39522254 1.5273358 0.8624115 1.0875079e-38
0.40386248 1.5152372 0.86372089 1.151937e-38
0.41036618 1.5023558 0.86512274 1.1243862e-38
0.41704074 1.4895041 0.86652076 1.1428973e-38
0.4246797 1.4768205 0.86789763 1.1520809e-38
0.43131277 1.4639615 0.86929661 1.1060554e-38
0.43849668 1.4511985 0.87068343 1.1153107e-38
0.44563714 1.438428 0.87207127 1.1428618e-38
0.45265239 1.4256357 0.87346178 1.0875437e-38
0.45972174 1.4128528 0.87485123 1.124205e-38
0.46917513 1.3976471 0.8765009 6.1720233e-39
0.27570483 1.7124376 0.8423413 5.9833076e-39
0.28279901 1.6996591 0.84373009 6.9960162e-39
0.28970683 1.6868479 0.84512299 7.3647917e-39
0.29731897 1.6741596 0.8465004 7.3658679e-39
0.30414218 1.6613339 0.84789515 8.1048763e-39
0.3130576 1.6494688 0.84917819 9.2108707e-39
0.31975418 1.6365918 0.85057896 9.7644088e-39
0.32434499 1.623863 0.85196936 9.9509623e-39
0.33040416 1.6090338 0.85358721 9.8594898e-39
0.34019992 1.5975434 0.85482633 1.0044596e-38
0.34666345 1.5846548 0.85622907 1.0689245e-38
0.35389799 1.5719007 0.85761482 1.0873996e-38
0.36077395 1.5590841 0.85900843 1.1058392e-38
0.36849797 1.5464154 0.86038333 1.0782165e-38
0.37533531 1.533592 0.86177784 1.1150583e-38
0.38226274 1.5207844 0.86317027 1.0967272e-38
0.39256114 1.5094086 0.86439538 1.0783244e-38
0.39994499 1.4943777 0.86603177 1.1336059e-38
0.40272748 1.4816222 0.86743015 1.1520816e-38
0.4107506 1.4717038 0.86850101 1.1336412e-38
0.41923887 1.4578424 0.87000531 1.1336419e-38
0.4244715 1.4440575 0.87151033 1.0968357e-38
0.42886522 1.4297258 0.87307793 1.1152028e-38
0.43878993 1.4185163 0.87428576 1.0875437e-38
0.44619423 1.4057919 0.87566775 9.5825315e-39
0.45360342 1.3930682 0.87704962 5.7103277e-39
0.46207577 1.3800361 0.87846255 3.6852832e-39
0.27666512 1.6798717 0.84592891 7.4584279e-39
0.28322494 1.6669998 0.84732956 8.19563e-39
0.29091409 1.6543251 0.84870523 9.3023377e-39
0.29756823 1.6414697 0.8501038 9.5803693e-39
0.30521771 1.6287881 0.85148036 1.0042792e-38
0.31127521 1.6158286 0.85289198 9.9505994e-39
0.31817308 1.6030159 0.85428512 9.8591296e-39
0.32796907 1.5912989 0.85554934 9.9524028e-39
0.33280525 1.5783173 0.85696685 1.087292e-38
0.33794272 1.5634245 0.8585943 1.0873998e-38
0.34576839 1.551235 0.85991609 1.0782161e-38
0.35363853 1.5393835 0.86120051 1.0689968e-38
0.3615011 1.5264775 0.86260122 1.0689965e-38
0.36542141 1.5122572 0.86415792 1.1058386e-38
0.37542582 1.5008743 0.86538464 1.1059106e-38
0.3836157 1.488287 0.86674929 1.1429336e-38
0.39044869 1.4754628 0.86814386 1.1613375e-38
0.39742711 1.462664 0.86953521 1.1336781e-38
0.4043324 1.4498525 0.87092823 1.1152385e-38
0.41156691 1.4370984 0.87231398 1.0967997e-38
0.41806567 1.424216 0.87371588 1.1428618e-38
0.42828971 1.4130412 0.874919 1.0968358e-38
0.43459287 1.4000185 0.87633705 1.1243499e-38
0.43754569 1.3865123 0.87781775 6.8166752e-39
0.44950476 1.376127 0.87892896 3.132471e-39
0.16636057 1.8401918 0.828565 1.0501682e-38
0.17186879 1.8233432 0.83040696 2.2119917e-39
0.25685453 1.6861161 0.84529638 6.2606134e-39
0.26403648 1.6707512 0.84697014 7.1814837e-39
0.26903209 1.6596396 0.84818107 9.3959795e-39
0.27739149 1.6472651 0.84952176 9.9495162e-39
0.28422248 1.6344405 0.85091639 1.0410854e-38
0.29183725 1.6217527 0.85229373 9.8587625e-39
0.2982395 1.6088535 0.85369778 1.0136798e-38
0.30537739 1.5960824 0.85508561 1.0413021e-38
0.31256145 1.5833195 0.85647243 1.0689252e-38
0.3197431 1.5705563 0.85785937 1.0872201e-38
0.32700196 1.5578065 0.85924453 1.0966196e-38
0.3336283 1.5449462 0.86064363 1.0506293e-38
0.34032571 1.5320985 0.86204118 1.096547e-38
0.35059866 1.520983 0.86323774 1.1611197e-38
0.35387182 1.5064293 0.86483306 1.1150582e-38
0.36237475 1.4931303 0.86627519 1.1150582e-38
0.3673282 1.4802116 0.86768556 1.1151668e-38
0.37649217 1.4683269 0.86896998 1.1244948e-38
0.3833794 1.4555123 0.87036335 1.1520452e-38
0.39042532 1.4427254 0.87175316 1.0968357e-38
0.39744148 1.4299331 0.87314373 1.0968357e-38
0.40503341 1.4172415 0.87452155 1.198143e-38
0.4114964 1.4043527 0.87592429 1.087616e-38
0.41834271 1.3915309 0.87731856 1.0966544e-38
0.42791322 1.3765001 0.87894875 5.7106948e-39
0.15891109 1.8113514 0.83176559 6.6435448e-39
0.16056663 1.8043938 0.832528 6.6435448e-39
0.24094865 1.678255 0.84620798 7.4591496e-39
0.24829336 1.6655201 0.84759122 8.381466e-39
0.25525388 1.6527182 0.84898299 9.2123099e-39
0.26599309 1.6414905 0.85019052 8.843163e-39
0.2729204 1.6287602 0.85157448 1.0226463e-38
0.27892855 1.6128122 0.85331583 1.0135349e-38
0.28367969 1.601315 0.85456997 1.1521207e-38
0.29015225 1.5883168 0.85598475 1.2907758e-38
0.29911166 1.5762721 0.85728741 1.1524089e-38
0.30621499 1.5634953 0.85867602 1.0603229e-38
0.31240743 1.5505594 0.86008471 1.3182177e-38
0.31570765 1.5360141 0.86167896 1.3738601e-38
0.32294428 1.5234805 0.86304039 1.1982893e-38
0.32948327 1.5103809 0.86446619 1.0505582e-38
0.34076047 1.499441 0.86564046 1.1151305e-38
0.34818929 1.4867207 0.86702192 1.0782522e-38
0.35518131 1.4739243 0.86841297 1.1058387e-38
0.36556661 1.4628651 0.86960298 1.1426813e-38
0.37205836 1.4471204 0.87132049 1.1428982e-38
0.37488106 1.4345132 0.87270242 1.1521535e-38
0.3818303 1.4217497 0.87409002 1.1520813e-38
0.39152637 1.410184 0.87533778 1.0876886e-38
0.39446649 1.3955805 0.87693948 1.1244221e-38
0.40153804 1.382848 0.87832332 1.0042435e-38
0.41274813 1.3718376 0.87950552 5.6174174e-39
0.41897511 1.3647375 0.88027078 3.0391992e-39
0.15567018 1.8009355 0.83292311 1.5385464e-38
0.19688779 1.7073463 0.84312499 2.7550789e-40
0.21939394 1.6842653 0.84560615 7.73827e-39
0.22755708 1.6712177 0.84702158 8.752052e-39
0.23254074 1.6575011 0.84851974 9.7669242e-39
0.24091128 1.645515 0.84981763 9.9502392e-39
0.2485029 1.6328232 0.85119545 9.5821728e-39
0.25584984 1.6200887 0.8525787 1.1057667e-38
0.26965162 1.5944641 0.8553648 1.0229381e-38
0.26313925 1.6073442 0.8539632 1.0505216e-38
0.27732217 1.581786 0.85674101 1.2538615e-38
0.28811172 1.5708246 0.85791904 1.2080517e-38
0.29415137 1.5576111 0.85935873 1.2448583e-38
0.30066732 1.544529 0.86078268 1.1896498e-38
0.30476704 1.5305091 0.86231679 1.4294316e-38
0.31153166 1.5176731 0.86371285 1.3183252e-38
0.31795418 1.5047773 0.86511648 9.6772649e-39
0.32468712 1.4928032 0.86641765 9.3995878e-39
0.33389649 1.4795262 0.86785543 1.1336059e-38
0.3413426 1.4668092 0.86923647 1.1426815e-38
0.3483218 1.4540104 0.87062782 1.0874358e-38
0.35486862 1.4411364 0.87202871 1.0874719e-38
0.36297709 1.4285347 0.87339514 1.1613733e-38
0.36973506 1.4156975 0.87479144 1.161373e-38
0.37937552 1.4040056 0.87605315 1.0875801e-38
0.38393047 1.3901416 0.87756884 1.1244941e-38
0.3905046 1.3772724 0.87896913 1.1333887e-38
0.39803314 1.3653529 0.88026208 5.3422696e-39
0.40527377 1.3608621 0.88073671 3.041367e-39
0.2146951 1.6642492 0.84782612 1.0136433e-38
0.22028759 1.651232 0.84924549 9.8591198e-39
0.22817308 1.6387084 0.85060394 1.0413382e-38
0.23506933 1.6257653 0.85201144 1.0873644e-38
0.24171598 1.6128628 0.85341519 1.1334623e-38
0.24649768 1.5987469 0.85495794 1.0598144e-38
0.25283009 1.5857373 0.85637438 1.1244614e-38
0.26034015 1.5733052 0.85772389 1.3646783e-38
0.27032304 1.5618477 0.85895884 1.2634791e-38
0.2772525 1.5490406 0.86035132 1.1806122e-38
0.28372133 1.536153 0.86175388 1.3928055e-38
0.29068264 1.5233511 0.86314571 1.3189769e-38
0.29690379 1.5104201 0.86455375 1.281663e-38
0.30073684 1.496133 0.86611813 9.402857e-39
0.31131405 1.4849018 0.8673265 8.6623829e-39
0.32109812 1.472751 0.86863846 1.0598491e-38
0.3294802 1.4609969 0.86991072 1.1058749e-38
0.33388403 1.4470854 0.87143201 1.105875e-38
0.33831 1.4324323 0.87303501 1.1059466e-38
0.34534258 1.4197255 0.87441611 1.1243506e-38
0.35581353 1.4085679 0.87561673 1.1520456e-38
0.36246559 1.3957119 0.87701529 1.1335696e-38
0.36969081 1.3829561 0.87840122 1.1151659e-38
0.37736171 1.3702785 0.87977731 8.4754749e-39
0.38610485 1.3577868 0.8811298 4.2370109e-39
0.2143272 1.6314751 0.85144055 1.0782169e-38
0.22105752 1.6186332 0.85283732 1.1058037e-38
0.2283615 1.605891 0.85422152 1.1150952e-38
0.23521386 1.5930703 0.85561568 1.1335343e-38
0.2425739 1.580338 0.85699868 1.0321924e-38
0.24893197 1.5674311 0.85840374 1.4106677e-38
0.25900164 1.5562307 0.85961014 1.2264935e-38
0.2649335 1.5406919 0.86130649 1.3003943e-38
0.26829481 1.5279239 0.86270463 1.346817e-38
0.27724007 1.5140816 0.86420554 1.3466363e-38
0.28559852 1.504591 0.8652283 1.3742947e-38
0.28933418 1.4903824 0.86678421 1.0787972e-38
0.29772598 1.4775982 0.86817002 8.2028565e-39
0.30589595 1.4652392 0.86950952 8.9375264e-39
0.31326243 1.4525082 0.87089229 1.0413736e-38
0.32001817 1.4396706 0.87228858 1.0782525e-38
0.32820043 1.4270818 0.87365341 1.1151301e-38
0.3350741 1.4142648 0.87504709 1.0967278e-38
0.34178287 1.4009631 0.87649471 1.1428978e-38
0.35052758 1.3895664 0.87772644 1.1521536e-38
0.35390535 1.3771384 0.87908715 1.0874356e-38
0.36409429 1.3632628 0.88058817 5.064252e-39
0.37390685 1.3503428 0.88198489 3.5923673e-39
0.17941555 1.6621592 0.84815609 1.0968364e-38
0.19774103 1.6230611 0.85241491 1.13357e-38
0.20753473 1.6115729 0.85365385 1.1427537e-38
0.21463852 1.598796 0.85504246 1.1887801e-38
0.22111292 1.5859092 0.85644495 1.1152047e-38
0.22846016 1.5731747 0.8578282 1.1707774e-38
0.23511879 1.5603203 0.85922658 1.4017008e-38
0.24193449 1.5474932 0.86062157 1.2173102e-38
0.26922205 1.4961888 0.8662008 1.3003566e-38
0.2757116 1.4833049 0.867603 9.0347948e-39
0.24911071 1.534729 0.86200851 1.2729157e-38
0.25664371 1.5220268 0.8633877 1.3190502e-38
0.26274118 1.5090744 0.86479849 1.3835873e-38
0.28351852 1.4706504 0.86897612 7.0050406e-39
0.29346508 1.4569875 0.87045437 9.4907044e-39
0.29950175 1.4454066 0.87171412 1.059921e-38
0.30729097 1.4327492 0.87308758 1.0783245e-38
0.31508535 1.4200927 0.874461 1.1243502e-38
0.3218385 1.4072548 0.87585729 1.1243859e-38
0.32892606 1.394475 0.87724626 1.1705926e-38
0.33551422 1.3816081 0.87864625 1.1520082e-38
0.34258658 1.3688258 0.88003552 1.1795953e-38
0.35167453 1.3558714 0.88143808 7.1851004e-39
0.36145782 1.3434286 0.88278228 2.580749e-39
0.17223293 1.6427618 0.85031492 1.1152398e-38
0.17949332 1.6300122 0.85170001 1.1520819e-38
0.1859529 1.617123 0.85310286 1.1427536e-38
0.19546804 1.605417 0.85436654 1.1428616e-38
0.19909103 1.5934032 0.85568082 1.1520816e-38
0.20724152 1.5786651 0.8572827 1.1336799e-38
0.21495898 1.5661185 0.85864425 1.3461299e-38
0.22018132 1.5526353 0.860116 1.3554592e-38
0.22864461 1.5404736 0.86143297 1.3651483e-38
0.2331394 1.5265992 0.86294991 1.2637684e-38
0.24205762 1.5147812 0.86422765 1.402063e-38
0.24932702 1.5020331 0.86561257 1.2913198e-38
0.25361305 1.4881961 0.86712605 1.2265638e-38
0.26024878 1.475302 0.86852884 8.3883436e-39
0.26933083 1.4634744 0.86980724 7.6493254e-39
0.27810597 1.4509889 0.87115902 8.2928913e-39
0.28747359 1.4373301 0.87263846 1.0413741e-38
0.29197612 1.4248626 0.87400031 1.0875084e-38
0.30153304 1.4130275 0.87527812 1.1152024e-38
0.3087371 1.4002681 0.87666452 1.1705569e-38
0.31530991 1.3873986 0.87806481 1.1520454e-38
0.32163763 1.3744862 0.87947059 1.1427167e-38
0.32830301 1.3616328 0.88086885 7.7382756e-39
0.33602777 1.3489643 0.88224369 5.0642506e-39
0.34201914 1.3422577 0.88296622 3.4076131e-39
0.15872712 1.6357046 0.85113102 1.1613016e-38
0.165668 1.6228992 0.85252327 1.1704848e-38
0.17269222 1.6101085 0.85391361 1.2073268e-38
0.17923228 1.5972333 0.85531455 1.142862e-38
0.18648878 1.5844829 0.85669982 1.1520819e-38
0.19399939 1.5717771 0.85807949 1.1796327e-38
0.20461163 1.5606842 0.85927254 1.0784001e-38
0.20768319 1.546132 0.86086822 1.4843885e-38
0.21811643 1.5350975 0.86205536 1.1987998e-38
0.22108538 1.5204376 0.8636632 1.3191581e-38
0.23044845 1.5086119 0.86494058 1.2638045e-38
0.23747668 1.4960046 0.86631072 1.4020627e-38
0.24107483 1.4818763 0.86785817 1.4295754e-38
0.24814332 1.4690932 0.86924756 8.94116e-39
0.25817257 1.4562812 0.87063175 7.9262794e-39
0.26439968 1.4438968 0.87197953 9.5839819e-39
0.27168667 1.4311519 0.87336409 1.0967278e-38
0.27985343 1.4185605 0.87472928 1.0783608e-38
0.28950825 1.4046993 0.87623024 1.1243866e-38
0.29332659 1.3923333 0.87758279 1.1336062e-38
0.30077124 1.3823655 0.87866074 1.1336423e-38
0.30868149 1.3678298 0.88024104 1.1151665e-38
0.31548977 1.3543781 0.88170487 9.0297249e-39
0.32434824 1.3422257 0.88301957 5.1593329e-39
0.32983825 1.3354909 0.88374662 2.6722243e-39
0.13888825 1.6418861 0.85050547 1.1426828e-38
0.14594062 1.6273402 0.85208929 1.1427901e-38
0.15086076 1.6152648 0.85340667 1.216691e-38
0.15737404 1.6022875 0.85481906 1.2073637e-38
0.16370872 1.5891355 0.85625118 1.1981798e-38
0.16907015 1.5755738 0.85773128 1.1704848e-38
0.17979667 1.5645983 0.85891104 1.1060936e-38
0.18686138 1.5518146 0.86030048 1.3737161e-38
0.19380707 1.5390102 0.86169255 1.2172376e-38
0.20063674 1.5261854 0.86308724 1.3375608e-38
0.20749314 1.5133654 0.86448121 1.1807201e-38
0.21397041 1.5004791 0.86588365 1.4204656e-38
0.22136919 1.4877537 0.86726576 1.4112463e-38
0.2277447 1.4748498 0.8686704 1.3741131e-38
0.23400974 1.4619265 0.87007755 9.5868882e-39
0.24172093 1.4492557 0.87145275 6.8195591e-39
0.24879317 1.4379169 0.87268281 9.4903471e-39
0.25542203 1.4225689 0.87435627 1.1152026e-38
0.26629695 1.4114945 0.87554657 1.1152754e-38
0.27316615 1.3986765 0.87694037 1.142862e-38
0.28072679 1.3859795 0.87831885 1.1244225e-38
0.28723803 1.3730991 0.87972057 1.1243862e-38
0.29377687 1.3602237 0.88112164 1.0135715e-38
0.30338266 1.3454771 0.88272029 5.8032576e-39
0.31410882 1.335848 0.88375163 2.39492e-39
0.13083027 1.6214358 0.85278279 1.2350937e-38
0.13773404 1.6086239 0.85417593 1.2259466e-38
0.14484963 1.5958492 0.85556424 1.2350225e-38
0.16112126 1.5672122 0.85867548 1.1889604e-38
0.16470668 1.55652 0.85984421 1.1521554e-38
0.17328186 1.5450639 0.86108303 1.143045e-38
0.17843229 1.5309181 0.8626281 1.337309e-38
0.18674369 1.5177583 0.86405545 1.3743316e-38
0.19498166 1.5072093 0.86519527 1.3835873e-38
0.20122562 1.492326 0.86681849 1.1991237e-38
0.20592813 1.4798723 0.86817825 1.411354e-38
0.21157563 1.4663291 0.86965543 1.2356747e-38
0.22079383 1.4533657 0.87105864 8.4819853e-39
0.22816616 1.4416533 0.87232912 8.3883352e-39
0.2358288 1.4295105 0.87364626 8.7524205e-39
0.24387218 1.4168975 0.87501413 1.1151306e-38
0.25214118 1.4043484 0.87637436 1.096872e-38
0.25907418 1.3911644 0.87780833 1.1428976e-38
0.26478013 1.3781033 0.87923223 1.1243861e-38
0.27231777 1.3662658 0.88051593 1.1152028e-38
0.28013325 1.3531424 0.88194078 5.4344751e-39
0.29079548 1.3392191 0.88344574 3.7767628e-39
0.13108715 1.5887471 0.85638601 1.235202e-38
0.14486988 1.5631193 0.85917258 1.1981798e-38
0.13855642 1.5760341 0.85776651 1.216727e-38
0.15307496 1.5505345 0.86053687 1.161338e-38
0.15991889 1.5377121 0.8619312 1.3920457e-38
0.16621384 1.5247942 0.86333764 1.3370922e-38
0.17278472 1.5119243 0.86473805 1.3836226e-38
0.17993644 1.4991559 0.86612552 1.2544414e-38
0.18608457 1.4862123 0.86753523 1.4020632e-38
0.19325101 1.4734462 0.86892247 1.3376344e-38
0.20005181 1.4606165 0.87031776 1.5309912e-38
0.20691848 1.4477981 0.87171161 9.7749004e-39
0.21442676 1.435092 0.87309128 5.6203083e-39
0.22189374 1.4223273 0.87447751 9.2144875e-39
0.23051593 1.4098663 0.87582695 1.0876527e-38
0.23794584 1.3971463 0.87720835 1.1153117e-38
0.24514174 1.3843855 0.87859499 1.1152394e-38
0.25153241 1.3714842 0.87999928 1.1336056e-38
0.2586813 1.3587152 0.88138688 1.1058034e-38
0.26785338 1.3461734 0.88274378 7.8297608e-39
0.27798188 1.3331262 0.8841536 4.2384752e-39
0.10521674 1.6081795 0.85431653 1.2534257e-38
0.11089497 1.5947015 0.8557865 1.2719732e-38
0.12876119 1.5546914 0.86014724 1.2350219e-38
0.13851169 1.5432928 0.86137635 1.1521917e-38
0.14599979 1.5305829 0.86275655 1.5306309e-38
0.15260552 1.5177191 0.86415607 1.3558569e-38
0.15864182 1.504756 0.86556822 1.383624e-38
0.16232124 1.4904085 0.86713964 1.3006119e-38
0.17278747 1.4791914 0.86834681 1.2730603e-38
0.17963864 1.4663705 0.86974096 1.3928797e-38
0.18566471 1.4534055 0.87115335 1.3280504e-38
0.19254488 1.4405897 0.87254685 9.125903e-39
0.20085526 1.4280233 0.87390882 8.1095819e-39
0.21020016 1.4143983 0.87538469 9.3999591e-39
0.21489836 1.4017723 0.87676346 1.124423e-38
0.22486004 1.3901625 0.87801522 1.1336786e-38
0.23155506 1.3773141 0.87941289 1.1243503e-38
0.2384337 1.364498 0.88080645 1.1425742e-38
0.24566285 1.351743 0.88219231 5.6167111e-39
0.25445634 1.3389313 0.88357997 3.4069041e-39
0.10325386 1.5744894 0.8580364 1.2443867e-38
0.11008851 1.5616657 0.85943091 1.2443139e-38
0.11753435 1.5489483 0.86081201 1.2534255e-38
0.12713189 1.5373751 0.86206084 1.1982163e-38
0.13159391 1.5233142 0.86359847 1.3277994e-38
0.1397929 1.5112153 0.86490929 1.3923006e-38
0.14691547 1.4985489 0.86628568 1.3283432e-38
0.15154096 1.4848 0.86778837 1.3375619e-38
0.16091532 1.4733213 0.8690275 1.402026e-38
0.16754234 1.4603608 0.87043762 1.2361455e-38
0.17520398 1.4480327 0.87177521 1.4757102e-38
0.17981401 1.4332496 0.87339205 9.0359018e-39
0.18678211 1.4208671 0.8747375 7.9251934e-39
0.19536217 1.4083476 0.87609357 9.5847091e-39
0.20315453 1.3956909 0.87746698 1.1059838e-38
0.21242872 1.3839597 0.87873417 1.1336785e-38
0.2193964 1.3712667 0.88011396 1.1428978e-38
0.22340864 1.3573289 0.88163924 8.3836506e-39
0.23317701 1.3448638 0.88298595 6.264956e-39
0.24037288 1.3367989 0.88385475 2.116531e-39
-0.015648486 1.7480561 0.83923632 2.249539e-38
-0.0060525131 1.7339326 0.84076631 1.4199608e-38
-0.0052028098 1.7259319 0.84164602 1.4015925e-38
0.076546125 1.5931613 0.85605323 1.2720447e-38
0.089688867 1.5674219 0.85885388 1.2443498e-38
0.096579991 1.554608 0.86024719 1.2534973e-38
0.10384505 1.5418591 0.86163223 1.2534252e-38
0.11114632 1.5291166 0.86301649 1.1245322e-38
0.1181049 1.5163144 0.86440831 1.4660931e-38
0.1251615 1.5035293 0.86579788 1.365004e-38
0.13123193 1.4905721 0.86720937 1.4850388e-38
0.13805753 1.4777467 0.868604 1.1808295e-38
0.14502336 1.4649458 0.86999571 1.4389763e-38
0.15147926 1.4520559 0.87139857 1.2176345e-38
0.15859357 1.4392809 0.87278694 1.1343688e-38
0.16533713 1.4264411 0.87418348 1.106383e-38
0.17513926 1.4134121 0.87559229 6.4511465e-39
0.17866069 1.3998592 0.87707657 9.6776222e-39
0.18958879 1.3886232 0.87828445 1.1152752e-38
0.19618686 1.3757582 0.87968421 1.1152748e-38
0.20376195 1.3630635 0.88106245 1.170413e-38
0.21328191 1.3482709 0.88266647 6.8166892e-39
0.22080392 1.3380042 0.88377708 1.6559172e-39
0.22422121 1.3359791 0.88399076 1.6577277e-39
0.048331678 1.6115707 0.85410321 1.2811563e-38
0.063874677 1.5867926 0.85679114 1.2720452e-38
0.068913892 1.5739303 0.85819495 1.2627894e-38
0.074885607 1.5595095 0.85976803 1.2628254e-38
0.081855461 1.5468313 0.86114609 1.2536061e-38
0.090701841 1.5348651 0.86244041 1.2259119e-38
0.097387396 1.5220153 0.86383826 1.2538264e-38
0.10477176 1.5092872 0.86522061 1.4110652e-38
0.11084849 1.4963313 0.86663187 1.503406e-38
0.11536186 1.4825081 0.86814308 1.5125532e-38
0.13115054 1.4578246 0.87081993 9.7814136e-39
0.13447699 1.4433568 0.87240559 1.4110651e-38
0.14469264 1.4321547 0.87361175 8.9462047e-39
0.14912726 1.4182838 0.87512857 8.667457e-39
0.15925679 1.4066631 0.87638116 9.5857965e-39
0.16800952 1.3941737 0.87773341 8.6634717e-39
0.17334926 1.3827146 0.87898171 1.1428257e-38
0.18255749 1.3686794 0.88050312 1.1334625e-38
0.19063349 1.3560721 0.88187021 6.0780438e-39
0.20171514 1.3450691 0.88305211 5.9883831e-39
0.069252327 1.5404384 0.86188644 1.2720093e-38
0.079429887 1.529045 0.86311382 1.2535339e-38
0.084253922 1.5150653 0.86464143 1.2997046e-38
0.092779346 1.5033507 0.86590892 1.474805e-38
0.099550724 1.4904346 0.8673138 1.4015199e-38
0.10346165 1.4763253 0.8688584 1.6322633e-38
0.11053192 1.4635426 0.87024766 1.3096509e-38
0.1204426 1.4523742 0.87145102 1.5863101e-38
0.12431493 1.4379148 0.87303424 1.2359664e-38
0.13193785 1.4253929 0.87439322 1.7060195e-38
0.13731378 1.4121501 0.8758381 1.0789034e-38
0.14433351 1.4022681 0.87690783 7.0032329e-39
0.15421262 1.3870658 0.87855595 1.1060197e-38
0.16202395 1.3744124 0.87992895 1.1704846e-38
0.16934061 1.3634784 0.88111383 8.7527975e-39
0.17772266 1.3491186 0.8826732 4.1444691e-39
0.18623964 1.340364 0.88361448 3.6849371e-39
0.055314578 1.5333058 0.86271214 1.2628261e-38
0.062807143 1.5205967 0.86409217 1.2535699e-38
0.076271541 1.4949132 0.86688572 1.225947e-38
0.069985606 1.5078329 0.86547911 1.2352387e-38
0.084165849 1.4822743 0.86825693 1.3550221e-38
0.09059757 1.4693801 0.86966032 1.1707393e-38
0.097819924 1.456624 0.8710463 1.2078687e-38
0.10532602 1.4439173 0.87242603 1.1986868e-38
0.11254267 1.43116 0.8738122 1.2262743e-38
0.11883853 1.4182422 0.87521863 9.7730871e-39
0.12546891 1.4053828 0.87661767 1.2260926e-38
0.1318436 1.3950815 0.87773532 9.6761831e-39
0.13748863 1.3785229 0.87954497 1.0413391e-38
0.14858033 1.3673661 0.88074368 6.2638756e-39
0.15720214 1.3569815 0.88186431 4.604727e-39
0.16978177 1.3451284 0.88313556 4.2391913e-39
0.014161304 1.5774901 0.85795695 1.2904849e-38
0.020915242 1.5646522 0.85935324 1.2904123e-38
0.027844546 1.5518448 0.86074567 1.2995957e-38
0.040469255 1.526621 0.863491 1.2812292e-38
0.047061171 1.5124484 0.86503488 1.2812292e-38
0.05643034 1.5007671 0.86629635 1.2627539e-38
0.059860256 1.4863678 0.86787415 1.2535341e-38
0.070370249 1.4751666 0.86907947 1.216727e-38
0.077335641 1.4623654 0.87047118 1.2075083e-38
0.084584303 1.4496138 0.87185657 1.1982886e-38
0.091366492 1.4367809 0.87325221 1.2074365e-38
0.098622061 1.4240304 0.87463748 1.2166914e-38
0.10558261 1.4112287 0.87602925 1.0784698e-38
0.11262117 1.3984402 0.87741929 1.1153119e-38
0.12314648 1.387237 0.87862474 1.179813e-38
0.1283703 1.3708876 0.88041252 7.7393644e-39
0.1385299 1.3584447 0.88175565 3.6838595e-39
0.01392273 1.544715 0.86157107 1.2904487e-38
0.021513849 1.5320232 0.86294889 1.2812653e-38
0.028898511 1.5192953 0.86433131 1.2720821e-38
0.035241719 1.5063857 0.86573666 1.2904487e-38
0.04531645 1.4950887 0.86695373 1.27201e-38
0.049340479 1.4808129 0.86851627 1.281193e-38
0.055856179 1.4688993 0.86981136 1.235167e-38
0.063144684 1.4550437 0.87131834 1.2352031e-38
0.070901006 1.4425257 0.87267661 1.2443505e-38
0.078364283 1.4298116 0.87405723 1.207508e-38
0.085438631 1.4170294 0.87544656 1.2075079e-38
0.091463968 1.4040644 0.87685889 1.1889603e-38
0.099128321 1.3913853 0.87823516 1.1888165e-38
0.10743944 1.3788191 0.87959713 6.079134e-39
0.11457247 1.3641951 0.88118923 4.2355886e-39
-0.041864835 1.6139778 0.85409224 1.3552375e-38
-0.029555658 1.5875957 0.85696608 1.3183232e-38
-0.01935672 1.5762569 0.8581875 1.3458023e-38
-0.011989169 1.5635258 0.85957026 1.3457663e-38
-0.0056040557 1.5506237 0.86097473 1.3181439e-38
0.001195098 1.5377935 0.86237007 1.3088877e-38
0.0080562532 1.5249745 0.86376399 1.2812652e-38
0.015225118 1.5122089 0.86515117 1.2813375e-38
0.021982808 1.4993715 0.86654741 1.2813014e-38
0.028749809 1.486536 0.86794341 1.2812292e-38
0.035562318 1.4737082 0.86933845 1.2813012e-38
0.042666875 1.4609314 0.87072706 1.2444228e-38
0.050214466 1.4482318 0.87210584 1.2444587e-38
0.058775008 1.4359977 0.87343049 1.2167281e-38
0.065372378 1.4230815 0.87483591 1.2443868e-38
0.072854288 1.4085368 0.87641835 1.225875e-38
0.078852482 1.3971633 0.87765533 5.9862195e-39
0.086732037 1.3845216 0.87902683 6.6312288e-39
0.095941544 1.3698034 0.88062352 2.6693447e-39
-0.047751058 1.5946345 0.85624141 1.3644573e-38
-0.040624604 1.5818616 0.85762948 1.3368344e-38
-0.031424027 1.5701879 0.85889059 1.3275429e-38
-0.024744242 1.5545318 0.86059779 1.2998836e-38
-0.020509431 1.5428493 0.86187387 1.2998484e-38
-0.014455792 1.5295255 0.86332572 1.3181796e-38
-0.0049769287 1.5179995 0.86456966 1.3181072e-38
0.0015342877 1.5051194 0.86597139 1.2997402e-38
0.008139424 1.4922554 0.86737096 1.2905571e-38
0.015180235 1.4794676 0.86876094 1.2813374e-38
0.022373304 1.4667063 0.87014759 1.2997405e-38
0.029525943 1.4539379 0.87153512 1.2536425e-38
0.036407758 1.4411222 0.87292862 1.235203e-38
0.04354234 1.4283508 0.87431657 1.3181433e-38
0.050846174 1.4156088 0.87570071 1.1982172e-38
0.058154501 1.4028676 0.87708479 8.0148793e-39
0.065740742 1.3919811 0.87826365 4.9724291e-39
0.067379013 1.3891358 0.8785727 1.29002e-39
0.07847932 1.3817008 0.87936115 2.2094455e-39
-0.047393013 1.5619637 0.8598423 1.3552378e-38
-0.03950952 1.5493226 0.8612138 1.3275787e-38
-0.032877639 1.5364636 0.86261278 1.3182875e-38
-0.026033388 1.5236413 0.86400712 1.3090675e-38
-0.015793568 1.5124415 0.86521298 1.244639e-38
-0.0103642 1.4979076 0.86680007 1.2997764e-38
-0.0064630187 1.4840991 0.86831135 1.30896e-38
0.0035849058 1.4727437 0.86953491 1.31818e-38
0.0099181486 1.4579188 0.87115157 1.3365466e-38
0.015536287 1.4454573 0.87250954 1.1705586e-38
0.023401793 1.4341522 0.87373376 8.1081581e-39
0.031301659 1.4215142 0.87510478 7.1862074e-39
0.038731705 1.4084599 0.87652308 4.0526308e-39
0.048072282 1.3974957 0.87770551 3.1285179e-39
-0.1246161 1.6694654 0.84820819 1.2077256e-38
-0.077367969 1.5813837 0.85778588 1.53041e-38
-0.067829952 1.5677135 0.8592661 1.4014071e-38
-0.053786334 1.5421309 0.8620469 1.3644566e-38
-0.047177739 1.5292678 0.86344641 1.3552374e-38
-0.039498638 1.5165912 0.86482239 1.3367628e-38
-0.032656871 1.5037686 0.86621672 1.3367266e-38
-0.025978824 1.4909174 0.86761475 1.3366545e-38
-0.018158637 1.4782655 0.8689875 1.318143e-38
-0.0093289744 1.4661335 0.87030017 1.2813367e-38
-0.0022712552 1.4529521 0.87173349 8.7556771e-39
0.0045333952 1.4401757 0.87312293 4.4185337e-39
0.021553734 1.4150442 0.87584561 2.8555282e-39
-0.1229633 1.6371753 0.85176355 1.2630786e-38
-0.11619795 1.6242152 0.85317326 1.1522282e-38
-0.11033242 1.610931 0.85462129 1.0415566e-38
-0.10242228 1.5990261 0.85591149 1.5949464e-38
-0.095191211 1.5862715 0.8572973 1.622606e-38
-0.088303991 1.5734568 0.85869068 1.6225695e-38
-0.079062238 1.5617875 0.85995108 1.5119708e-38
-0.074508175 1.5478312 0.8614769 1.4934954e-38
-0.066999033 1.5335368 0.86303174 1.3274711e-38
-0.059994161 1.5223309 0.86424732 1.2905215e-38
-0.052961331 1.5095416 0.86563754 1.1059862e-38
-0.046254799 1.4966954 0.86703491 7.7400959e-39
-0.038224339 1.4840801 0.86840308 8.7535247e-39
-0.03126619 1.4712778 0.86979491 9.492159e-39
-0.021731235 1.4592223 0.87109709 8.2943389e-39
-0.10942335 1.5782578 0.85822093 6.3596894e-39
-0.098332316 1.5688012 0.85923219 9.3092097e-39
-0.09335082 1.5544994 0.8607949 7.6507757e-39
-0.086117961 1.5409003 0.86227381 7.1890801e-39
-0.07842733 1.5284302 0.86362696 6.5426219e-39
-0.070522085 1.5157932 0.86499786 5.8057855e-39
-0.057138573 1.4900956 0.86779326 6.3589551e-39
0.65100616 1.8469422 0.82645357 7.9230158e-39
0.66001052 1.8456442 0.82657123 8.3825506e-39
0.66684616 1.8328204 0.8279658 8.4761784e-39
0.67352873 1.8199703 0.8293637 8.7545785e-39
0.68021458 1.8071203 0.83076149 4.0558552e-39
0.64195567 1.8375008 0.82752001 8.1063196e-39
0.64945656 1.8405024 0.82716793 7.5506221e-39
0.65269679 1.8251132 0.82885545 8.1056008e-39
0.65987861 1.8131504 0.83015406 8.6594906e-39
0.66716439 1.8001989 0.83156145 8.7531254e-39
0.63020456 1.8286812 0.82852554 7.4587866e-39
0.63834023 1.8184453 0.82963109 7.5509865e-39
0.64578974 1.8057289 0.83101201 7.9201221e-39
0.65282959 1.7929407 0.83240205 7.8286509e-39
0.66165918 1.780951 0.83369905 8.9350055e-39
0.6687097 1.7684087 0.83506191 8.1059651e-39
0.67574477 1.7537619 0.83665687 8.1995957e-39
0.61735523 1.8119143 0.8304103 6.9981742e-39
0.62338811 1.8122272 0.83035874 7.4584293e-39
0.63226086 1.7986677 0.83182871 7.8279237e-39
0.63981211 1.7859687 0.83320743 8.1970789e-39
0.66023767 1.7474835 0.83739275 8.3818163e-39
0.60572469 1.8043827 0.8312735 6.2606162e-39
0.60992837 1.8050784 0.83118492 6.8141417e-39
0.61774522 1.7912252 0.83269018 7.2751156e-39
0.62290829 1.7774262 0.83419693 7.7357336e-39
0.66030139 1.7147613 0.8410002 9.8565905e-39
0.67404187 1.6891259 0.84378767 9.1183192e-39
0.59213549 1.7921139 0.83266437 6.076948e-39
0.59324545 1.7978228 0.83203185 5.7081655e-39
0.59709913 1.7971475 0.8320955 6.4457221e-39
0.58179212 1.7818531 0.83382487 5.1550001e-39
0.5881241 1.7930206 0.83257574 5.1542798e-39
0.58844042 1.7802695 0.83398062 6.7215901e-39
0.63955605 1.6877239 0.84403956 9.3941732e-39
0.57249039 1.7694921 0.8352139 4.6014718e-39
0.5755555 1.7704304 0.83510178 5.8007212e-39
0.55705011 1.7594578 0.83636367 3.1285123e-39
0.55972087 1.7637905 0.83587849 3.4972892e-39
0.54549474 1.7579672 0.83656067 2.1150877e-39
0.54814613 1.7574886 0.83660597 3.5894849e-39
0.5266965 1.7573181 0.83668524 2.4835073e-39
0.53579527 1.750177 0.83744687 3.7738733e-39
0.50762832 1.752844 0.83723229 1.7463094e-39
0.51394415 1.7516382 0.83734745 2.5753428e-39
0.48823786 1.7581222 0.83670509 1.745952e-39
0.50156665 1.748966 0.83767694 2.6686146e-39
0.47083363 1.7660878 0.83587599 1.6537564e-39
0.48054382 1.7532218 0.83726704 2.4831471e-39
0.48815697 1.7409286 0.83860087 3.4972892e-39
0.44533676 1.7668691 0.83586174 2.1136527e-39
0.45772138 1.7613147 0.83643919 3.0355992e-39
0.42685744 1.7736171 0.83516997 2.5739078e-39
0.43999827 1.7616775 0.83644915 3.404016e-39
0.44726339 1.7520298 0.83749235 4.2348515e-39
0.37798181 1.8328756 0.82877463 5.8907659e-39
0.38561735 1.8046792 0.83186173 6.9960204e-39
0.39531919 1.7934971 0.83306712 6.0740795e-39
0.40446857 1.7835191 0.83414143 3.7702818e-39
0.37489808 1.8467069 0.82725847 8.1956384e-39
0.40833548 1.7812296 0.83438289 4.3252492e-39
0.41809002 1.7702718 0.83556348 4.0501029e-39
0.35704499 1.8551533 0.82637757 1.6021398e-38
0.35868046 1.8390894 0.82814395 1.2798907e-38
0.37412623 1.8145057 0.83081073 8.1030714e-39
0.3556895 1.8527979 0.82664102 1.335173e-38
0.36769551 1.8268601 0.82946682 9.0261067e-39
0.38164926 1.8012619 0.83224964 6.8145116e-39
0.39007258 1.7891393 0.83356237 5.8007226e-39
0.39822879 1.776122 0.83497453 5.0635275e-39
0.40561259 1.7633939 0.836357 5.4312269e-39
0.41277242 1.7506267 0.83774436 4.8798523e-39
0.33307675 1.8581681 0.82611281 2.127695e-38
0.34164703 1.8456471 0.82746905 1.3996344e-38
0.34887722 1.8328922 0.82885486 1.2615244e-38
0.35650158 1.8202062 0.83023196 9.6692999e-39
0.36390445 1.8074813 0.83161402 8.9317559e-39
0.36989942 1.794511 0.83302706 9.2101435e-39
0.37711227 1.7817491 0.83441371 6.8152277e-39
0.38289666 1.7680496 0.83590776 7.9212151e-39
0.31485814 1.8462707 0.82747591 1.9339745e-38
0.31417501 1.8641858 0.82550263 1.8146599e-38
0.31840035 1.8509067 0.82695478 1.6487435e-38
0.32879287 1.8387035 0.82827085 1.6116862e-38
0.33518383 1.8258022 0.8296752 1.4275472e-38
0.34215853 1.8130028 0.83106667 1.0313246e-38
0.35762641 1.7876689 0.83381599 8.933195e-39
0.37149042 1.7620552 0.83660078 7.9219312e-39
0.38113862 1.7506818 0.83782744 7.4598726e-39
0.30217087 1.8433744 0.82783097 2.0263496e-38
0.32661724 1.8047181 0.8320238 1.3171303e-38
0.33660904 1.7933173 0.83325261 1.0683109e-38
0.34401402 1.7805932 0.83463454 9.3934571e-39
0.30111724 1.8244734 0.82991773 1.3539007e-38
0.31593227 1.7990254 0.8326816 1.455352e-38
0.32329717 1.7856967 0.83413023 1.1512145e-38
0.3304486 1.7737523 0.83542699 1.1235559e-38
0.33677268 1.7605575 0.83686388 9.5774812e-39
0.29872739 1.8075777 0.83178729 1.2803245e-38
0.29931316 1.7923954 0.8334595 1.1144801e-38
0.29191816 1.770051 0.83594376 1.1420312e-38
0.29394454 1.7718401 0.83574075 8.8402777e-39
0.28590462 1.7507504 0.83808857 8.656248e-39
0.28823113 1.7520822 0.83793521 7.0885706e-39
0.27517733 1.7308145 0.84031677 7.3662393e-39
0.27658337 1.7360599 0.83973449 6.9960162e-39
0.28525054 1.7338837 0.83994997 6.1655423e-39
0.26474851 1.7190504 0.84164315 4.4192301e-39
0.26994836 1.7241057 0.84107113 4.6950967e-39
0.25500673 1.7076454 0.84292805 1.6573465e-39
0.26137385 1.7056934 0.84312522 4.2344843e-39
0.26708451 1.6946411 0.84432763 6.3520873e-39
0.23664339 1.7030505 0.84348643 9.1835496e-41
0.24144204 1.7035103 0.84342217 2.4867415e-39
0.24729091 1.6980785 0.84400457 4.6032599e-39
0.14857993 1.8443512 0.82815653 1.6307043e-38
0.15500504 1.8314559 0.8295601 1.0412711e-38
0.15700671 1.8191829 0.83090758 1.0782206e-38
0.21931204 1.699643 0.84391093 1.1960138e-39
0.23157735 1.6931967 0.84458709 4.788014e-39
0.15688425 1.7850556 0.83467042 9.8609765e-39
0.10609135 1.8883024 0.82343084 1.8065302e-38
0.13468505 1.8371507 0.82898962 1.7421754e-38
0.14062291 1.8238124 0.83044344 1.6496876e-38
0.1459125 1.8100405 0.83194685 1.4468927e-38
0.15529159 1.7984499 0.83319819 1.0138634e-38
0.20172355 1.7065489 0.84319919 2.5789413e-39
0.21103252 1.6963673 0.8442955 4.6043543e-39
0.075913131 1.9057719 0.82158995 1.6034104e-38
0.083004393 1.8931102 0.82296592 1.5942641e-38
0.092027679 1.8811479 0.82425928 1.6496177e-38
0.15709214 1.7684778 0.83649755 1.2441335e-38
0.15584816 1.7527806 0.83823168 9.9557001e-39
0.16273735 1.738775 0.83975625 5.0714813e-39
0.17205521 1.7281866 0.84089738 1.7520729e-39
0.18392886 1.7170296 0.842094 2.7622956e-40
0.10726953 1.8557745 0.82701367 1.7697623e-38
0.13442151 1.8044467 0.83259588 1.5298705e-38
0.14300279 1.7909704 0.83405745 1.3457686e-38
0.14913626 1.7789813 0.83536196 1.1613758e-38
0.15504479 1.765996 0.83677691 1.253642e-38
0.18324298 1.7147524 0.84234691 3.7782019e-39
0.19141378 1.7022598 0.84370112 6.8181214e-39
0.19707465 1.689231 0.84512162 7.4627705e-39
0.20646158 1.6768526 0.84645987 9.305953e-39
0.064254791 1.8996342 0.82229948 1.6127019e-38
0.070834361 1.8867656 0.82369977 1.5758249e-38
0.080205075 1.8750973 0.8249597 1.5666424e-38
0.087408796 1.8625214 0.82632583 1.6406166e-38
0.093437351 1.849429 0.82775229 1.5208336e-38
0.09948612 1.8359861 0.82921731 1.5671494e-38
0.1051853 1.8226775 0.83066845 1.5210869e-38
0.11132861 1.8097332 0.83207828 1.484427e-38
0.11874107 1.7970434 0.83345634 1.5211238e-38
0.1279068 1.7845929 0.83480316 1.5856237e-38
0.13494964 1.7718054 0.83619314 1.4658056e-38
0.14231329 1.7590736 0.83757603 1.4380723e-38
0.14950994 1.7463132 0.83896255 1.2076558e-38
0.15754184 1.7350581 0.84018075 1.0140072e-38
0.16233 1.72396 0.84139079 9.4028528e-39
0.1723267 1.7052612 0.84342408 8.7556687e-39
0.17652513 1.6943508 0.84461516 1.0506663e-38
0.18572651 1.6825504 0.84589016 1.1061274e-38
0.19206475 1.6696398 0.8472957 1.0414461e-38
0.19925028 1.6568773 0.84868246 1.0967278e-38
0.20610414 1.6440567 0.85007656 1.0414466e-38
0.050677262 1.8925644 0.82311726 1.4840617e-38
0.057407882 1.8797225 0.82451409 1.5576024e-38
0.0704742 1.8539695 0.82731646 1.4933556e-38
0.077715948 1.8412167 0.82870209 1.4934644e-38
0.083940111 1.8282864 0.83011001 1.4656614e-38
0.090120979 1.8153485 0.83151895 1.4380024e-38
0.064239815 1.8668982 0.82590872 1.5394893e-38
0.098078087 1.8027204 0.83288878 1.4933918e-38
0.10606017 1.7900969 0.83425796 1.4932482e-38
0.11476422 1.7760231 0.83578509 1.5118318e-38
0.12021805 1.7643763 0.83705372 1.4751336e-38
0.1284986 1.7519625 0.83839899 1.521339e-38
0.13588779 1.7392355 0.83978122 1.4384725e-38
0.14210655 1.7263042 0.84118938 1.3733924e-38
0.15649913 1.7007827 0.84396255 1.0414474e-38
0.15015849 1.7136929 0.84255701 1.1523001e-38
0.16422525 1.6881144 0.84533739 1.0691058e-38
0.17494777 1.6771139 0.84651995 1.0967279e-38
0.18643408 1.6501559 0.84945965 1.0876165e-38
0.19395715 1.6363946 0.85095561 1.124423e-38
0.042599544 1.8722265 0.82538229 1.5303405e-38
0.048989076 1.8591915 0.8268013 1.5302339e-38
0.057587694 1.8470205 0.82811898 1.4567309e-38
0.064974189 1.8342929 0.82950127 1.4475112e-38
0.071129203 1.8213503 0.83091086 1.4105241e-38
0.075163774 1.8072859 0.83245009 1.4104522e-38
0.084957458 1.7957305 0.83369642 1.4012683e-38
0.092967175 1.7831116 0.83506507 1.4198524e-38
0.10031368 1.7703769 0.83644831 1.3831194e-38
0.10682646 1.757497 0.83784992 1.4291084e-38
0.11721583 1.7439849 0.83931029 1.4752063e-38
0.12106699 1.7315234 0.84067339 1.4843545e-38
0.12861753 1.7211595 0.84179467 1.4200707e-38
0.13730146 1.7077788 0.84324533 1.5029014e-38
0.14301623 1.6941079 0.84473646 1.5579646e-38
0.1486223 1.6811401 0.84615028 1.1060209e-38
0.15775603 1.6682687 0.84754366 1.0320834e-38
0.16454633 1.6554371 0.84893912 1.0783254e-38
0.029665438 1.8654805 0.82616252 1.6134249e-38
0.038737666 1.8499517 0.82784897 1.5026109e-38
0.044973105 1.8401188 0.82891542 1.4659137e-38
0.052107096 1.827347 0.83030337 1.410561e-38
0.057888582 1.8142234 0.83173394 1.4104886e-38
0.063603193 1.8013202 0.83314037 1.4012689e-38
0.071455725 1.7886249 0.83451796 1.3921211e-38
0.0792071 1.7760099 0.83588684 1.4013767e-38
0.082424149 1.7614254 0.83748573 1.3922295e-38
0.093538441 1.7504778 0.83866131 1.401522e-38
0.099985026 1.7375863 0.84006435 1.4384724e-38
0.10684249 1.7247664 0.84145838 1.4660243e-38
0.11239308 1.7117184 0.84288126 1.5026481e-38
0.11741216 1.6978127 0.84440029 1.4659493e-38
0.1268013 1.6861997 0.84565407 1.3459482e-38
0.13220051 1.6731255 0.84708029 1.2536798e-38
0.14472377 1.6600869 0.84848243 1.0137168e-38
0.15093561 1.6483614 0.84975761 1.0598507e-38
0.016265854 1.8584418 0.8269763 1.4658416e-38
0.049655546 1.7941859 0.83396631 1.3829385e-38
0.023633849 1.845711 0.82835907 1.4473673e-38
0.033775691 1.8342903 0.82958961 1.4383278e-38
0.04125274 1.8218822 0.83093643 1.4844982e-38
0.043636803 1.8071522 0.83255374 1.4105609e-38
0.057031635 1.7814566 0.8353489 1.3829378e-38
0.067385741 1.7700791 0.83657402 1.346168e-38
0.071803682 1.7560012 0.83811361 1.3829735e-38
0.080699079 1.7428436 0.83953917 1.3738267e-38
0.087175772 1.7306505 0.84086514 1.4292888e-38
0.093638286 1.7177618 0.84226787 1.4200328e-38
0.099262096 1.7043452 0.84373116 1.4383994e-38
0.10473207 1.6916647 0.84511381 1.4475834e-38
0.11535188 1.6805382 0.84631056 1.4198508e-38
0.11911149 1.6665448 0.84784269 1.2443881e-38
0.13032901 1.6540818 0.84918511 1.096693e-38
0.0088032391 1.8384227 0.82920444 1.4015216e-38
0.016141621 1.8256868 0.83058792 1.4107777e-38
0.023068532 1.812879 0.83198041 1.4199242e-38
0.026789516 1.7984805 0.83355731 1.4199247e-38
0.035860073 1.7892323 0.83455133 1.4199604e-38
0.044156667 1.7753015 0.8360638 1.4014132e-38
0.0489286 1.7614154 0.83758122 1.4013769e-38
0.058023449 1.7488961 0.83893579 1.3921932e-38
0.091718748 1.6846935 0.84591907 1.4014104e-38
0.096975341 1.6715943 0.84734845 1.2169466e-38
0.065585226 1.7361991 0.84031439 1.3830457e-38
0.076240681 1.7250584 0.84151256 1.3739353e-38
0.082939424 1.7122016 0.84291106 1.4015943e-38
0.087055318 1.697896 0.84447664 1.4477275e-38
0.1081695 1.6565089 0.84898001 1.2535352e-38
0.11628006 1.6469299 0.8500132 1.2072555e-38
0.12360144 1.6341908 0.85139698 1.2348423e-38
0.15128045 1.5829549 0.85696757 1.2258026e-38
-0.0099223526 1.8445982 0.82857645 1.3372031e-38
-0.0069007473 1.8296521 0.83021575 1.4567659e-38
0.0016585368 1.8176339 0.83151656 1.4659133e-38
0.010821287 1.8047496 0.83291119 1.4290719e-38
0.015258785 1.7927994 0.83421618 1.4107413e-38
0.022377882 1.7800251 0.83560443 1.4291081e-38
0.028786756 1.767127 0.83700836 1.4014132e-38
0.036060061 1.7543796 0.83839327 1.401413e-38
0.041705366 1.7425092 0.83968604 1.3738623e-38
0.052408561 1.7291993 0.84112322 1.4199608e-38
0.059222315 1.7163718 0.84251821 1.3923021e-38
0.079544917 1.6778686 0.84670585 1.2537521e-38
0.085757971 1.6649363 0.84811413 1.2537517e-38
0.093012035 1.6521857 0.84949934 1.1890336e-38
0.067068659 1.7037245 0.84389043 1.4107408e-38
0.07326442 1.6907892 0.84529907 1.4199961e-38
0.10206619 1.6399885 0.85081863 1.1981082e-38
0.10737078 1.6258498 0.85236239 1.2258028e-38
0.11678208 1.6142839 0.85361093 1.2443142e-38
0.12371532 1.6014771 0.85500336 1.2443495e-38
-0.032183021 1.8499027 0.82805443 1.3742257e-38
-0.018809823 1.8242035 0.83085006 1.4567659e-38
-0.0062861671 1.7984686 0.83365196 1.4381829e-38
-0.010331218 1.8116664 0.83220828 1.4290712e-38
0.0036234362 1.8023034 0.83320117 1.4843533e-38
0.0043536723 1.7861959 0.834975 1.3465307e-38
0.010366828 1.7732285 0.83638769 1.4198885e-38
0.01613215 1.7602183 0.83780575 1.4474752e-38
0.023785541 1.7475371 0.83918226 1.4106328e-38
0.030724777 1.7347316 0.8405745 1.3738622e-38
0.040412955 1.7233882 0.84179777 1.4199966e-38
0.04561685 1.7095271 0.84331125 1.3740798e-38
0.050853983 1.6980622 0.8445605 1.3922654e-38
0.057908077 1.6829476 0.8462069 1.3921195e-38
0.062950909 1.6691625 0.84771258 1.2721558e-38
