# .PCD v0.7 - Point Cloud Data file format
VERSION 0.7
FIELDS x y z rgb
SIZE 4 4 4 4
TYPE F F F F
COUNT 1 1 1 1
WIDTH 1052
HEIGHT 1
VIEWPOINT 0 0 0 1 0 0 0
POINTS 1052
DATA ascii
2.232029 2.410295 0.64457798 8.7574974e-39
2.2347975 2.4108751 0.65740234 9.0340815e-39
2.2402215 2.4114926 0.66834718 8.2965179e-39
2.2473233 2.4124026 0.68545437 8.5734635e-39
2.2491844 2.4129672 0.69885188 7.8355369e-39
2.2549818 2.4136872 0.71219075 7.3741972e-39
2.2592502 2.4142525 0.72297287 6.5451554e-39
2.2629166 2.4149418 0.73780435 6.6362693e-39
2.2674992 2.4157188 0.75403404 5.7135885e-39
2.2806671 2.4166737 0.76572198 4.0529798e-39
2.2827213 2.4172859 0.78021806 4.5125146e-39
2.2875719 2.4179828 0.79395854 4.1430132e-39
2.295891 2.4187739 0.80647737 3.957187e-39
2.2994568 2.419471 0.82163733 3.3121847e-39
2.3053772 2.4201925 0.83488262 2.0228934e-39
2.3122232 2.4209626 0.84844053 2.1158149e-39
2.3145733 2.4215677 0.86241001 5.712155e-39
2.3269083 2.4221761 0.86554259 1.4736853e-39
2.3210468 2.4223239 0.87600201 7.361203e-40
2.3257809 2.4230165 0.88975328 2.580749e-39
2.333951 2.4237459 0.900747 2.7550649e-40
2.3410048 2.4241276 0.90346175 6.4525843e-39
2.3392463 2.4245205 0.91612959 7.0053867e-39
2.205435 2.4088421 0.63397014 9.4035927e-39
2.2117457 2.4091947 0.63669914 9.2192001e-39
2.2048769 2.4093237 0.64774829 9.4957869e-39
2.2111826 2.4096437 0.64959145 8.9418915e-39
2.2219415 2.4105272 0.66197044 8.6649403e-39
2.2208068 2.4110317 0.67700541 8.2965193e-39
2.2254019 2.4117148 0.69064909 8.2972381e-39
2.23036 2.4124165 0.7044124 8.1124868e-39
2.2345564 2.4130895 0.71821541 7.8358971e-39
2.2392764 2.4137857 0.73207945 7.5593102e-39
2.2465956 2.4145448 0.74482131 6.4522409e-39
2.253731 2.4153254 0.75835282 6.1752925e-39
2.2616367 2.4161475 0.77217376 5.8061457e-39
2.2652929 2.4168005 0.78603005 5.0682177e-39
2.2731099 2.4175928 0.79913265 2.8537247e-39
2.2789919 2.4183276 0.81277895 2.4845863e-39
2.2835143 2.4190123 0.82654959 2.8530086e-39
2.2915254 2.4198203 0.83986825 2.0250528e-39
2.2969599 2.4205883 0.85491699 4.1455467e-39
2.3068137 2.4214237 0.8669706 8.2652087e-40
2.3111756 2.4221025 0.88075596 1.5651579e-39
2.3105507 2.4225984 0.89499778 8.7560359e-39
2.3197303 2.4233084 0.90436196 3.6867238e-39
2.2030938 2.4099278 0.66621804 8.850056e-39
2.2070458 2.4100986 0.66656083 8.9418901e-39
2.2066646 2.4107256 0.68412471 8.3894352e-39
2.2067583 2.411166 0.69605976 8.4816322e-39
2.2126579 2.4118974 0.70959967 8.1132084e-39
2.2177093 2.4125962 0.72317594 7.7433455e-39
2.2256858 2.4133992 0.73640108 8.2050397e-39
2.2216165 2.4138317 0.75267929 7.6522303e-39
2.2346597 2.4142771 0.75057417 6.6373539e-39
2.2371194 2.4148707 0.76411247 6.3604083e-39
2.2379901 2.415462 0.77932763 6.0841815e-39
2.2463171 2.4157128 0.77706629 5.8072275e-39
2.2498124 2.4163599 0.79093105 6.359681e-39
2.2594934 2.4172862 0.8056581 4.2391843e-39
2.2623088 2.4178734 0.81862903 3.7778474e-39
2.2663305 2.4185493 0.83270586 3.1324794e-39
2.2717545 2.4192564 0.84610146 2.9484455e-39
2.2833228 2.4202795 0.86140764 2.3952815e-39
2.296432 2.4217024 0.88595581 3.2257526e-39
2.2973948 2.4223239 0.90190589 3.0427795e-39
2.3029737 2.4229689 0.91343105 5.6246145e-39
2.3092003 2.4231923 0.91271651 1.0140754e-38
2.2139995 2.4130661 0.74009258 8.3897939e-39
2.23576 2.4159675 0.79558909 6.0838214e-39
2.2396314 2.4166257 0.80935127 5.6232005e-39
2.2441611 2.4173422 0.82397693 5.1622224e-39
2.2496834 2.4180789 0.83807999 5.1629413e-39
2.2538242 2.4187288 0.85131145 4.7012442e-39
2.2620909 2.4192283 0.8559196 2.4885491e-39
2.2713051 2.4198802 0.86364979 1.381131e-39
2.273685 2.4205222 0.87860233 2.8569715e-39
2.2792673 2.4212425 0.89218134 1.7517002e-39
2.2836089 2.4218702 0.90459108 5.9926809e-39
2.2297857 2.4174125 0.84164441 5.7154018e-39
2.2426217 2.4188824 0.86778122 3.2264729e-39
2.2504661 2.4190257 0.8631053 2.7654976e-39
2.2588425 2.4196029 0.86971176 2.3959962e-39
2.2466507 2.4196887 0.88541132 2.8580617e-39
2.2523544 2.419904 0.88504893 8.388359e-39
2.2607858 2.4201567 0.88273484 2.8573302e-39
2.2620218 2.4207292 0.89702481 2.0282997e-39
2.2701788 2.4212322 0.90184796 8.0181093e-39
2.2274742 2.4185421 0.87506008 4.3331918e-39
2.2429855 2.4190941 0.87316734 2.6736565e-39
2.2325006 2.4192729 0.8895331 3.5959911e-39
2.2457917 2.4202394 0.90140998 3.7796593e-39
2.251591 2.4206917 0.90743113 8.5716614e-39
2.2531679 2.4209986 0.91409367 6.912866e-39
2.2528994 2.4210458 0.91567624 8.5716614e-39
2.8276772 2.3849301 -0.7012434 1.2719753e-38
2.8355815 2.3852534 -0.70105588 1.1615212e-38
2.8444471 2.3860693 -0.68846083 9.3117558e-39
2.8160579 2.384522 -0.69968176 1.1891434e-38
2.7985752 2.3836637 -0.70399898 1.1708128e-38
2.805491 2.3844025 -0.69137877 1.189252e-38
2.7632861 2.3820231 -0.71021795 1.0598896e-38
2.7821071 2.3831661 -0.6995725 1.1708485e-38
2.7508147 2.3815517 -0.7094487 1.0045362e-38
2.7584186 2.3821027 -0.70271194 1.0047522e-38
2.765229 2.3824179 -0.70155394 9.8638492e-39
2.7698545 2.3828573 -0.6946007 1.1152787e-38
2.7387247 2.3813295 -0.70228606 9.4911108e-39
2.7544003 2.3823705 -0.69098842 1.087548e-38
2.7155924 2.38011 -0.71030217 9.76626e-39
2.7227187 2.3808901 -0.69676989 9.5836652e-39
2.7021742 2.3796558 -0.70802838 9.0265285e-39
2.6798689 2.3785617 -0.71351612 7.4556029e-39
2.6917145 2.3794868 -0.7011987 8.0120165e-39
2.6683125 2.3782921 -0.70823181 7.5503068e-39
2.6409576 2.3769288 -0.71555787 7.9172663e-39
2.6507838 2.3777759 -0.70315301 7.918718e-39
2.630321 2.376647 -0.71161419 6.9034787e-39
2.6362724 2.3773885 -0.69785631 8.1056204e-39
2.6116302 2.3755832 -0.72023767 8.3800058e-39
2.6158283 2.376256 -0.70643729 8.6566222e-39
2.5938714 2.3750944 -0.71415436 8.1041406e-39
2.6015842 2.375874 -0.7012831 8.2888948e-39
2.5805373 2.3742912 -0.7215153 7.7339288e-39
2.5776391 2.3746173 -0.70942551 7.7353651e-39
2.5585694 2.3735676 -0.7172392 7.5502592e-39
2.5699315 2.37391 -0.72031981 6.9970938e-39
2.5705183 2.3744707 -0.70563346 6.9970952e-39
2.5412362 2.3725252 -0.72676194 8.1027099e-39
2.546607 2.3732412 -0.71306896 8.103426e-39
2.5238786 2.3719199 -0.7243067 7.5506179e-39
2.530956 2.3728077 -0.70778596 8.6562396e-39
2.5113568 2.3717086 -0.71636945 8.1037805e-39
2.3281035 2.3640723 -0.7244966 1.0414851e-38
2.2310774 2.3595321 -0.74239296 1.2813397e-38
2.234817 2.3599541 -0.73495197 1.2444614e-38
2.1889725 2.3577714 -0.74443126 1.4013748e-38
2.5350273 2.3633835 -0.96992636 5.6127721e-39
2.538413 2.3639886 -0.95708311 4.9659635e-39
2.4988165 2.3594439 -1.0379901 5.2414406e-39
2.4772217 2.3588593 -1.0303301 5.7942528e-39
2.5138073 2.3638537 -0.93383437 5.3297042e-39
2.4612141 2.3584118 -1.0250351 5.5176674e-39
2.7543507 2.3966157 -0.30142474 1.0787249e-38
2.8070776 2.4032698 -0.17722791 1.0507418e-38
2.4367831 2.3571379 -1.0331124 5.1499652e-39
2.5153756 2.3672853 -0.84172183 5.4182985e-39
2.7964187 2.403594 -0.15668431 7.8279881e-39
2.4219074 2.3567331 -1.0279003 5.1499652e-39
2.4274256 2.3574541 -1.014221 5.0584913e-39
2.4700751 2.3627436 -0.91629952 5.0509551e-39
2.4753735 2.3634291 -0.90335876 5.4182971e-39
2.5076585 2.3676615 -0.82298064 5.4183013e-39
2.5119333 2.3683372 -0.80918729 5.6037659e-39
2.5235322 2.369787 -0.78224993 5.9779224e-39
2.5281644 2.3705108 -0.76752692 6.3481399e-39
2.5697274 2.375875 -0.66637355 8.0134065e-39
2.5743916 2.3764572 -0.655554 8.7513345e-39
2.5932469 2.3786392 -0.61654258 9.1241065e-39
2.5964794 2.3792419 -0.60360074 9.4928947e-39
2.7870846 2.4038551 -0.13932799 8.1935351e-39
2.796653 2.4051199 -0.11522742 7.9248655e-39
2.8061585 2.4066608 -0.083496779 8.7571401e-39
2.4039066 2.3556886 -1.036741 5.3343565e-39
2.4109943 2.3564732 -1.023051 5.7949675e-39
2.4184537 2.3573258 -1.0079039 5.7953304e-39
2.4482 2.3614502 -0.92770791 4.4999435e-39
2.4512477 2.3620732 -0.91401291 5.0509565e-39
2.4775057 2.3651404 -0.85889232 5.4182985e-39
2.4790583 2.3657153 -0.84488153 5.5104927e-39
2.484952 2.3664503 -0.83123642 5.5104969e-39
2.4895029 2.3670847 -0.81886899 5.695607e-39
2.4977305 2.3679569 -0.80403692 5.7874355e-39
2.5029397 2.3686666 -0.7903291 6.6196961e-39
2.5636461 2.3760409 -0.65517843 7.8297341e-39
2.569391 2.3773277 -0.626275 8.9371677e-39
2.5772662 2.3781106 -0.61349523 9.2144861e-39
2.7616172 2.4020088 -0.16192022 5.7017293e-39
2.7689068 2.4032755 -0.13526788 6.5336522e-39
2.7793643 2.4047728 -0.10578298 8.1985727e-39
2.386471 2.355166 -1.0319408 5.7031376e-39
2.3947093 2.3560038 -1.0180498 5.7027747e-39
2.4087238 2.3581398 -0.9749943 6.9953268e-39
2.4583094 2.3646541 -0.85117328 5.234989e-39
2.4675097 2.365432 -0.83997405 5.41866e-39
2.4716022 2.366101 -0.82616401 5.2360722e-39
2.4757462 2.3667719 -0.81235874 6.1580271e-39
2.4820516 2.3675396 -0.79826999 5.8846688e-39
2.4847577 2.3681402 -0.78481436 5.2403658e-39
2.4927049 2.3683779 -0.78701824 5.2403658e-39
2.4901388 2.3688564 -0.7711224 6.2570233e-39
2.525938 2.3732831 -0.68929166 7.4587824e-39
2.5334742 2.3746276 -0.66078246 7.7368028e-39
2.5582628 2.3775818 -0.60714293 8.8457078e-39
2.5628805 2.3777387 -0.60791183 8.384724e-39
2.5684419 2.3784721 -0.59394944 9.3988857e-39
2.570673 2.379081 -0.57974285 9.4910898e-39
2.5756967 2.3792591 -0.58036959 8.5694866e-39
2.5792584 2.3799088 -0.56651103 8.5702097e-39
2.5825903 2.3806472 -0.54997331 9.2137826e-39
2.6084728 2.3840935 -0.48407745 8.2867704e-39
2.7731504 2.4051692 -0.088137172 7.001826e-39
2.370985 2.3547678 -1.0258726 5.9797231e-39
2.3749893 2.3554335 -1.0120546 7.0853476e-39
2.4418969 2.364114 -0.84796369 4.7754486e-39
2.4520802 2.3650491 -0.83355337 5.5133752e-39
2.4578748 2.3657382 -0.82105708 7.0792646e-39
2.4646933 2.3665073 -0.80749667 5.8839612e-39
2.4657874 2.3670659 -0.79341221 6.9949807e-39
2.4717877 2.367805 -0.77977681 7.5484978e-39
2.480283 2.3691545 -0.75218517 7.1796956e-39
2.5070155 2.3722105 -0.6978938 7.6431793e-39
2.5107255 2.3728654 -0.68404877 7.919755e-39
2.5198388 2.3738222 -0.6678682 7.7364441e-39
2.528168 2.3745432 -0.65727627 7.4605831e-39
2.5287602 2.3750663 -0.64362675 8.565123e-39
2.5309384 2.3756824 -0.62916064 9.1190058e-39
2.5371423 2.3764288 -0.61554384 7.7378959e-39
2.5439665 2.3766561 -0.6168043 8.6598578e-39
2.542315 2.3770437 -0.60439819 8.3829135e-39
2.5426104 2.377727 -0.58603328 9.4860101e-39
2.551919 2.3778961 -0.59160781 8.8449875e-39
2.5564034 2.3786922 -0.57475317 9.491094e-39
2.5513515 2.3790934 -0.55824608 9.1176059e-39
2.5646327 2.3795793 -0.55949873 9.4903681e-39
2.5687158 2.3802502 -0.54562658 9.3960103e-39
2.5741348 2.3810246 -0.53038937 8.194579e-39
2.5787504 2.3815806 -0.520244 8.3789675e-39
2.5802412 2.3820693 -0.50851011 8.9310581e-39
2.602576 2.3845198 -0.46596673 8.5597476e-39
2.6096807 2.3858352 -0.4377839 8.2856985e-39
2.7333114 2.4017854 -0.13703915 5.1463919e-39
2.7575276 2.4047489 -0.082517497 8.5705936e-39
2.7624085 2.405447 -0.06877958 7.3738497e-39
2.7693181 2.406204 -0.05564728 8.4805518e-39
2.7706492 2.4068255 -0.040110078 9.4950639e-39
2.7781565 2.4077108 -0.024122857 1.0878357e-38
2.3524857 2.3537109 -1.0345136 6.0715558e-39
2.360415 2.3546369 -1.0178726 6.3481385e-39
2.3983402 2.3601093 -0.90977174 5.4251368e-39
2.4003041 2.3606694 -0.89660645 6.8105922e-39
2.4191222 2.3629005 -0.85621339 5.0534802e-39
2.4277353 2.3637156 -0.843355 7.4523659e-39
2.4324758 2.3644834 -0.82754862 8.3757599e-39
2.4360454 2.3650939 -0.81476313 6.9009872e-39
2.4458644 2.3654034 -0.81705594 6.3456554e-39
2.447567 2.3660247 -0.80193055 6.717312e-39
2.4518158 2.3667076 -0.78791511 6.440002e-39
2.4556506 2.3673792 -0.77374804 8.5633517e-39
2.4637041 2.3681679 -0.761002 7.7346715e-39
2.4681721 2.3688469 -0.7473312 6.9960218e-39
2.4726477 2.3695335 -0.73345155 7.6413856e-39
2.487447 2.3710756 -0.70749968 7.2751128e-39
2.4914627 2.3717449 -0.69359559 8.3807303e-39
2.4986215 2.3725619 -0.67909062 7.5516983e-39
2.5070837 2.3734996 -0.66271877 7.6446086e-39
2.5170734 2.3748534 -0.63664299 8.0137499e-39
2.5224779 2.3755777 -0.62275827 8.0137569e-39
2.5254402 2.3761401 -0.61062241 8.0148415e-39
2.5303364 2.3767743 -0.59864438 8.8428113e-39
2.5321944 2.3774257 -0.5828715 9.4860101e-39
2.5402498 2.3782406 -0.56940979 9.211605e-39
2.5433002 2.3788707 -0.55551893 9.1176059e-39
2.5699358 2.3820338 -0.49819162 8.192414e-39
2.5726371 2.3825603 -0.48676094 8.4690009e-39
2.5786216 2.3832936 -0.47325832 8.5579427e-39
2.5881379 2.3841476 -0.46033093 8.0994939e-39
2.5893369 2.3846858 -0.44692943 8.0040487e-39
2.5939796 2.3853626 -0.43350738 8.5568637e-39
2.6009314 2.3861735 -0.41894811 8.0083857e-39
2.6106589 2.387568 -0.39146936 1.0591681e-38
2.639111 2.391206 -0.32315066 1.0229398e-38
2.6451433 2.3919461 -0.30951828 6.9985848e-39
2.6504829 2.3926611 -0.29582244 7.642878e-39
2.6556435 2.3933692 -0.28211021 6.9924667e-39
2.7410357 2.4042952 -0.076862842 7.7379533e-39
2.3380086 2.3533204 -1.0293381 6.16375e-39
2.3477926 2.3541899 -1.0162779 6.3488601e-39
2.3616066 2.3562081 -0.97621715 7.1822376e-39
2.3608665 2.3567531 -0.96050739 6.8156187e-39
2.3645563 2.3573966 -0.94695324 7.8294133e-39
2.3719246 2.3581965 -0.93315035 7.0904189e-39
2.377049 2.3589032 -0.91943485 9.8580828e-39
2.3855743 2.3596516 -0.90830982 7.9183789e-39
2.4027135 2.3624613 -0.85025305 7.9194593e-39
2.4117389 2.3632889 -0.8375026 8.190291e-39
2.4155555 2.3639479 -0.82366735 7.3626884e-39
2.4217701 2.3646948 -0.81005156 7.4563203e-39
2.4302826 2.3655055 -0.79720318 6.3488924e-39
2.4330969 2.3661129 -0.78367072 7.6417808e-39
2.441813 2.3669865 -0.76933241 9.1172416e-39
2.4461298 2.3676639 -0.75554299 8.8417211e-39
2.4544594 2.3679109 -0.75790423 8.8417211e-39
2.4504812 2.3683422 -0.74175662 7.1814851e-39
2.4738166 2.370739 -0.70177436 7.8282796e-39
2.478714 2.3714204 -0.68850541 8.011952e-39
2.485837 2.3722336 -0.67407 7.4595013e-39
2.5033445 2.3744326 -0.63311881 7.6446142e-39
2.5100994 2.3757181 -0.60536784 8.8431518e-39
2.5220728 2.3771951 -0.57809466 8.658776e-39
2.5275619 2.3778989 -0.56485856 8.3829177e-39
2.5362735 2.3787944 -0.5499084 8.7502695e-39
2.5359721 2.3787425 -0.55099779 8.4758462e-39
2.5335398 2.3791721 -0.5365904 8.841389e-39
2.5393469 2.3799038 -0.52293736 8.1013016e-39
2.5437992 2.3805861 -0.50916034 7.9154614e-39
2.5514257 2.3813827 -0.49573025 8.3746361e-39
2.5603383 2.3822308 -0.48230505 8.0069367e-39
2.5611115 2.3827801 -0.46812949 7.6349074e-39
2.5701602 2.3835671 -0.45652074 7.8221854e-39
2.5793045 2.3844829 -0.44148737 8.3764437e-39
2.5845842 2.3851957 -0.42778608 9.0189293e-39
2.589473 2.3858938 -0.41404894 8.5619238e-39
2.5902469 2.3864543 -0.39956987 8.0080214e-39
2.5969145 2.3872044 -0.38636085 9.4842346e-39
2.5983336 2.3877997 -0.37163776 9.3052636e-39
2.6059928 2.3885753 -0.35882258 1.0506695e-38
2.6138096 2.3893809 -0.34535354 9.3077929e-39
2.6202266 2.390135 -0.33175632 9.3038371e-39
2.6266196 2.3908668 -0.31875244 7.91766e-39
2.6286521 2.3914363 -0.30540138 7.4530805e-39
2.6327755 2.3921783 -0.28963026 7.4545225e-39
2.6411211 2.3930731 -0.27429998 6.8005127e-39
2.3165367 2.3521545 -1.037707 6.3477769e-39
2.3220689 2.3528345 -1.0251721 5.7031334e-39
2.331866 2.3537543 -1.0107409 5.8871659e-39
2.3455541 2.355813 -0.96944004 7.366989e-39
2.3481274 2.3564198 -0.95567328 8.3843891e-39
2.3558302 2.3572278 -0.94201142 7.1851298e-39
2.3601255 2.3579042 -0.92821997 6.9056661e-39
2.3681078 2.3587499 -0.91383684 7.0896958e-39
2.3706524 2.3593538 -0.90011507 7.6414305e-39
2.3808589 2.3607402 -0.87337941 8.4733561e-39
2.3861144 2.3614519 -0.85967588 9.7666131e-39
2.3904109 2.3620524 -0.84795719 9.8566479e-39
2.400806 2.3630285 -0.8326515 7.6399941e-39
2.4047625 2.3636928 -0.818829 8.5641126e-39
2.4095113 2.3643856 -0.80507904 7.4563175e-39
2.4111478 2.3649642 -0.79104424 7.9169356e-39
2.4180744 2.3657374 -0.77749366 7.826172e-39
2.4294243 2.3663659 -0.77273649 8.1978272e-39
2.4238114 2.3662264 -0.77040672 8.0116353e-39
2.4345641 2.3668873 -0.76410919 8.0130632e-39
2.4307492 2.3672202 -0.75083047 9.0257564e-39
2.4371872 2.3680315 -0.7356953 9.0243047e-39
2.4536436 2.3696365 -0.70982659 7.4587852e-39
2.4578977 2.3703115 -0.69603139 7.7364497e-39
2.465714 2.3711171 -0.68256223 7.5520585e-39
2.4722292 2.3718643 -0.66926903 7.6438939e-39
2.4760461 2.3725584 -0.65446758 8.1048679e-39
2.4858632 2.3739319 -0.62766826 8.1974209e-39
2.49266 2.3749521 -0.60721427 8.4736476e-39
2.4943724 2.3752859 -0.59996444 8.197781e-39
2.5003195 2.3760185 -0.58643824 8.1974251e-39
2.5098777 2.3768883 -0.57312799 8.1992341e-39
2.5135407 2.3775413 -0.55927867 8.5662216e-39
2.5214877 2.3783278 -0.54648167 9.1172318e-39
2.5237055 2.3789518 -0.53183985 8.9285203e-39
2.5263054 2.3795662 -0.51789325 8.6497684e-39
2.5297999 2.380213 -0.5040285 8.4657401e-39
2.5444908 2.3817647 -0.4776966 8.3717466e-39
2.5469294 2.3823981 -0.46304262 7.2675668e-39
2.5523889 2.3830714 -0.45061386 7.266848e-39
2.5534687 2.383225 -0.44759497 7.2682899e-39
2.5530839 2.3837171 -0.4337208 7.2664878e-39
2.5680261 2.3847425 -0.42204499 7.8200161e-39
2.5755913 2.3855252 -0.40892786 8.3768095e-39
2.5773039 2.3861241 -0.39442733 8.6541152e-39
2.5830395 2.386904 -0.37937877 9.3020084e-39
2.5851111 2.3874309 -0.36724544 9.1190661e-39
2.592118 2.388078 -0.35722345 9.4903765e-39
2.6004372 2.3890307 -0.34027913 9.6740545e-39
2.6064012 2.3897684 -0.32664046 8.1967693e-39
2.6107013 2.390445 -0.31284949 8.3732362e-39
2.6157672 2.3911498 -0.29912856 7.1764936e-39
2.621377 2.3918743 -0.28545743 6.8073524e-39
2.6270237 2.3925998 -0.27180144 5.8825192e-39
2.6375589 2.3940074 -0.24485357 5.6066498e-39
2.8779991 2.4251928 0.34455049 1.0691802e-38
2.3007414 2.3517199 -1.0322922 5.9797189e-39
2.3088596 2.3525321 -1.0189692 5.7949689e-39
2.3216968 2.3545594 -0.97759038 8.3807766e-39
2.3305311 2.3553543 -0.96552944 7.6453821e-39
2.3352966 2.3560939 -0.9505285 8.753536e-39
2.3418043 2.3568537 -0.93687719 8.0138143e-39
2.3479624 2.3575985 -0.92325634 8.6613389e-39
2.3515825 2.3582501 -0.90940303 7.1815327e-39
2.3674023 2.3603871 -0.86829728 7.735431e-39
2.3737011 2.3611372 -0.85468924 7.4588441e-39
2.3770051 2.3617771 -0.84080708 1.0317986e-38
2.3837662 2.3624873 -0.82879192 9.488943e-39
2.3909917 2.363328 -0.81371814 7.3652065e-39
2.3956938 2.3640194 -0.79996389 7.5485174e-39
2.4029665 2.364805 -0.78644508 8.9336056e-39
2.4021552 2.3653054 -0.77186984 8.5669811e-39
2.4093978 2.3654914 -0.77471834 8.8432036e-39
2.4225833 2.3670812 -0.74568695 9.6747384e-39
2.4400024 2.3693416 -0.70295185 8.6576773e-39
2.4442811 2.3699527 -0.69093466 7.9211955e-39
2.4423559 2.3703771 -0.67722464 8.6576773e-39
2.4501765 2.370688 -0.67728961 7.6442541e-39
2.4562731 2.3714302 -0.66366315 7.6438939e-39
2.4820073 2.374985 -0.59464461 8.3818149e-39
2.4867165 2.3756626 -0.58127576 7.7371686e-39
2.4899936 2.3763337 -0.5665102 8.8413511e-39
2.4947162 2.3770204 -0.55291265 8.4725798e-39
2.4997768 2.3777246 -0.53919798 8.6555319e-39
2.509299 2.3785641 -0.52667081 9.0192642e-39
2.5139074 2.379252 -0.51290804 9.0189027e-39
2.5185285 2.3799405 -0.49914643 8.1920469e-39
2.5327156 2.3815043 -0.47191513 7.5437922e-39
2.5324156 2.3820062 -0.45786372 7.7263786e-39
2.5384042 2.3827448 -0.44422734 7.3576031e-39
2.5429258 2.3834295 -0.43045661 7.2664878e-39
2.54913 2.3841457 -0.41766316 7.0824567e-39
2.5621059 2.3851569 -0.40423426 7.9125677e-39
2.5641067 2.3857632 -0.38984168 8.1902392e-39
2.5664544 2.386368 -0.37587193 9.3927607e-39
2.5754344 2.3872681 -0.36109874 9.3949411e-39
2.5820193 2.3879769 -0.34892747 1.0411611e-38
2.5872173 2.3886864 -0.33521864 9.1212395e-39
2.5904164 2.3893225 -0.32132688 8.0116619e-39
2.5989168 2.3901532 -0.3079204 6.9928255e-39
2.6030552 2.3908241 -0.29411462 6.3460155e-39
2.607281 2.3914979 -0.2803168 6.7140792e-39
2.6102982 2.3921275 -0.26640835 5.6073715e-39
2.6237214 2.3936574 -0.23926787 5.8782004e-39
2.6286988 2.3942776 -0.22776401 5.4201005e-39
2.6329341 2.3950512 -0.21124984 4.9598413e-39
2.6358171 2.3956578 -0.19782121 5.419739e-39
2.6475329 2.3971252 -0.17052442 4.6882892e-39
2.6505699 2.3977752 -0.15607709 4.8737567e-39
2.2823682 2.3511758 -1.0270444 7.551739e-39
2.2871621 2.351248 -1.0303204 6.8109215e-39
2.2879295 2.3518758 -1.0139941 7.4584615e-39
2.2966943 2.3521831 -1.0151906 8.0116353e-39
2.2985308 2.3538764 -0.97090483 7.7383022e-39
2.3099489 2.3542693 -0.97266471 8.6588124e-39
2.3196509 2.3551891 -0.95813274 8.4769477e-39
2.3214607 2.3557489 -0.94481331 7.9234124e-39
2.3292551 2.356534 -0.93187815 8.0156066e-39
2.335355 2.3572767 -0.91825187 8.1067274e-39
2.3406787 2.3579907 -0.90455455 7.366647e-39
2.35252 2.3599818 -0.86308461 8.4733533e-39
2.3576882 2.3606901 -0.8493731 6.6272827e-39
2.364727 2.3614674 -0.83583277 8.935772e-39
2.3626261 2.3619382 -0.82065654 8.2911243e-39
2.3710487 2.3621368 -0.824449 9.9499211e-39
2.374202 2.3628824 -0.80751914 1.0688565e-38
2.3793573 2.3635809 -0.79405946 9.3041916e-39
2.3850696 2.3642054 -0.7832436 9.0290424e-39
2.389255 2.3649037 -0.76872885 9.3052678e-39
2.4020636 2.3658707 -0.75631905 8.3825772e-39
2.4005497 2.3664129 -0.73982912 9.4885492e-39
2.407074 2.366653 -0.74041682 8.5666013e-39
2.4132926 2.3684621 -0.69775891 8.5654817e-39
2.4215214 2.3686187 -0.70248783 8.7498744e-39
2.425668 2.3694048 -0.68553227 8.289978e-39
2.4275618 2.3699985 -0.67136914 8.5658446e-39
2.4361157 2.3702867 -0.67285675 7.4605817e-39
2.4362106 2.3708155 -0.65849984 7.8293614e-39
2.4359398 2.3712468 -0.64641535 8.105228e-39
2.4378386 2.371999 -0.6279248 7.8286467e-39
2.4591846 2.3737607 -0.60312706 8.0133911e-39
2.4628839 2.3744264 -0.58898014 8.105228e-39
2.4686458 2.3750637 -0.57787031 7.5531332e-39
2.4734278 2.3758063 -0.56279397 8.2881759e-39
2.4806058 2.3766143 -0.54856318 8.1037945e-39
2.4820461 2.3772101 -0.53384769 7.9179669e-39
2.4872983 2.3778932 -0.52092361 8.4668163e-39
2.4947057 2.3786554 -0.50819474 8.1913168e-39
2.4975801 2.3788073 -0.50719172 7.8236161e-39
2.4972677 2.3793163 -0.4929294 7.7281821e-39
2.5011926 2.3794801 -0.49274686 8.0980478e-39
2.5213974 2.3817427 -0.45300484 7.450156e-39
2.5284781 2.3825116 -0.43973416 7.7260255e-39
2.5339329 2.3832822 -0.42464042 7.5423531e-39
2.5310442 2.3836634 -0.41104692 7.1732146e-39
2.5436161 2.3846111 -0.39890572 7.1746551e-39
2.5388489 2.3850031 -0.3829658 8.5564966e-39
2.5471642 2.3852749 -0.38463834 7.1757341e-39
2.5529749 2.3860295 -0.37037212 9.11402e-39
2.5594671 2.3867714 -0.35719737 8.8403184e-39
2.5686579 2.3876116 -0.34428528 8.7488598e-39
2.5726802 2.3883016 -0.32982269 7.4559588e-39
2.5910838 2.3910692 -0.2742995 5.7906837e-39
2.5980034 2.3917878 -0.26223058 5.7899621e-39
2.6010137 2.3925042 -0.24594155 5.8781976e-39
2.6081643 2.3932273 -0.23399347 5.0516782e-39
2.6218765 2.395287 -0.19269475 4.5924993e-39
2.6283066 2.3960419 -0.17909874 4.4109807e-39
2.6329257 2.3967299 -0.165337 4.7812023e-39
2.6395428 2.3974841 -0.15196519 4.7804821e-39
2.8500252 2.424922 0.36777985 9.4021438e-39
2.2586024 2.3498998 -1.0359122 6.8130907e-39
2.2703509 2.3503351 -1.0368729 6.811283e-39
2.263005 2.3506267 -1.0208539 7.4602664e-39
2.2838292 2.3529356 -0.9805274 8.1070847e-39
2.2854788 2.353512 -0.96657449 7.7383022e-39
2.2972817 2.3539152 -0.96846861 9.3996284e-39
2.2915738 2.3542705 -0.95251185 8.4773092e-39
2.2989504 2.354522 -0.95370591 9.0308445e-39
2.2993004 2.3550932 -0.93847281 9.2163162e-39
2.3066494 2.3553264 -0.94014323 7.8312181e-39
2.3164186 2.3562412 -0.92583185 9.12268e-39
2.3141689 2.3566539 -0.91208124 9.0312061e-39
2.3147168 2.3567176 -0.91094184 9.1230415e-39
2.3363848 2.3590117 -0.87194204 8.6588278e-39
2.332422 2.359374 -0.85769582 9.4907465e-39
2.3368421 2.3595743 -0.85705805 8.7513808e-39
2.3366408 2.360002 -0.84514344 9.0297697e-39
2.3460336 2.3604033 -0.84445602 1.0226512e-38
2.3426805 2.3607893 -0.83023185 9.121608e-39
2.3523901 2.3611553 -0.83085328 8.8428575e-39
2.3469677 2.3614922 -0.81570524 9.7673362e-39
2.3533773 2.3617721 -0.81507093 8.2918445e-39
2.3582654 2.3618939 -0.81708908 9.2119988e-39
2.3600693 2.3624747 -0.80318695 1.1427212e-38
2.3661332 2.3632162 -0.78955746 9.4893059e-39
2.37239 2.3639643 -0.77594554 8.7528157e-39
2.3763263 2.3646276 -0.76212126 9.6744119e-39
2.3838563 2.3654122 -0.74891651 9.9517078e-39
2.3997879 2.3679669 -0.6965071 8.4732847e-39
2.4080436 2.3683796 -0.69426 8.1977838e-39
2.4038916 2.3684933 -0.68660557 8.2892592e-39
2.4102774 2.3690212 -0.67916274 8.0133939e-39
2.4152658 2.3695614 -0.66986132 7.7375287e-39
2.4204519 2.3703973 -0.6526835 8.4740091e-39
2.4242611 2.3710558 -0.63884759 8.4736476e-39
2.4295783 2.3717697 -0.62514967 7.8286467e-39
2.437572 2.3725586 -0.61233222 7.920478e-39
2.4414427 2.3732696 -0.59713161 8.749873e-39
2.4480755 2.3740048 -0.58428901 7.5527773e-39
2.4567842 2.3749673 -0.56751132 7.9201165e-39
2.4684916 2.3767145 -0.53256065 7.6410199e-39
2.4755516 2.3775783 -0.51667315 7.9165278e-39
2.4831166 2.3783789 -0.50306362 8.0976792e-39
2.4875658 2.3790855 -0.48861155 7.8207378e-39
2.4941366 2.3798168 -0.47581375 8.0955198e-39
2.5001907 2.3806486 -0.45969817 7.6345459e-39
2.5071611 2.3813276 -0.44876575 7.4501546e-39
2.5102375 2.3818769 -0.43710807 8.0029697e-39
2.5187259 2.382823 -0.42054081 7.3576045e-39
2.518774 2.3833969 -0.40490675 7.2657704e-39
2.5255721 2.3840883 -0.39344436 7.265769e-39
2.5259137 2.3846431 -0.37864494 8.5564966e-39
2.5352247 2.385478 -0.36601198 7.9147467e-39
2.5408664 2.3858387 -0.36232632 8.1920805e-39
2.5391259 2.3861597 -0.35164917 7.3605164e-39
2.5459487 2.386416 -0.3521097 1.0407657e-38
2.5410564 2.3866606 -0.34006491 7.1685749e-39
2.5653543 2.3887241 -0.31025401 6.8984704e-39
2.5685363 2.3893342 -0.29705095 6.1591033e-39
2.5739028 2.3899667 -0.28562799 6.1587488e-39
2.5777788 2.3906968 -0.26991564 5.7906851e-39
2.5815561 2.3913541 -0.25607675 5.9703947e-39
2.585798 2.3920286 -0.24228045 4.868003e-39
2.5929298 2.3927712 -0.22978993 5.0516782e-39
2.6002197 2.3937223 -0.21176229 4.7761717e-39
2.6042485 2.3943226 -0.19976084 4.8694435e-39
2.6094272 2.3949709 -0.18770495 4.4095444e-39
2.6120379 2.3955555 -0.17458189 4.7815583e-39
2.6179571 2.3963945 -0.15811972 5.0595787e-39
2.6207941 2.3969593 -0.14577985 4.8741126e-39
2.6260722 2.3976879 -0.13163872 5.244686e-39
2.6443965 2.3998857 -0.091613695 5.7081879e-39
2.2428854 2.3494956 -1.0297482 7.4606251e-39
2.2428818 2.3500497 -1.0146018 7.8301307e-39
2.2612977 2.3522899 -0.97350389 8.6613403e-39
2.2713058 2.3526196 -0.97544748 8.476226e-39
2.2759657 2.3533094 -0.96169597 8.8464519e-39
2.2705586 2.3536696 -0.94592607 1.0692525e-38
2.2793474 2.3539894 -0.94680572 9.4921828e-39
2.284394 2.3541317 -0.94844025 8.3840332e-39
2.2778647 2.3544338 -0.9330368 1.0968032e-38
2.2956555 2.3550191 -0.9365083 8.8464547e-39
2.292392 2.3554382 -0.92147535 9.4925457e-39
2.2981927 2.3556559 -0.92187679 9.3996284e-39
2.2992802 2.356185 -0.90859509 9.861687e-39
2.3136761 2.3581369 -0.87098914 1.1427936e-38
2.3215783 2.3586016 -0.86693859 8.7524612e-39
2.3144205 2.3589292 -0.85014462 1.1150989e-38
2.3236454 2.3592036 -0.852741 8.7521024e-39
2.3224797 2.3597057 -0.83773589 1.1519773e-38
2.3314712 2.3600888 -0.83710748 8.9364965e-39
2.3297601 2.3604131 -0.82636249 1.0044285e-38
2.3353486 2.3606768 -0.82527941 1.0413064e-38
2.3411856 2.3613989 -0.81192219 9.6747804e-39
2.340585 2.3618872 -0.79791248 1.0597817e-38
2.3478663 2.3621676 -0.79821968 9.7669718e-39
2.3439512 2.3624413 -0.78645355 1.0782926e-38
2.3496661 2.3626637 -0.78662229 1.0966954e-38
2.3542984 2.3633389 -0.77323204 1.0690009e-38
2.3586826 2.3640893 -0.7575199 1.0230111e-38
2.3643937 2.364877 -0.74223554 1.105914e-38
2.3847458 2.3671417 -0.70259947 9.121189e-39
2.3892148 2.3677764 -0.69013852 8.7505974e-39
2.3975823 2.3686612 -0.67510903 8.1977838e-39
2.4044948 2.3694024 -0.66241616 8.7505946e-39
2.4088726 2.3700738 -0.64884645 8.8420714e-39
2.4196711 2.3709664 -0.63626474 8.2896207e-39
2.4156959 2.3714011 -0.62002856 8.2896193e-39
2.4180768 2.3714311 -0.62181282 8.0130352e-39
2.4227431 2.3722284 -0.60512549 8.1974237e-39
2.4321818 2.3730435 -0.5931685 7.8290013e-39
2.4340444 2.3736167 -0.57954234 8.1048679e-39
2.4403064 2.3743792 -0.56554288 8.5647614e-39
2.4427047 2.374975 -0.55187988 8.0115919e-39
2.4516926 2.3753691 -0.55094749 8.5633237e-39
2.4582062 2.3765945 -0.52457571 8.2853047e-39
2.4649308 2.3773582 -0.51105857 8.0090849e-39
2.4721947 2.3786712 -0.48311281 7.0831728e-39
2.478884 2.3794265 -0.46978194 8.1873553e-39
2.4833665 2.38011 -0.4560076 8.1859176e-39
2.4804568 2.3805914 -0.43965939 6.9899009e-39
2.491385 2.3809824 -0.4409306 7.0820966e-39
2.5056908 2.3829429 -0.40298763 7.266492e-39
2.5112467 2.3837268 -0.3876366 7.2668508e-39
2.5133913 2.3843246 -0.37364829 7.2675682e-39
2.5187702 2.3850405 -0.35995612 8.6508782e-39
2.5248551 2.3857825 -0.3463285 7.1736056e-39
2.5373008 2.3861794 -0.34910372 7.730022e-39
2.5304339 2.3866045 -0.32996532 7.3533291e-39
2.536597 2.3867304 -0.3332707 7.2690438e-39
2.5472038 2.388159 -0.30582041 6.8988292e-39
2.5503123 2.3893094 -0.27777085 5.9711121e-39
2.5571322 2.3895612 -0.27836004 5.9750764e-39
2.5628481 2.3902895 -0.26469857 5.6062911e-39
2.5669823 2.39096 -0.25089243 6.0625903e-39
2.5729251 2.3916969 -0.23725179 5.3275462e-39
2.5790231 2.3929622 -0.20933411 5.878199e-39
2.5929878 2.3939631 -0.19725755 5.0520369e-39
2.5947146 2.3945875 -0.18207736 5.1478283e-39
2.598521 2.3952303 -0.1686717 4.6893654e-39
2.6011479 2.3958452 -0.15472755 5.0592185e-39
2.6069446 2.3965769 -0.14107354 5.5198366e-39
2.6108975 2.3972406 -0.12725073 5.1524904e-39
2.6166217 2.3979697 -0.11359011 5.2468384e-39
2.6235237 2.398845 -0.097213149 5.7081739e-39
2.6302903 2.3995087 -0.086472072 6.9982008e-39
2.6339741 2.4001627 -0.072624646 5.8947386e-39
2.8234458 2.4247851 0.39314139 8.8468022e-39
2.8496294 2.4277916 0.44667801 8.5702167e-39
2.8629005 2.4298265 0.48778227 8.2021586e-39
2.9004567 2.4343247 0.56965905 8.6616935e-39
2.2238224 2.3483989 -1.0388587 7.1836837e-39
2.231827 2.3487458 -1.0381494 6.7208993e-39
2.2300129 2.349164 -1.0247197 6.7205378e-39
2.2426198 2.3512132 -0.98249739 1.115279e-38
2.2493455 2.3519487 -0.96975082 8.6613403e-39
2.2492454 2.3524981 -0.9546231 9.5854574e-39
2.2636478 2.352922 -0.95879716 9.2155945e-39
2.2592666 2.3533504 -0.94228977 1.0692525e-38
2.2635906 2.3540277 -0.92850089 1.2351685e-38
2.2688122 2.354738 -0.91479427 1.2259132e-38
2.2823894 2.3557391 -0.9022994 1.0322667e-38
2.2880061 2.3559613 -0.90236676 9.676937e-39
2.2885807 2.3570199 -0.87405002 1.0414862e-38
2.2971711 2.3572767 -0.87644058 1.0414862e-38
2.3003764 2.3576889 -0.86868125 1.0321949e-38
2.2998955 2.3579333 -0.8614707 1.0322308e-38
2.3047986 2.358134 -0.86135006 8.7524626e-39
2.2904642 2.358181 -0.84436864 1.0414866e-38
2.3012767 2.3585098 -0.84721917 1.0230471e-38
2.305476 2.3584361 -0.853827 1.1150989e-38
2.3072467 2.3592427 -0.83371782 1.0137919e-38
2.3169818 2.3600681 -0.82180345 1.0783287e-38
2.3151181 2.3606973 -0.80256218 1.078329e-38
2.3215795 2.3608122 -0.80649942 1.09666e-38
2.3258715 2.3615091 -0.79214263 1.0691093e-38
2.3313882 2.3616455 -0.79445606 1.0229032e-38
2.3433859 2.3631816 -0.76558995 1.0690009e-38
2.3429499 2.3639293 -0.74466783 1.0045717e-38
2.3487215 2.3639967 -0.74914062 1.0782557e-38
2.3611479 2.3659074 -0.71050626 9.5839931e-39
2.3672924 2.3666673 -0.69645989 9.9509609e-39
2.3783529 2.3675869 -0.68342662 1.0041343e-38
2.3796852 2.3681715 -0.66889906 8.9346286e-39
2.3893776 2.3690195 -0.65632302 8.2903396e-39
2.4061306 2.3716316 -0.60324913 8.1055882e-39
2.4095044 2.3724177 -0.58544856 8.1974265e-39
2.4152851 2.3725824 -0.58727145 8.1974237e-39
2.415837 2.3731031 -0.57363725 8.7491527e-39
2.4259675 2.3739817 -0.56071371 8.0123135e-39
2.4274571 2.3745673 -0.54633176 8.6551606e-39
2.4319944 2.3751476 -0.53543508 8.2860208e-39
2.4349442 2.3759329 -0.51719004 8.6522809e-39
2.4434469 2.3761916 -0.51942623 8.0090779e-39
2.4559941 2.3777516 -0.49051338 7.5441495e-39
2.4607079 2.3783815 -0.47845241 8.0051249e-39
2.4734473 2.3803213 -0.43936166 6.8980655e-39
2.4790528 2.3811784 -0.42206764 7.2661263e-39
2.4909389 2.3826036 -0.39611199 7.3583289e-39
2.4986284 2.3834047 -0.38263124 7.0828182e-39
2.4973629 2.383882 -0.36819041 7.3608471e-39
2.5042377 2.3846481 -0.35477543 9.3880817e-39
2.513819 2.3854971 -0.34205219 7.2654453e-39
2.5242283 2.3863502 -0.33012211 6.2520164e-39
2.5344505 2.3885841 -0.28023723 5.8778389e-39
2.5330033 2.3888164 -0.27230087 5.8778389e-39
2.5485153 2.3893259 -0.27535367 5.6055708e-39
2.5419629 2.3896716 -0.25872323 5.2357107e-39
2.5513191 2.3901024 -0.25719023 4.9598441e-39
2.5507016 2.3905323 -0.24476244 4.8680086e-39
2.5555029 2.3912263 -0.23104511 4.7761731e-39
2.5655057 2.3920841 -0.21853766 4.8683673e-39
2.5625613 2.392544 -0.20274316 6.338817e-39
2.5869501 2.3949463 -0.16376215 5.9775833e-39
2.5880785 2.3955064 -0.14968082 6.1623249e-39
2.5899286 2.3961012 -0.13544552 6.8084048e-39
2.5931849 2.3967628 -0.12092092 7.454842e-39
2.6051328 2.3976889 -0.10868805 7.4584433e-39
2.607167 2.3982821 -0.0946896 5.6177747e-39
2.6165004 2.3991735 -0.080540873 6.5397282e-39
2.6232395 2.3999095 -0.067791641 5.5259518e-39
2.6249843 2.40049 -0.053832132 8.4761952e-39
2.6303151 2.4012098 -0.039986629 8.4776399e-39
2.6363301 2.402046 -0.023710674 1.0507044e-38
2.8702035 2.432251 0.54607892 8.0163283e-39
2.8986351 2.4359431 0.61590236 7.2798394e-39
2.2150679 2.3482029 -1.0346352 9.12268e-39
2.2212749 2.3484139 -1.0356581 7.5521033e-39
2.2173984 2.3488419 -1.0197146 7.3673547e-39
2.2273412 2.3507631 -0.97807086 1.1524095e-38
2.234575 2.3515778 -0.9637199 9.6772929e-39
2.2393529 2.3523293 -0.94840705 9.6790936e-39
2.245909 2.3530009 -0.9372167 9.7709277e-39
2.250607 2.3536921 -0.92346209 1.1059871e-38
2.2539833 2.3543348 -0.90958655 1.2627915e-38
2.2749836 2.3566329 -0.86974669 1.0599615e-38
2.2772925 2.3572652 -0.85498178 1.1245703e-38
2.2902956 2.3577282 -0.85656136 1.0229751e-38
2.2807965 2.3579128 -0.84111792 1.0414866e-38
2.2897344 2.3587284 -0.82859981 1.1060953e-38
2.2927327 2.3594904 -0.81104988 1.1705248e-38
2.2913115 2.3599198 -0.79775119 1.3733549e-38
2.3029792 2.3603513 -0.79872918 1.1521215e-38
2.3040104 2.3608847 -0.78527659 1.0782933e-38
2.3119402 2.3611307 -0.78723025 1.0783289e-38
2.3188593 2.3619156 -0.77335042 1.0876205e-38
2.3306637 2.3622737 -0.77648538 1.0229755e-38
2.3292367 2.3628051 -0.76038659 1.0414865e-38
2.3362713 2.3635526 -0.74765438 1.0507055e-38
2.3462391 2.3654597 -0.70642084 1.0690345e-38
2.3535485 2.3663697 -0.68954241 9.121566e-39
2.3637319 2.3671818 -0.67849433 9.3977829e-39
2.3672929 2.3678312 -0.66463566 9.2112197e-39
2.3752353 2.3686748 -0.65026712 8.5672922e-39
2.3803234 2.3693469 -0.63745922 8.1059525e-39
2.3833663 2.3699152 -0.62525225 8.290341e-39
2.3881416 2.3706803 -0.60956675 8.4740119e-39
2.3929162 2.3713686 -0.59596896 8.6580417e-39
2.399519 2.3721263 -0.58247787 8.105591e-39
2.4061852 2.3728898 -0.56890345 8.749517e-39
2.4074244 2.3733835 -0.55676347 7.7357322e-39
2.4127092 2.3741498 -0.54160172 8.8391931e-39
2.4146872 2.374275 -0.54034168 7.6431765e-39
2.4173508 2.3748708 -0.52696323 8.3778591e-39
2.4231689 2.3755884 -0.51371968 8.6522809e-39
2.4278519 2.3762789 -0.49996364 7.5470236e-39
2.4327521 2.3765202 -0.49873331 7.4544706e-39
2.4358211 2.3776727 -0.47058433 8.0947996e-39
2.4565306 2.3799043 -0.4322373 7.3579632e-39
2.4599404 2.3805296 -0.41887286 7.8178595e-39
2.4712358 2.3815043 -0.40459108 6.8058726e-39
2.4769306 2.3822303 -0.39097938 7.174295e-39
2.4807463 2.382895 -0.3769865 8.0044088e-39
2.4843383 2.3835397 -0.36328813 7.3604855e-39
2.4899318 2.384253 -0.34990606 8.0962779e-39
2.5010028 2.3852956 -0.33352202 6.6200731e-39
2.5229483 2.3880694 -0.28171477 5.5115773e-39
2.5277612 2.3888664 -0.26518464 5.2349918e-39
2.5277896 2.3887658 -0.26797333 4.7761717e-39
2.5267806 2.3892477 -0.25369626 5.6026953e-39
2.5356741 2.3901057 -0.23996626 4.8680072e-39
2.5434427 2.3908966 -0.22685233 4.7761745e-39
2.5486827 2.3916194 -0.21282426 5.4193817e-39
2.5546358 2.3924513 -0.1965982 5.604489e-39
2.5748682 2.3956199 -0.13211404 6.6254512e-39
2.5813415 2.3965235 -0.11449917 7.0885804e-39
2.5902104 2.3972819 -0.10347181 8.6580585e-39
2.5954204 2.3980143 -0.089154609 6.9074289e-39
2.6010568 2.3987174 -0.076095365 6.0794675e-39
2.6075678 2.3995128 -0.061478395 6.5404499e-39
2.6128016 2.4002287 -0.047634453 6.63337e-39
2.6196671 2.4009569 -0.035245068 8.2950633e-39
2.6254783 2.4016888 -0.021592412 9.6776376e-39
2.6258571 2.4022381 -0.0069923545 9.7694731e-39
2.8570261 2.4319751 0.552966 8.0177688e-39
2.8692818 2.4334378 0.57954043 7.9244857e-39
2.2023056 2.3479099 -1.0286674 8.2918333e-39
2.220773 2.3506279 -0.97457922 9.0312047e-39
2.2227635 2.3513026 -0.95830292 1.0507059e-38
2.2247112 2.351845 -0.9456107 1.2168025e-38
2.2309847 2.3526094 -0.93157691 1.0047882e-38
2.2374656 2.3533261 -0.91907954 9.8631331e-39
2.2427821 2.354037 -0.90546387 1.0785447e-38
2.2519121 2.3554108 -0.87789738 1.0416304e-38
2.2558949 2.3561444 -0.86220139 1.041595e-38
2.2612588 2.3568177 -0.84966385 1.0599976e-38
2.2622745 2.3574002 -0.83485252 1.1797801e-38
2.272862 2.3582809 -0.82235676 1.1522292e-38
2.2775171 2.3589706 -0.80859822 1.124499e-38
2.2832713 2.3597007 -0.79494041 1.3733549e-38
2.2883861 2.3604071 -0.78122395 1.2627566e-38
2.2954464 2.3612058 -0.76711375 1.1521937e-38
2.2994442 2.3613076 -0.76870996 1.1429741e-38
2.3071108 2.3616416 -0.76797432 1.1060237e-38
2.3010576 2.3619549 -0.75278229 1.2996344e-38
2.3113976 2.3623335 -0.75374979 1.142866e-38
2.3354506 2.3657658 -0.68623996 9.7673053e-39
2.3387818 2.3656378 -0.69339192 9.7673053e-39
2.345932 2.3667109 -0.67187375 9.48998e-39
2.351088 2.3674047 -0.65854758 9.2130245e-39
2.3488905 2.367815 -0.64492923 8.8438791e-39
2.3578556 2.3681445 -0.64573693 8.6594892e-39
2.3681135 2.3695586 -0.6183067 9.6725439e-39
2.3727396 2.3702469 -0.60454553 9.672188e-39
2.3790622 2.3709977 -0.5909397 8.6587633e-39
2.3864758 2.3717692 -0.57796347 8.6576815e-39
2.3903878 2.3724432 -0.56381667 8.4725728e-39
2.3920419 2.3730483 -0.54908627 8.5644083e-39
2.399214 2.3738124 -0.53604585 8.6555235e-39
2.4021285 2.3744383 -0.52212805 8.0108758e-39
2.4100859 2.3752315 -0.50915045 8.0087178e-39
2.4141438 2.3759105 -0.49502513 9.0181852e-39
2.4182539 2.3765919 -0.48089525 8.3717396e-39
2.4252388 2.3773615 -0.46750504 8.0947996e-39
2.4339309 2.3782184 -0.45358789 8.5554162e-39
2.4388781 2.3788891 -0.44066557 8.7398074e-39
2.4431107 2.3795757 -0.42652512 8.0948052e-39
2.4715278 2.383148 -0.35997072 7.8211036e-39
2.475245 2.3838656 -0.34442094 8.0944773e-39
2.4829104 2.3845525 -0.33402985 6.7111827e-39
2.5136194 2.388365 -0.26340935 5.3275476e-39
2.5144422 2.3889356 -0.24871665 4.9602042e-39
2.5179348 2.3895824 -0.23485173 5.2357135e-39
2.5248353 2.3903453 -0.22154821 5.4193845e-39
2.5349331 2.3912437 -0.20803854 5.5112172e-39
2.5678768 2.3955655 -0.1259464 5.4287171e-39
2.5732925 2.3962829 -0.11225761 5.7982185e-39
2.5750775 2.3968692 -0.098184481 6.9988959e-39
2.5860782 2.3983088 -0.070874043 7.2776408e-39
2.5929742 2.3990803 -0.057320714 7.277645e-39
2.600776 2.3998563 -0.044649526 7.1865297e-39
2.6094429 2.4013331 -0.013757898 9.1240925e-39
2.6133602 2.4019036 -0.0024484154 9.3088411e-39
2.6219368 2.4032559 0.025135901 9.5861693e-39
2.6254075 2.4039021 0.039002758 1.0417022e-38
2.6476407 2.4066763 0.090509005 1.0046073e-38
2.6562719 2.4076288 0.10710047 1.004535e-38
2.8726673 2.4357433 0.63887084 7.2798324e-39
2.165055 2.3461902 -1.0349016 1.0602852e-38
2.1755037 2.3465273 -1.0371274 1.0325538e-38
2.1703348 2.3468776 -1.0218905 1.1064193e-38
2.180491 2.3473132 -1.0211039 9.1251967e-39
2.1893046 2.3475337 -1.0247227 9.95497e-39
2.2000048 2.3495507 -0.98128659 9.217398e-39
2.2063797 2.3503144 -0.96738881 1.0047882e-38
2.2118099 2.3509934 -0.95476407 1.0693608e-38
2.2171645 2.3517735 -0.93929726 1.0324469e-38
2.2151334 2.3521852 -0.92581981 1.060106e-38
2.2201898 2.3528876 -0.91214752 1.2535367e-38
2.2354677 2.3549745 -0.87182188 1.0877285e-38
2.2406843 2.3556845 -0.85811472 1.0969481e-38
2.247436 2.3564713 -0.8440001 1.2995624e-38
2.2500999 2.357162 -0.82802618 1.2812313e-38
2.2545896 2.3577828 -0.81597131 1.3641712e-38
2.263026 2.3585796 -0.80342144 1.3549156e-38
2.269907 2.3593509 -0.78986669 1.2720475e-38
2.2759087 2.36009 -0.77623147 1.1798167e-38
2.2800024 2.360759 -0.76242155 1.1798884e-38
2.2883825 2.3615544 -0.74985009 1.2443533e-38
2.2979083 2.3630199 -0.720209 1.0784733e-38
2.2980866 2.3635263 -0.70656145 1.1061681e-38
2.3141358 2.3640652 -0.70940018 1.1060952e-38
2.3022013 2.364203 -0.69256473 1.1153153e-38
2.3191459 2.3648603 -0.69314879 1.0691441e-38
2.3219306 2.3654191 -0.6809147 1.0781823e-38
2.3208098 2.365885 -0.66694933 1.0691794e-38
2.3299916 2.366225 -0.66770518 1.0597055e-38
2.3247435 2.3665514 -0.65303302 1.0044617e-38
2.3289742 2.3667064 -0.65342742 9.5832714e-39
2.3355327 2.3669472 -0.65402782 9.1215534e-39
2.3315899 2.3673267 -0.6393311 9.3977969e-39
2.342905 2.367744 -0.64031196 9.9502294e-39
2.3521976 2.3691103 -0.613132 9.5800008e-39
2.3685102 2.3712699 -0.57193887 8.6573228e-39
2.3838508 2.3730619 -0.53973961 9.6678706e-39
2.3845377 2.3734145 -0.53085208 9.6678706e-39
2.3920264 2.3741899 -0.51785564 8.0105185e-39
2.4018767 2.3750246 -0.50581294 8.2849474e-39
2.4038911 2.3760817 -0.47912154 8.8327149e-39
2.4107089 2.3769631 -0.46248361 8.0955184e-39
2.4152606 2.377671 -0.44811347 7.6341872e-39
2.4229813 2.3779023 -0.45024458 7.2668466e-39
2.4229176 2.3784544 -0.43507296 7.0820966e-39
2.431447 2.3792315 -0.42316681 7.450519e-39
2.4411802 2.3806648 -0.39463809 6.8977067e-39
2.4617081 2.3835096 -0.33933145 7.2639949e-39
2.4793103 2.385777 -0.29660735 5.9711163e-39
2.4871666 2.386519 -0.28492346 5.7874481e-39
2.491962 2.3872137 -0.27117783 4.7761759e-39
2.4971313 2.3879223 -0.25746641 4.960207e-39
2.5018656 2.3886147 -0.24371511 6.1544314e-39
2.5069926 2.3893216 -0.22999978 6.062956e-39
2.5142744 2.3901923 -0.21417351 5.970759e-39
2.5502963 2.3945162 -0.13538322 5.704225e-39
2.5545423 2.3951974 -0.12140458 5.8918519e-39
2.5653522 2.396651 -0.093495794 6.4457361e-39
2.5799994 2.3987451 -0.052282602 7.185085e-39
2.5856597 2.3994715 -0.038616318 7.1861682e-39
2.5923052 2.4002457 -0.024730837 8.9382509e-39
2.5929601 2.4007771 -0.010915169 8.7538653e-39
2.5966487 2.4014313 0.0029317599 9.6758314e-39
2.6037436 2.4022105 0.016466988 9.2155791e-39
2.6090193 2.4029226 0.030168703 9.4939709e-39
2.61622 2.4037867 0.045905069 9.494338e-39
2.6150336 2.4042017 0.058554478 1.0598882e-38
2.6218278 2.4044261 0.057251129 9.6783705e-39
2.6248226 2.4049685 0.068796836 9.7702088e-39
2.6274495 2.4056742 0.085220046 9.7694872e-39
2.634932 2.406441 0.09799175 1.0414491e-38
2.6415906 2.4072309 0.11229476 1.0136819e-38
2.6456814 2.4079063 0.12628633 9.5796645e-39
2.8598733 2.4355586 0.64782923 5.6210299e-39
2.1777391 2.3489084 -0.97447038 1.1708848e-38
2.1803823 2.3489535 -0.97613412 1.0509219e-38
2.189687 2.3498037 -0.96307319 1.0232992e-38
2.1977694 2.3506587 -0.94854301 1.1338982e-38
2.2084172 2.3520474 -0.92223394 1.0324466e-38
2.2126355 2.352721 -0.9084354 1.014008e-38
2.2173951 2.3539331 -0.88050187 1.0324471e-38
2.2244334 2.3547101 -0.86696154 1.0969839e-38
2.2272463 2.3553321 -0.85303432 1.1246066e-38
2.2334964 2.3560574 -0.84005541 1.2167304e-38
2.2409346 2.3569765 -0.82306254 1.2259858e-38
2.2414708 2.3574107 -0.8117826 1.2905229e-38
2.2473063 2.3580935 -0.79950058 1.1614493e-38
2.2551582 2.3584299 -0.7988978 1.2535727e-38
2.260978 2.3591547 -0.78545791 1.2997066e-38
2.2644932 2.3598199 -0.7711184 1.3089264e-38
2.2673879 2.3604367 -0.75741649 1.3642436e-38
2.2694557 2.3610315 -0.7434212 1.2075111e-38
2.2795992 2.3624413 -0.71598041 1.1891441e-38
2.2868195 2.3632252 -0.70245671 1.1061681e-38
2.293189 2.3634439 -0.70344716 1.1245349e-38
2.2903409 2.3638732 -0.68859446 1.1153153e-38
2.2992952 2.3642018 -0.68941414 1.1061311e-38
2.2980402 2.3646948 -0.67456031 1.1154226e-38
2.3028698 2.364871 -0.67502809 1.0968745e-38
2.3007147 2.36531 -0.66066086 1.3089616e-38
2.3043551 2.365473 -0.66019267 1.2166935e-38
2.3153136 2.3658094 -0.66299808 9.9531455e-39
2.3200119 2.3665228 -0.64863831 9.4910716e-39
2.3555038 2.3709335 -0.56689793 8.5662104e-39
2.3604 2.3716319 -0.55316144 9.0261053e-39
2.372175 2.3731015 -0.52587008 8.4718525e-39
2.374994 2.3737237 -0.51194352 8.102354e-39
2.3886459 2.3752625 -0.48482391 7.4551909e-39
2.3958702 2.3760242 -0.47190547 7.9136467e-39
2.4230337 2.3795719 -0.40464336 6.6222016e-39
2.4280286 2.3803954 -0.38760126 6.8062314e-39
2.4330394 2.3810904 -0.37408784 7.635992e-39
2.4319496 2.3815205 -0.36112633 7.635992e-39
2.4431219 2.3818645 -0.36395329 7.635992e-39
2.4412501 2.3822937 -0.35017052 8.9285413e-39
2.4565279 2.3845334 -0.30566669 6.5206916e-39
2.4612904 2.3852251 -0.29196855 6.1544272e-39
2.4763937 2.3867865 -0.26581338 5.0516824e-39
2.5586054 2.3981206 -0.045923866 6.2645692e-39
2.5670269 2.3989623 -0.032138295 7.1865227e-39
2.572366 2.3996768 -0.018446997 8.8453196e-39
2.5723844 2.400063 -0.0079026138 9.0275459e-39
2.5770526 2.4003465 -0.0052677612 8.4772672e-39
2.5802791 2.4010069 0.009259657 9.4903261e-39
2.5837281 2.4010911 0.00778306 8.7545785e-39
2.5861673 2.4017413 0.02288661 9.2148518e-39
2.5924406 2.4023576 0.032870702 9.5847217e-39
2.5986035 2.4031816 0.048647776 9.5843644e-39
2.6030021 2.4040089 0.066453174 9.8613156e-39
2.6081066 2.4046438 0.078227006 9.7673179e-39
2.6111543 2.4052141 0.090480931 9.5800358e-39
2.6178448 2.4054523 0.089664638 9.492173e-39
2.6147704 2.4056792 0.099244252 8.9314154e-39
2.6245434 2.4062271 0.10352106 9.8616716e-39
2.6281328 2.4068775 0.11737703 1.0229008e-38
2.6330814 2.4075079 0.12919591 9.2105232e-39
2.6338339 2.4081244 0.14522442 8.9317699e-39
2.8378882 2.4342728 0.63674468 6.5433534e-39
2.1652632 2.3479991 -0.98567319 1.0879087e-38
2.1736395 2.3492854 -0.95967275 1.0511385e-38
2.1745453 2.349416 -0.95709181 1.1801042e-38
2.1692235 2.3496876 -0.94383824 1.2078712e-38
2.170022 2.3495033 -0.94975322 1.0972003e-38
2.1725769 2.3504319 -0.92715591 1.2907753e-38
2.1911545 2.3510039 -0.9318611 1.1984712e-38
2.1954496 2.3516905 -0.91779459 1.133826e-38
2.2016885 2.3534777 -0.87575722 1.2352412e-38
2.2051597 2.3536599 -0.87457639 1.1062754e-38
2.2128882 2.3544316 -0.86194265 1.2260578e-38
2.2230473 2.355258 -0.85047084 1.2721555e-38
2.2212303 2.3552523 -0.84863335 1.1430455e-38
2.2201481 2.3556073 -0.83774388 1.1799243e-38
2.2227716 2.3563464 -0.82040519 1.207547e-38
2.2316554 2.3566208 -0.82263017 1.207547e-38
2.2298803 2.357126 -0.80687129 1.1522657e-38
2.2341294 2.3578007 -0.79307562 1.1706688e-38
2.2422915 2.3586018 -0.78010815 1.1799601e-38
2.2457259 2.3592246 -0.76684409 1.2260224e-38
2.2534268 2.3600652 -0.75228822 1.2076551e-38
2.2635491 2.3619447 -0.71198869 1.1615212e-38
2.2710667 2.3627877 -0.69716442 1.1246072e-38
2.2741752 2.3634236 -0.68318409 1.2629361e-38
2.2929323 2.3640389 -0.68690044 1.1061675e-38
2.2816949 2.3642154 -0.6697681 1.1246068e-38
2.2870367 2.3649302 -0.65607244 1.3089616e-38
2.2923875 2.3653903 -0.64934951 1.2720114e-38
2.3020082 2.36607 -0.64129889 1.1336091e-38
2.3013408 2.3665416 -0.62767363 1.0229381e-38
2.3054111 2.3672171 -0.61365926 1.0413765e-38
2.344852 2.3717015 -0.53423661 8.2881886e-39
2.3496482 2.372416 -0.5199461 8.1949139e-39
2.4115787 2.3801291 -0.37687245 7.4505204e-39
2.4135959 2.3805237 -0.3682875 7.5434363e-39
2.4182205 2.3811777 -0.35547191 7.821828e-39
2.4283514 2.3825696 -0.32850528 6.7162232e-39
2.4344454 2.3827913 -0.32911831 7.5456223e-39
2.4282138 2.3831336 -0.3129274 7.7303807e-39
2.4559538 2.3856552 -0.27436563 5.6034184e-39
2.4605455 2.3863423 -0.26060134 5.5112214e-39
2.4704175 2.3877423 -0.23313572 4.7761689e-39
2.4788907 2.3879936 -0.23554212 4.7761689e-39
2.5229347 2.3943529 -0.10988518 6.0780312e-39
2.5295718 2.3956528 -0.081609502 6.3560502e-39
2.538739 2.3964748 -0.069174245 6.2642133e-39
2.5536709 2.3985791 -0.027987406 7.1865185e-39
2.5547855 2.399153 -0.013520613 8.5669292e-39
2.5597553 2.3998272 -0.00052512623 8.8453126e-39
2.5613317 2.4004505 0.014785685 9.2130189e-39
2.5660954 2.4011102 0.027613921 1.00435e-38
2.5731926 2.4014666 0.029584402 9.6750873e-39
2.5773499 2.4020422 0.04076834 9.3999662e-39
2.5838802 2.4028003 0.054355118 9.3074132e-39
2.5874457 2.40345 0.06821344 9.9527924e-39
2.5946398 2.4043431 0.084753662 9.0283068e-39
2.6024799 2.4050393 0.095206372 9.3070489e-39
2.6012702 2.4055138 0.10950185 8.9310524e-39
2.6115928 2.4059613 0.11043248 8.4736784e-39
2.615032 2.4066164 0.12457945 8.748822e-39
2.6139796 2.4070225 0.13684022 8.2820705e-39
2.6206231 2.4080384 0.15734141 8.3735459e-39
