# .PCD v0.7 - Point Cloud Data file format
VERSION 0.7
FIELDS x y z rgb
SIZE 4 4 4 4
TYPE F F F F
COUNT 1 1 1 1
WIDTH 1032
HEIGHT 1
VIEWPOINT 0 0 0 1 0 0 0
POINTS 1032
DATA ascii
-1.3051531 2.6539748 0.27758422 1.4472189e-38
-1.2947688 2.6535301 0.28690121 1.6593416e-38
-1.2886424 2.6532042 0.29324761 1.2904862e-38
-1.2756686 2.6525908 0.30565912 9.4003473e-39
-1.2658174 2.6517651 0.31988597 1.0230832e-38
-1.2600248 2.6508226 0.33435011 9.8609667e-39
-1.2550309 2.6499901 0.34708884 9.7694914e-39
-1.2466483 2.6491225 0.36139777 1.0046443e-38
-1.2346504 2.6474299 0.3878926 9.4003501e-39
-1.764846 2.719919 -0.75219107 1.6318262e-38
-1.7662486 2.7188284 -0.73809439 1.5949122e-38
-1.7609886 2.7180717 -0.72628307 1.8068536e-38
-1.7262141 2.7098882 -0.60574365 1.585619e-38
-1.7281435 2.7086983 -0.59049112 1.3551659e-38
-1.7173634 2.7090957 -0.59228599 1.7792301e-38
-1.7117186 2.7082589 -0.57927859 1.8162526e-38
-1.7254943 2.7068005 -0.56430429 1.4103396e-38
-1.7078004 2.7071712 -0.56348711 1.8254002e-38
-1.7018942 2.7062542 -0.5493269 1.7424603e-38
-1.6985238 2.7052038 -0.53421164 1.7516438e-38
-1.6934755 2.7055953 -0.53779006 1.6133864e-38
-1.6955564 2.7046077 -0.52528822 1.6040586e-38
-1.6940982 2.7037587 -0.51348209 1.9085209e-38
-1.690028 2.702888 -0.50053996 2.0743648e-38
-1.6820114 2.7029266 -0.49844226 2.1758522e-38
-1.6730648 2.7031643 -0.49870062 2.1758522e-38
-1.6796268 2.7020497 -0.48596352 2.0190835e-38
-1.6683779 2.7022691 -0.48522741 2.2127306e-38
-1.6672391 2.7011497 -0.46991593 2.3142179e-38
-1.655327 2.7015774 -0.47174558 2.3142535e-38
-1.657395 2.7004104 -0.45684564 2.2035832e-38
-1.656776 2.6991515 -0.43984094 2.3234013e-38
-1.6449323 2.6995847 -0.44176799 2.2680478e-38
-1.6401579 2.6987007 -0.42841247 2.1850359e-38
-1.6357033 2.6977336 -0.41405827 2.2035467e-38
-1.6242105 2.6969767 -0.40020925 2.3048905e-38
-1.6224617 2.6960433 -0.38718465 2.3509884e-38
-1.6270872 2.6947551 -0.37149975 2.2127307e-38
-1.6144191 2.6951089 -0.37209737 2.3140743e-38
-1.6104784 2.6942935 -0.3599312 2.3509527e-38
-1.6048822 2.693238 -0.34402403 2.3509886e-38
-1.5859841 2.6936734 -0.34367701 2.3509886e-38
-1.5955552 2.692585 -0.33226812 2.3509886e-38
-1.5119002 2.6863432 -0.22172277 1.4011943e-38
-1.5578833 2.6845124 -0.21226597 2.2591172e-38
-1.550445 2.684757 -0.21310847 2.2867037e-38
-1.5476615 2.6846271 -0.21046807 2.2867037e-38
-1.5095474 2.6851718 -0.20532215 1.548851e-38
-1.5208043 2.6841455 -0.19529462 1.6963641e-38
-1.5145754 2.6841202 -0.19292557 1.6409027e-38
-1.5416334 2.6827936 -0.18403625 1.8353428e-38
-1.5322547 2.6827896 -0.18092595 1.8721492e-38
-1.5321585 2.6829264 -0.18272416 1.826195e-38
-1.517063 2.6832876 -0.18262665 1.8077562e-38
-1.5060121 2.6832111 -0.17800598 1.5761497e-38
-1.5025029 2.6824732 -0.16701305 1.8905163e-38
-1.5034744 2.6814294 -0.15340173 1.8445268e-38
-1.5019668 2.6814997 -0.15384787 1.7611896e-38
-1.5093912 2.6803653 -0.14112863 1.7891727e-38
-1.4967041 2.6795976 -0.12675056 1.7151993e-38
-1.4881033 2.6791301 -0.1177104 1.7612251e-38
-1.481763 2.6788375 -0.1117427 1.8904073e-38
-1.4751061 2.677933 -0.097501628 1.9454358e-38
-1.4755993 2.6767707 -0.082149096 1.7888482e-38
-1.4635779 2.6772122 -0.08412946 1.7702277e-38
-1.465718 2.6761997 -0.071311444 1.8900461e-38
-1.4541101 2.6765745 -0.072533153 1.7240581e-38
-1.4476315 2.6766672 -0.071660839 1.6963993e-38
-1.4847866 2.6746008 -0.056185298 1.0696815e-38
-1.4704014 2.6753106 -0.060970291 2.3509883e-38
-1.4549607 2.6753781 -0.056840666 1.5489583e-38
-1.4752265 2.6741364 -0.046872828 2.3509886e-38
-1.4681242 2.6743524 -0.047443148 2.3509886e-38
-1.4562205 2.6743746 -0.04385991 2.1667051e-38
-1.4472779 2.6743586 -0.040735256 2.1021674e-38
-1.4640851 2.6733015 -0.032100562 1.7243066e-38
-1.4501839 2.6732836 -0.027337257 1.5122932e-38
-1.4446568 2.6735556 -0.029164337 1.6227852e-38
-1.4409324 2.6736567 -0.029302265 1.8625298e-38
-1.4624927 2.6723239 -0.018539682 1.7796244e-38
-1.4550525 2.6729 -0.023803379 1.5122932e-38
-1.460499 2.6714664 -0.0064452067 2.3234343e-38
-1.4355479 2.6718175 -0.0030055058 1.3551267e-38
-1.3581363 2.6613936 0.16132037 8.2021628e-39
-1.3533735 2.6604149 0.17593408 1.0968061e-38
-1.3558851 2.6596036 0.18594231 1.281415e-38
-1.3548412 2.6585643 0.20015493 1.1707784e-38
-1.3545301 2.6574943 0.21453345 1.2078735e-38
-1.3418649 2.6568203 0.22765516 1.3274017e-38
-1.3402278 2.6557982 0.24182892 1.207583e-38
-1.3358307 2.6549954 0.25397122 1.2351692e-38
-1.3277526 2.6539218 0.27093071 1.3088887e-38
-1.3211058 2.6532841 0.28160667 1.3457312e-38
-1.3157982 2.6531577 0.28502417 1.1611958e-38
-1.3086166 2.6531053 0.28806239 1.2904496e-38
-1.3019937 2.6531582 0.28951281 1.2904496e-38
-1.2923058 2.6527641 0.29792517 1.2351684e-38
-1.2812717 2.6507564 0.32831419 9.5847414e-39
-1.2783369 2.6501148 0.33783311 9.4003515e-39
-1.2779491 2.6490943 0.35157946 9.5851001e-39
-1.2707332 2.6491697 0.35292274 9.8620485e-39
-1.2658336 2.6483262 0.36577457 9.8616926e-39
-1.2579211 2.647459 0.37992677 9.4007102e-39
-1.2493567 2.6466181 0.39393911 9.4007088e-39
-1.2377222 2.6449769 0.41962796 9.4003487e-39
-1.7974544 2.7218053 -0.78798831 2.2402093e-38
-1.7680382 2.717484 -0.7207377 1.4565825e-38
-1.765017 2.7144539 -0.67931437 1.8805743e-38
-1.7661018 2.7135465 -0.6675607 1.8806467e-38
-1.7655967 2.7126608 -0.65557396 1.7699036e-38
-1.7270697 2.7075906 -0.57536256 1.4288139e-38
-1.7240804 2.7064266 -0.55885559 1.4934959e-38
-1.7293463 2.7055774 -0.54923505 1.5949474e-38
-1.7210509 2.7055435 -0.54607952 1.4750208e-38
-1.7254508 2.7045066 -0.53367746 1.7978139e-38
-1.7141695 2.7047565 -0.53333861 1.9084127e-38
-1.7123094 2.703862 -0.5207926 1.9361072e-38
-1.696517 2.7013352 -0.48192868 1.5765079e-38
-1.6854764 2.700418 -0.46609384 1.8716065e-38
-1.6808151 2.6993968 -0.45094663 2.332549e-38
-1.6704273 2.6998076 -0.45304766 2.3417328e-38
-1.670516 2.6986773 -0.43798965 2.1021317e-38
-1.6681675 2.6975996 -0.42284209 1.9360714e-38
-1.6579071 2.6979854 -0.42464688 2.3234013e-38
-1.6664722 2.6965287 -0.40799832 2.1665966e-38
-1.65248 2.6971183 -0.41130921 2.3050337e-38
-1.6501465 2.6960971 -0.3969225 2.1943272e-38
-1.6386503 2.6964166 -0.39744321 2.1113871e-38
-1.6433378 2.6950386 -0.3805792 2.2495729e-38
-1.6335317 2.6955469 -0.38416776 2.1481935e-38
-1.6393764 2.6942761 -0.36911017 2.3509524e-38
-1.6291865 2.6935043 -0.35549092 2.3233299e-38
-1.6188121 2.6926689 -0.34096554 2.3509886e-38
-1.6171336 2.6915863 -0.32596809 2.3509886e-38
-1.608969 2.6920199 -0.3290987 2.3509886e-38
-1.6208644 2.6907234 -0.3156679 2.3509886e-38
-1.5215187 2.6837251 -0.18991579 1.3552039e-38
-1.5209131 2.6835527 -0.18741658 1.4380725e-38
-1.5124429 2.6816237 -0.15891591 1.465695e-38
-1.5109971 2.6804104 -0.14225207 2.0284495e-38
-1.506635 2.6808834 -0.14714509 1.5854033e-38
-1.527465 2.6795037 -0.13551696 2.0747265e-38
-1.5231724 2.6801026 -0.14211152 1.8260868e-38
-1.5167612 2.6801956 -0.14126272 1.8260868e-38
-1.5182887 2.6791821 -0.12823549 1.844742e-38
-1.5105635 2.6788445 -0.12121261 1.844742e-38
-1.508799 2.6779103 -0.10817493 2.0841263e-38
-1.5026144 2.6779807 -0.10709927 1.8627126e-38
-1.4968098 2.6780055 -0.10553634 1.8903712e-38
-1.4904773 2.6772077 -0.092830062 1.7704448e-38
-1.4869945 2.6762981 -0.079552926 1.7888482e-38
-1.4818403 2.6754115 -0.066042915 1.7426061e-38
-1.4785192 2.6744993 -0.052788325 1.9177407e-38
-1.4672161 2.674922 -0.054748807 1.9177407e-38
-1.4901246 2.673557 -0.043994859 2.1115315e-38
-1.4756383 2.6738324 -0.042950686 1.954763e-38
-1.4745866 2.6735954 -0.039448541 1.9916411e-38
-1.4676856 2.6727333 -0.025695091 1.4936042e-38
-1.4581729 2.6731122 -0.027650909 1.4936042e-38
-1.4637412 2.6717663 -0.011501399 1.7150167e-38
-1.4642507 2.6707897 0.0013648379 2.0191555e-38
-1.4671431 2.6698189 0.013378564 2.3417682e-38
-1.4678345 2.6696088 0.015955843 1.7334558e-38
-1.3678107 2.6576233 0.20848539 1.0233376e-38
-1.3693867 2.6568527 0.21825501 1.2540084e-38
-1.3639771 2.6566012 0.22337459 1.1249679e-38
-1.3550978 2.6560817 0.23319922 9.7774213e-39
-1.3499749 2.6549616 0.24981791 1.0972003e-38
-1.3476151 2.6542814 0.25966424 1.2628652e-38
-1.3420275 2.6532819 0.27482235 1.3274371e-38
-1.3276496 2.6527483 0.28662401 1.4379626e-38
-1.3242897 2.6524284 0.2919881 1.2259135e-38
-1.3126516 2.6521318 0.29973707 1.0691449e-38
-1.306483 2.6522706 0.29989627 1.2537161e-38
-1.294067 2.6502366 0.33108506 9.4007116e-39
-1.2930084 2.6495261 0.34090963 9.2166791e-39
-1.2874789 2.6484115 0.35758662 9.5847428e-39
-1.2820562 2.6476192 0.36992657 9.584384e-39
-1.275344 2.6466639 0.3848612 8.9400936e-39
-1.2642679 2.6457934 0.40008506 9.1244835e-39
-1.2614539 2.6448538 0.41354197 9.1241262e-39
-1.2560863 2.6440327 0.42624715 9.676937e-39
-1.2514392 2.6431115 0.44005352 9.7687753e-39
-1.2435063 2.6423159 0.4532567 9.1234017e-39
-1.7684407 2.7140484 -0.67501676 1.8530603e-38
-1.7648925 2.7130837 -0.66098952 1.7055115e-38
-1.7666897 2.7122233 -0.65009189 2.2310614e-38
-1.7665925 2.7125409 -0.65429747 2.221842e-38
-1.7654623 2.7109003 -0.63203549 1.7516451e-38
-1.7291529 2.7039962 -0.52806866 1.7054741e-38
-1.7288285 2.7031565 -0.51675701 1.3458386e-38
-1.7231247 2.7030694 -0.51373863 1.8161809e-38
-1.7287327 2.7019835 -0.50107294 1.880682e-38
-1.7082422 2.7005725 -0.47557038 2.055925e-38
-1.705442 2.699435 -0.45947877 1.7147654e-38
-1.6996078 2.6986995 -0.44776085 1.6687401e-38
-1.6971732 2.697752 -0.43432164 1.7424964e-38
-1.6844022 2.6981041 -0.43486521 1.760936e-38
-1.679623 2.6972146 -0.42143428 2.1665967e-38
-1.675797 2.6962686 -0.40756673 2.1574489e-38
-1.6786072 2.6952143 -0.3944076 2.0652171e-38
-1.6680636 2.6952677 -0.39169016 2.1574128e-38
-1.658919 2.694566 -0.379347 2.194327e-38
-1.6529604 2.6945181 -0.37676424 2.2865583e-38
-1.6638634 2.6931703 -0.36233228 2.2681197e-38
-1.6501727 2.6936657 -0.36448187 2.2219859e-38
-1.6475629 2.692754 -0.35146341 2.2864875e-38
-1.6387253 2.6923423 -0.34308925 2.3418049e-38
-1.6319427 2.6919358 -0.3354601 2.1942917e-38
-1.6258099 2.6910632 -0.32181373 2.3509884e-38
-1.624127 2.6901174 -0.30864224 2.3418049e-38
-1.6235653 2.690136 -0.30870908 2.3509884e-38
-1.6299913 2.6893942 -0.30090642 2.3418047e-38
-1.6199765 2.6875067 -0.27245131 2.3509886e-38
-1.6127142 2.6874087 -0.26877645 2.3509527e-38
-1.5238194 2.680985 -0.15410006 1.5672904e-38
-1.5232129 2.6796777 -0.13645427 2.3325856e-38
-1.5202514 2.6800766 -0.14081103 1.5027535e-38
-1.5509846 2.678679 -0.13217199 2.2403186e-38
-1.5439528 2.6788642 -0.13235317 2.2403186e-38
-1.5414578 2.6792126 -0.13619177 2.3325856e-38
-1.5328398 2.6789329 -0.12965061 2.3325497e-38
-1.5279092 2.6792617 -0.13243063 2.3325856e-38
-1.5362535 2.6782317 -0.12140493 2.0283776e-38
-1.5269858 2.6780319 -0.11571898 2.194329e-38
-1.5166374 2.6772921 -0.10247717 2.0930225e-38
-1.5050787 2.6765161 -0.088356152 1.6504478e-38
-1.5003457 2.6756282 -0.074962907 1.8163985e-38
-1.495392 2.6747589 -0.0617483 2.0564681e-38
-1.490483 2.673851 -0.048033241 1.8073596e-38
-1.4852666 2.6729524 -0.034344081 1.7703718e-38
-1.483077 2.6718965 -0.019539228 1.705907e-38
-1.4786021 2.670784 -0.0032339406 1.8532752e-38
-1.4722221 2.6711619 -0.0062002777 1.6965787e-38
-1.4786015 2.6701338 0.005444448 2.0007515e-38
-1.4700787 2.6692748 0.019681996 1.7334558e-38
-1.4733845 2.6684 0.030278463 1.5492455e-38
-1.4704032 2.6682787 0.032873213 1.7888463e-38
-1.4710277 2.6670804 0.048659597 2.350952e-38
-1.462829 2.667546 0.045113698 1.1708845e-38
-1.454223 2.6676204 0.046926055 1.1708845e-38
-1.3740504 2.6563504 0.22344165 2.8544744e-39
-1.3701742 2.6553338 0.23827228 6.8332666e-39
-1.3649156 2.6544485 0.25179684 8.4866699e-39
-1.348415 2.6547117 0.25366193 1.3099718e-38
-1.3603165 2.6535544 0.26522949 1.1425776e-38
-1.352378 2.6529119 0.27638656 1.1062408e-38
-1.3443929 2.6524773 0.2847915 1.3826098e-38
-1.3394594 2.6528487 0.28144151 1.3918656e-38
-1.3284943 2.6522098 0.2935375 1.3918656e-38
-1.3093979 2.6485662 0.34838048 9.4929059e-39
-1.3055673 2.6478078 0.35975131 9.5847428e-39
-1.2984776 2.6467495 0.37618098 9.5843826e-39
-1.2867588 2.6460738 0.38901788 9.3088719e-39
-1.2843283 2.645041 0.40359074 9.1244807e-39
-1.2783012 2.6440334 0.41900122 9.0312075e-39
-1.2744598 2.6433339 0.4295899 9.2155973e-39
-1.2694998 2.6423252 0.44466618 1.0137922e-38
-1.2591382 2.641557 0.45829335 9.123766e-39
-1.2554969 2.6405327 0.47314888 8.8471735e-39
-1.7725445 2.7115927 -0.64358145 2.2126591e-38
-1.7683151 2.7104752 -0.62729156 1.8622797e-38
-1.7327199 2.7014811 -0.49566954 1.7423525e-38
-1.7278055 2.7005401 -0.48150808 1.557997e-38
-1.7245706 2.6996779 -0.46895039 1.6040585e-38
-1.7287235 2.6984174 -0.45348188 1.4381065e-38
-1.7178394 2.6988134 -0.45522064 1.8439832e-38
-1.7133265 2.6978788 -0.44127843 1.7885938e-38
-1.7081134 2.6970322 -0.42828169 1.7424237e-38
-1.7021432 2.6961498 -0.41456109 1.6041667e-38
-1.6997445 2.695127 -0.40012887 1.6963625e-38
-1.6825759 2.6935995 -0.37415338 2.2496806e-38
-1.6699383 2.6939843 -0.37516955 2.1021317e-38
-1.6770871 2.6926694 -0.3599523 2.3049261e-38
-1.6688244 2.6923778 -0.35336912 2.3141814e-38
-1.6627136 2.691915 -0.34520462 2.3233652e-38
-1.657503 2.6911004 -0.33263686 2.3141099e-38
-1.6481149 2.6911149 -0.32976866 2.2588285e-38
-1.6546664 2.6899114 -0.315844 2.2957065e-38
-1.6430846 2.6902344 -0.3163839 2.2219501e-38
-1.6468118 2.6889935 -0.30103403 2.3325854e-38
-1.6389444 2.6893508 -0.30323929 2.3141102e-38
-1.6310802 2.6866167 -0.26419303 2.3417691e-38
-1.623745 2.6864831 -0.260019 2.341805e-38
-1.5960373 2.6851842 -0.2336597 2.3325854e-38
-1.5414007 2.6763558 -0.098047547 2.3325856e-38
-1.53223 2.6763766 -0.095335491 2.019121e-38
-1.5245804 2.6756458 -0.08309453 1.7517181e-38
-1.52005 2.6747358 -0.06947387 1.5765816e-38
-1.5142241 2.6738348 -0.055550236 1.7610823e-38
-1.5048056 2.6730328 -0.041780904 1.7610456e-38
-1.5013855 2.6720593 -0.027673023 2.019446e-38
-1.5010147 2.6711638 -0.015602573 1.6044199e-38
-1.5137162 2.6698306 -0.0019459481 1.6411556e-38
-1.5028485 2.6702006 -0.0033490071 1.6412979e-38
-1.4911802 2.6705785 -0.0045896126 1.622787e-38
-1.4972242 2.6692622 0.011007763 2.0652896e-38
-1.4878074 2.6684637 0.024733797 2.15745e-38
-1.4883591 2.6675024 0.037382625 2.3509523e-38
-1.479493 2.6668708 0.048697378 2.350952e-38
-1.3585345 2.6520562 0.28580096 1.1339356e-38
-1.3488207 2.6515777 0.29535049 1.2906313e-38
-1.3229014 2.647681 0.35579857 9.5843812e-39
-1.3166744 2.6467218 0.37062463 9.4925443e-39
-1.3108674 2.6460223 0.381854 9.3085146e-39
-1.3044465 2.6451583 0.39547622 9.3085146e-39
-1.2987068 2.6442797 0.40906781 9.1237618e-39
-1.2921288 2.6433978 0.42297986 8.9393692e-39
-1.2897984 2.642487 0.43589279 8.9397279e-39
-1.2840176 2.6416094 0.4494901 8.9390104e-39
-1.2771646 2.6407099 0.46372595 9.3077957e-39
-1.2695451 2.6398945 0.47709045 8.7546192e-39
-1.2618591 2.6390769 0.49050447 9.1237604e-39
-1.7690897 2.708997 -0.60781664 2.0006092e-38
-1.7671797 2.7064054 -0.57260746 1.6686686e-38
-1.766637 2.7061193 -0.56861371 1.7793394e-38
-1.7349699 2.6990886 -0.46447217 1.4012646e-38
-1.7292088 2.6989841 -0.46119928 1.7147304e-38
-1.7294788 2.6979299 -0.44722006 1.6317895e-38
-1.72383 2.6970963 -0.43425879 1.6686315e-38
-1.7231805 2.6962721 -0.42304614 1.6870344e-38
-1.7256706 2.6959682 -0.4197993 1.5765084e-38
-1.7168922 2.6954014 -0.40937808 1.8623143e-38
-1.7066848 2.6936712 -0.38296121 1.6686675e-38
-1.6979797 2.69279 -0.36836728 1.6687039e-38
-1.6922048 2.6919122 -0.35477075 1.7794107e-38
-1.682191 2.6912112 -0.34215575 2.1390097e-38
-1.6731569 2.6914542 -0.3424542 2.1390097e-38
-1.6782035 2.690275 -0.32836205 2.3048903e-38
-1.6694412 2.6905019 -0.32853606 2.3141099e-38
-1.6638101 2.6896622 -0.3154954 2.2865228e-38
-1.6592032 2.6887622 -0.30198556 2.2312777e-38
-1.6413425 2.6854634 -0.25214511 2.341805e-38
-1.6159973 2.6845844 -0.23215617 2.341805e-38
-1.5451474 2.6758368 -0.09234038 1.2630815e-38
-1.5430089 2.6748252 -0.078144722 1.2263824e-38
-1.5450879 2.6738479 -0.065779954 1.4564038e-38
-1.5325162 2.6741719 -0.066007964 1.226418e-38
-1.5236293 2.6733148 -0.051675376 1.2722281e-38
-1.516636 2.672137 -0.033676811 1.8349101e-38
-1.5088692 2.671468 -0.022220232 1.917923e-38
-1.5328848 2.6699412 -0.0096674357 1.7611546e-38
-1.52387 2.669827 -0.0052065463 1.6411556e-38
-1.5175606 2.669939 -0.0046467227 1.7703011e-38
-1.5151113 2.6701229 -0.0063054329 1.7518256e-38
-1.5062149 2.6705086 -0.0085541727 1.9823868e-38
-1.5237224 2.6695304 -0.0012021642 1.6411556e-38
-1.5235502 2.6683557 0.01453186 1.7888491e-38
-1.5173764 2.6684699 0.015018399 1.7796656e-38
-1.5071045 2.667968 0.025062637 1.7979604e-38
-1.4978242 2.6677358 0.031186026 1.9730956e-38
-1.5016061 2.6666722 0.044146664 2.0837665e-38
-1.5035106 2.6657612 0.055682439 2.2219513e-38
-1.4963591 2.6659424 0.055593528 2.3509527e-38
-1.4849448 2.6650908 0.070676573 2.3509886e-38
-1.475816 2.6642611 0.084720068 2.3509886e-38
-1.4710457 2.6633694 0.098176576 2.3509886e-38
-1.3639363 2.6512709 0.29452419 1.2261313e-38
-1.3573912 2.6505787 0.30589104 1.3552047e-38
-1.3337533 2.6470392 0.360827 9.4921856e-39
-1.3324455 2.6461344 0.37332615 9.4921842e-39
-1.3278617 2.6452401 0.38675672 9.3081531e-39
-1.320286 2.6443136 0.40158769 9.3077943e-39
-1.3143939 2.6435723 0.41339815 9.2148798e-39
-1.3104873 2.6426041 0.42759323 8.8475351e-39
-1.3029134 2.6417544 0.44140041 8.755338e-39
-1.2985872 2.6408563 0.45479503 8.9397265e-39
-1.2927505 2.6399794 0.46840015 8.8464533e-39
-1.2838043 2.6392424 0.4811472 8.9386447e-39
-1.2839378 2.6381853 0.49521178 8.846812e-39
-1.2761655 2.6384804 0.49380416 8.846812e-39
-1.2751855 2.6375651 0.50633711 9.7687725e-39
-1.2652465 2.6376636 0.50826269 9.7687725e-39
-1.271825 2.6363633 0.52347374 8.6624207e-39
-1.258556 2.6368861 0.520818 8.7546178e-39
-1.2677339 2.6354127 0.53749067 9.2152386e-39
-1.2535682 2.6360085 0.53415334 9.8609709e-39
-1.2547731 2.6347485 0.55057591 8.6627879e-39
-1.2561197 2.6335177 0.56656319 8.4780281e-39
-1.2466998 2.6328595 0.57841486 9.0312061e-39
-1.2453114 2.6318116 0.59285235 8.4776679e-39
-1.2335926 2.6312201 0.60456163 8.7538947e-39
-1.2271489 2.6314201 0.60399234 8.7538947e-39
-1.7728664 2.7065308 -0.57613623 2.2495012e-38
-1.770552 2.7067842 -0.57876205 2.2495012e-38
-1.7699826 2.7054207 -0.56038183 2.0190483e-38
-1.7705207 2.7053456 -0.55955565 1.8899745e-38
-1.767902 2.7046323 -0.54918027 1.9176329e-38
-1.733444 2.6965377 -0.42993298 1.5488134e-38
-1.7274855 2.6956625 -0.41631085 1.53963e-38
-1.723225 2.6948845 -0.40454349 1.6870711e-38
-1.7213098 2.6938128 -0.38961658 1.6317532e-38
-1.7207526 2.6928809 -0.37699723 1.7147653e-38
-1.7140738 2.6919708 -0.36267582 1.8068895e-38
-1.6169113 2.6789947 -0.15785845 2.3509883e-38
-1.6079147 2.6787298 -0.1513944 2.3509886e-38
-1.6005368 2.6786406 -0.14779876 2.3509886e-38
-1.5953416 2.6783068 -0.14165129 2.3509886e-38
-1.5867285 2.6784577 -0.14086077 2.3509886e-38
-1.5345449 2.6715465 -0.031631164 1.2355298e-38
-1.5280356 2.6701796 -0.011269909 1.7425337e-38
-1.5236732 2.6707189 -0.017048031 1.4197768e-38
-1.5434142 2.6691742 -0.0028631461 1.9824607e-38
-1.5371525 2.6692953 -0.0024390542 2.0561803e-38
-1.5319693 2.6696548 -0.0055504353 1.7425337e-38
-1.5358011 2.6676528 0.019918773 1.7703737e-38
-1.5265472 2.6672964 0.027693726 1.9179237e-38
-1.5158372 2.6671183 0.033560105 1.9179237e-38
-1.5080829 2.6672447 0.034394819 1.908776e-38
-1.5196832 2.665967 0.047670104 1.8902646e-38
-1.5254308 2.6647482 0.062062122 1.9365069e-38
-1.5146881 2.66503 0.061798528 1.8903008e-38
-1.5152346 2.6638889 0.076851733 1.8903369e-38
-1.5026639 2.664253 0.076085314 2.0465989e-38
-1.5032046 2.6628962 0.09401729 2.230881e-38
-1.4923388 2.6634917 0.089610815 2.0742212e-38
-1.5012373 2.6622407 0.10340323 2.2679403e-38
-1.4936824 2.6625283 0.10203001 2.3509886e-38
-1.483323 2.6628466 0.10115363 2.3509886e-38
-1.4830961 2.66169 0.11666442 2.2587568e-38
-1.4795341 2.6607468 0.13041066 2.3509886e-38
-1.3936875 2.6514392 0.28258485 8.758987e-39
-1.3827664 2.6506948 0.29607713 1.1338642e-38
-1.3733785 2.6498165 0.31085542 1.2904874e-38
-1.3501861 2.6452041 0.37996408 9.5843826e-39
-1.3396596 2.6445258 0.39244789 9.1237618e-39
-1.335358 2.6436272 0.40583906 9.0315648e-39
-1.3280485 2.6427708 0.41964945 9.3085146e-39
-1.3235129 2.642086 0.43026343 8.8475351e-39
-1.3163805 2.6410167 0.44685897 8.663141e-39
-1.3131893 2.6401148 0.45993325 8.7549779e-39
-1.3046403 2.6392634 0.47407854 9.0312061e-39
-1.3018078 2.6383445 0.48726502 8.6627809e-39
-1.2959945 2.6374671 0.50086683 8.6624221e-39
-1.2863327 2.6367626 0.5134176 8.662062e-39
-1.2869781 2.6356761 0.52770686 8.5702251e-39
-1.2811892 2.6347985 0.54130542 8.6617019e-39
-1.275643 2.6339259 0.55475402 8.4776721e-39
-1.2702889 2.6329231 0.5698815 8.3854751e-39
-1.2650094 2.6320431 0.58334696 9.1234003e-39
-1.2565832 2.6313078 0.59590131 8.4776679e-39
-1.2493856 2.6304722 0.60939944 8.3854765e-39
-1.2408482 2.6296105 0.62367755 8.5698678e-39
-1.7700301 2.7041399 -0.54330492 1.8530963e-38
-1.7345761 2.6940553 -0.39717194 1.5948398e-38
-1.7358881 2.6929991 -0.383506 1.6316463e-38
-1.7391534 2.6919525 -0.37060159 1.1983265e-38
-1.72671 2.6923594 -0.37198007 1.6224622e-38
-1.724703 2.6913176 -0.35742074 1.6593762e-38
-1.7175254 2.6905646 -0.34503704 1.5763642e-38
-1.7119842 2.6897023 -0.33172283 1.7239132e-38
-1.6339517 2.6782064 -0.15289034 2.3509886e-38
-1.6276748 2.677371 -0.13969885 2.3049266e-38
-1.6174346 2.6774688 -0.13766351 2.341805e-38
-1.6076801 2.6775231 -0.13521472 2.341805e-38
-1.6073654 2.6765499 -0.12212277 2.3418049e-38
-1.6028024 2.6760323 -0.11372915 2.3509886e-38
-1.5453339 2.668901 0.00016065237 1.2354231e-38
-1.5504447 2.6677239 0.014200384 1.9453637e-38
-1.5474918 2.66803 0.011079517 2.3509886e-38
-1.5331502 2.6681342 0.014360761 1.2908473e-38
-1.5541618 2.6668622 0.024490485 1.5950927e-38
-1.5463269 2.6660917 0.03732739 7.3752832e-39
-1.5356333 2.6661477 0.040062249 1.7055826e-38
-1.5326518 2.664968 0.056778044 1.6413375e-38
-1.5250492 2.6653593 0.054031063 1.93629e-38
-1.5348905 2.6645322 0.061862316 1.9365069e-38
-1.5233562 2.6631436 0.084150918 2.2127677e-38
-1.5205718 2.6632876 0.083137266 2.3509886e-38
-1.511142 2.6627152 0.09384653 2.0008625e-38
-1.5029099 2.661984 0.10628665 2.2312068e-38
-1.4999325 2.6619141 0.10818844 2.1851454e-38
-1.5079343 2.6607876 0.12061667 2.1388666e-38
-1.4952474 2.6609139 0.12306156 2.138939e-38
-1.4959604 2.6597633 0.13818409 2.083767e-38
-1.4851745 2.6601558 0.13646168 2.1387943e-38
-1.4859084 2.6591668 0.14942071 2.3325856e-38
-1.4922632 2.6579273 0.16389082 2.341805e-38
-1.4811471 2.6583042 0.16248263 2.3509886e-38
-1.4729983 2.658071 0.16824791 2.3509886e-38
-1.4657099 2.6576293 0.17652214 2.3509886e-38
-1.4060203 2.6507306 0.28802589 1.0601444e-38
-1.3969833 2.6502492 0.29739314 1.0877668e-38
-1.3626297 2.6447945 0.38137737 9.4918269e-39
-1.3541546 2.6436863 0.39892963 9.0319277e-39
-1.3524252 2.6427248 0.41232154 9.0312061e-39
-1.3428943 2.6420138 0.42491588 9.1237632e-39
-1.334892 2.6410766 0.44003135 8.939009e-39
-1.3286039 2.6403878 0.45127034 9.4003487e-39
-1.3268816 2.6393619 0.46552259 8.6624207e-39
-1.3198252 2.6385777 0.47828832 8.5705838e-39
-1.3153709 2.6376038 0.49273509 8.5705838e-39
-1.3126801 2.6365683 0.507429 8.3858352e-39
-1.3047963 2.6358361 0.51976734 8.478391e-39
-1.298985 2.634959 0.53336895 8.4780281e-39
-1.2930986 2.6340823 0.54698104 8.4776679e-39
-1.2872907 2.6332052 0.56058216 8.4776707e-39
-1.2829422 2.6323073 0.57397991 8.3851178e-39
-1.2799926 2.6313899 0.58718264 8.3858338e-39
-1.2756523 2.6304922 0.60057932 8.3854751e-39
-1.265771 2.6308975 0.59838521 8.3854751e-39
-1.2726163 2.629576 0.61379409 9.9524421e-39
-1.2619539 2.6299515 0.61225688 9.9524421e-39
-1.264203 2.6291244 0.62256086 1.0321592e-38
-1.2542207 2.6288564 0.62938595 9.9528078e-39
-1.7736065 2.6987114 -0.47202227 1.9637309e-38
-1.7379695 2.6905618 -0.35165912 1.548778e-38
-1.7312831 2.689873 -0.34028471 1.6040949e-38
-1.7252553 2.688843 -0.32457897 1.7793029e-38
-1.7225772 2.687943 -0.31169608 1.6409736e-38
-1.6430315 2.6766055 -0.13448092 2.341805e-38
-1.6383106 2.675781 -0.12194155 2.2956709e-38
-1.6298126 2.6758673 -0.12032442 2.3509886e-38
-1.6200699 2.6761518 -0.12094745 2.3418049e-38
-1.6358366 2.6746306 -0.10578457 2.3509167e-38
-1.6271223 2.6747525 -0.10457283 2.341769e-38
-1.6254116 2.6737847 -0.091099776 2.3418049e-38
-1.6154037 2.6740839 -0.09183272 2.3418049e-38
-1.6159444 2.6731162 -0.079094373 2.3509886e-38
-1.6127158 2.6722155 -0.06602098 2.3509883e-38
-1.6120175 2.6719427 -0.062154781 2.3509886e-38
-1.6009983 2.6714811 -0.052404553 2.3509883e-38
-1.5564677 2.6672986 0.01791783 1.4381104e-38
-1.5724175 2.6657875 0.032886531 1.4932832e-38
-1.5583322 2.666147 0.032679543 8.9419055e-39
-1.5545063 2.6664407 0.0300043 1.2077276e-38
-1.5616621 2.6652486 0.043580003 3.5034353e-39
-1.5507139 2.6645372 0.056643169 1.3830086e-38
-1.5437118 2.6636398 0.070897311 1.4656594e-38
-1.5381898 2.6634204 0.075627245 2.3509886e-38
-1.5317743 2.6628783 0.084950656 1.8348744e-38
-1.5210552 2.6629324 0.087717868 2.0558911e-38
-1.5237858 2.6618931 0.10070011 1.6230778e-38
-1.5171663 2.6610763 0.1137553 2.1392278e-38
-1.5124487 2.6601839 0.12720449 2.1113891e-38
-1.5094218 2.6593027 0.1399484 2.083767e-38
-1.507889 2.6581986 0.15518363 2.3326215e-38
-1.5042911 2.6584599 0.15286496 2.3142185e-38
-1.4980812 2.6571612 0.17222065 2.3509886e-38
-1.4922352 2.6566799 0.18054819 2.2956715e-38
-1.4830364 2.6568098 0.18181048 2.3141104e-38
-1.4887189 2.6555068 0.19734822 2.3509883e-38
-1.4778687 2.6557117 0.19815148 2.3509886e-38
-1.4736035 2.6559339 0.19657645 2.3509886e-38
-1.4808393 2.6550376 0.20617709 2.3509886e-38
-1.4261043 2.650846 0.27994618 9.9586036e-39
-1.4187593 2.6501248 0.29195955 1.1246447e-38
-1.4099185 2.6496522 0.30114669 1.4012667e-38
-1.3722991 2.6438632 0.39065796 9.4003501e-39
-1.3687776 2.6430197 0.40306064 9.4003501e-39
-1.3660713 2.6420989 0.41622958 9.2152386e-39
-1.3599375 2.6412354 0.4297539 9.0312089e-39
-1.3516738 2.640383 0.4438194 8.6620634e-39
-1.3399297 2.6386299 0.47103956 8.6617033e-39
-1.334219 2.6377513 0.48462713 8.5702251e-39
-1.32854 2.6368718 0.49821025 8.3858352e-39
-1.3283927 2.6359155 0.51102257 8.4776707e-39
-1.317533 2.6351838 0.52432543 8.2936396e-39
-1.3124654 2.6341906 0.5392307 8.2936354e-39
-1.3020849 2.6324489 0.56585568 8.2932795e-39
-1.2990476 2.6315327 0.57907081 8.5691489e-39
-1.2903856 2.6306951 0.59306955 8.2929193e-39
-1.2864033 2.6297925 0.60641623 8.2932781e-39
-1.2817204 2.6288991 0.61986059 7.9252158e-39
-1.2750167 2.6280828 0.63293731 7.186206e-39
-1.7403865 2.6880524 -0.31895494 1.5579257e-38
-1.632072 2.6723809 -0.074532047 2.3325493e-38
-1.6231211 2.6724286 -0.072256058 2.3509884e-38
-1.6304828 2.6711459 -0.057535704 2.2680482e-38
-1.6216977 2.6713743 -0.057719965 2.2680482e-38
-1.6112038 2.6716423 -0.057881415 2.3233299e-38
-1.6163486 2.6705179 -0.044550147 2.3509881e-38
-1.609606 2.670738 -0.045292407 2.3509886e-38
-1.6090723 2.6698163 -0.032817408 2.3509886e-38
-1.5722617 2.6666794 0.021035129 1.6222863e-38
-1.5521337 2.6619556 0.090634264 1.3187962e-38
-1.5437044 2.6622167 0.089894615 1.3187962e-38
-1.5469099 2.6610699 0.104154 1.4565842e-38
-1.5393269 2.661135 0.10575724 1.8808274e-38
-1.5322013 2.6603603 0.11841331 2.010226e-38
-1.5273198 2.6592793 0.13442953 2.1296832e-38
-1.527779 2.6584051 0.14594892 2.2496099e-38
-1.5214329 2.6573913 0.1615441 2.2220234e-38
-1.5028681 2.6561341 0.18436962 2.3049273e-38
-1.498103 2.6552436 0.19780706 2.3509883e-38
-1.4976356 2.6541326 0.21278475 2.3509886e-38
-1.4930599 2.6534011 0.2240361 2.3509886e-38
-1.4853085 2.6530197 0.23165111 2.3509886e-38
-1.4768338 2.6527236 0.2383635 2.3509886e-38
-1.4706117 2.6528523 0.23867482 2.3509886e-38
-1.462772 2.6526599 0.24379188 2.3509886e-38
-1.4668113 2.6517265 0.25493589 2.3509886e-38
-1.4457786 2.65098 0.27174795 1.3185802e-38
-1.4360592 2.6499436 0.28874561 1.0786189e-38
-1.4275578 2.6493175 0.29987055 1.0969859e-38
-1.3706962 2.6404121 0.43723586 8.8464561e-39
-1.3547292 2.6378736 0.47631243 8.2932809e-39
-1.3516361 2.6369584 0.48953527 8.4773106e-39
-1.3488981 2.6359296 0.50415415 8.5695076e-39
-1.33727 2.6352417 0.51712072 8.2932795e-39
-1.3312649 2.6343672 0.53074932 8.2929207e-39
-1.3284442 2.6334481 0.54393423 8.2014398e-39
-1.3243314 2.632714 0.55507219 8.108884e-39
-1.3167894 2.6316912 0.57117546 8.1085267e-39
-1.3125877 2.6307321 0.58534592 7.8322985e-39
-1.3077619 2.6300483 0.59604442 8.0170499e-39
-1.3034247 2.6291916 0.60888726 8.2007223e-39
-1.2963693 2.6281447 0.6251545 7.5560788e-39
-1.2909389 2.6272624 0.63870311 7.6475443e-39
-1.2844851 2.6268771 0.6459462 5.251544e-39
-1.2792645 2.6264668 0.65312171 6.450813e-39
-1.2558062 2.6266766 0.6579628 9.9578469e-39
-1.2794628 2.6245964 0.67801678 1.8533149e-38
-1.6335872 2.66992 -0.042185653 2.3417689e-38
-1.631668 2.6687353 -0.025751909 2.2126947e-38
-1.6227283 2.6690469 -0.026993977 2.3509886e-38
-1.5553775 2.6594434 0.123101 1.4572707e-38
-1.5456808 2.6597595 0.12204091 1.4572707e-38
-1.5470873 2.6590271 0.13136019 2.3142544e-38
-1.5388333 2.658587 0.13991897 2.3234379e-38
-1.5297412 2.6580067 0.15062508 2.3325854e-38
-1.5304358 2.6570969 0.16254133 2.3049991e-38
-1.5319662 2.6561766 0.17432401 2.323366e-38
-1.5039012 2.6525548 0.23179941 2.3509886e-38
-1.4971378 2.6522141 0.23854731 2.3509886e-38
-1.4894282 2.6520622 0.24308565 2.3509886e-38
-1.4801586 2.6518338 0.24915528 2.3509886e-38
-1.4888521 2.6505291 0.26373139 2.3509527e-38
-1.4720603 2.6510823 0.26182151 2.3509886e-38
-1.4585487 2.6502521 0.27730364 7.3774791e-39
-1.3639855 2.6361961 0.49568614 8.385115e-39
-1.3591945 2.6351581 0.51109838 8.477312e-39
-1.3520775 2.6344852 0.52239251 8.5695118e-39
-1.3491606 2.6335678 0.53559077 8.2929207e-39
-1.3431302 2.6326933 0.54922289 8.1088882e-39
-1.3383305 2.6318018 0.56268346 8.1088854e-39
-1.3315158 2.6309385 0.5764249 8.2007209e-39
-1.3285975 2.6300209 0.58962339 7.7401029e-39
-1.3194021 2.6290998 0.6049087 8.2010796e-39
-1.3156297 2.6282358 0.61766791 7.9248557e-39
-1.3097855 2.6276264 0.62770486 8.5702321e-39
-1.3070045 2.6265881 0.64246553 9.4932618e-39
-1.2680141 2.6259425 0.66378337 1.9640206e-38
-1.2942673 2.6243844 0.67602652 1.8349491e-38
-1.2892689 2.6248188 0.67185456 1.8810456e-38
-1.2981075 2.6237984 0.68259311 1.9270722e-38
-1.5250192 2.6516974 0.23636436 2.3509884e-38
-1.5164729 2.6515222 0.24148449 2.3509886e-38
-1.5064752 2.6509392 0.2525233 2.3509527e-38
-1.4999725 2.6510594 0.25303409 2.3509886e-38
-1.5058814 2.6499999 0.26525128 2.3509527e-38
-1.5014832 2.6499574 0.26724991 1.8070713e-38
-1.4931107 2.6497211 0.27312928 7.2852835e-39
-1.4853162 2.6502204 0.26900333 1.5397404e-38
-1.4791627 2.6496949 0.27802536 7.2852835e-39
-1.4713361 2.6495175 0.28293797 1.1156413e-38
-1.3812748 2.6354451 0.50007552 8.385115e-39
-1.3726325 2.6346073 0.51407158 8.108891e-39
-1.3670456 2.6337533 0.52728844 8.2929235e-39
-1.362837 2.6327703 0.54177749 8.1085295e-39
-1.3589151 2.6318038 0.55595559 7.9237795e-39
-1.3522553 2.6310577 0.56807828 8.2000034e-39
-1.346488 2.6301799 0.58167374 8.0159709e-39
-1.3425616 2.6292646 0.59516698 7.924134e-39
-1.3377082 2.6283853 0.60848081 7.9244928e-39
-1.3317314 2.6275103 0.62210542 8.1088882e-39
-1.3230615 2.6266727 0.6361053 8.2032517e-39
-1.3201311 2.6257551 0.64930558 1.0692888e-38
-1.3132236 2.6250992 0.66031188 7.2827569e-39
-1.2887002 2.6252379 0.66644913 9.5937755e-39
-1.2769258 2.6244309 0.68105298 2.2405347e-38
-1.3027879 2.6231399 0.68985814 1.8351272e-38
-1.2653658 2.6239178 0.69166315 2.3509527e-38
-1.5351471 2.6507058 0.24629927 2.3509886e-38
-1.5267123 2.6504171 0.25289783 2.3509886e-38
-1.5182867 2.6502514 0.25785375 2.3509886e-38
-1.5016217 2.6494467 0.27401751 1.0418852e-38
-1.4922848 2.649133 0.28124824 1.0695794e-38
-1.3931775 2.6347165 0.5059194 8.2932767e-39
-1.3844721 2.6329336 0.53254867 8.2007251e-39
-1.3772415 2.6320763 0.54634809 8.2007251e-39
-1.3717352 2.6311946 0.5599072 8.0159751e-39
-1.3597318 2.6296604 0.58429307 8.2000048e-39
-1.3581171 2.6285093 0.60018021 7.9237767e-39
-1.3517319 2.6277001 0.61305797 7.8315811e-39
-1.3474861 2.6266212 0.62883919 7.648266e-39
-1.3423458 2.625792 0.64157861 7.1880137e-39
-1.3349252 2.6249988 0.65457916 9.4003613e-39
-1.3238401 2.6241438 0.66960216 1.0146215e-38
-1.3028281 2.6244888 0.67184359 7.9346087e-39
-1.294494 2.6237528 0.68437761 1.8170143e-38
-1.2898813 2.6227012 0.69991612 2.2407857e-38
-1.5544147 2.650001 0.24942867 2.3509886e-38
-1.5464467 2.6498003 0.2547009 2.3509886e-38
-1.5383253 2.6494186 0.26244143 2.0836221e-38
-1.5297366 2.6492534 0.26744458 7.6519206e-39
-1.5242167 2.649514 0.26576161 7.6519206e-39
-1.5161896 2.6493025 0.27120134 1.0049357e-38
-1.5386437 2.6485136 0.27441216 1.6226806e-38
-1.5067682 2.6489787 0.27858773 1.0325583e-38
-1.3759825 2.6286685 0.59223413 7.9237767e-39
-1.3671829 2.6268744 0.61904389 7.7397456e-39
-1.3613472 2.6259973 0.63264889 7.556069e-39
-1.3530365 2.6249161 0.64978528 7.7419092e-39
-1.3467783 2.6242838 0.66026264 7.8355537e-39
-1.3418885 2.6233938 0.6737358 9.7745318e-39
-1.3050179 2.6230617 0.69017547 1.2822788e-38
-1.3347147 2.6216097 0.69988126 1.337815e-38
-1.5629576 2.64855 0.266009 1.8162916e-38
-1.5536751 2.6487556 0.26628718 1.8162916e-38
-1.5414482 2.6484256 0.27467465 1.0324868e-38
-1.5589417 2.6475732 0.28035083 1.475132e-38
-1.550042 2.6474426 0.28499165 1.0786554e-38
-1.5470243 2.6479633 0.27902767 1.0324868e-38
-1.5309359 2.6479502 0.28444487 1.0324861e-38
-1.5196368 2.6484334 0.28167513 1.0970229e-38
-1.5205033 2.6472592 0.29706165 1.060216e-38
-1.5108495 2.6472554 0.30025658 1.1246079e-38
-1.3606417 2.6236172 0.66464448 7.6511541e-39
-1.3255892 2.6221406 0.69576323 7.9346115e-39
-1.3196757 2.6209369 0.71375847 2.2407501e-38
-1.34277 2.6199992 0.7187497 2.0287392e-38
-1.3121856 2.6208262 0.71767288 2.2958154e-38
-1.5722036 2.6479642 0.27081266 1.6134619e-38
-1.5672404 2.6476493 0.27663296 1.0970589e-38
-1.5580127 2.6473305 0.28389484 1.0970589e-38
-1.558277 2.6472611 0.28473344 1.1155336e-38
-1.5516485 2.6470897 0.28917983 1.2998882e-38
-1.5457486 2.6470413 0.29174858 1.3827189e-38
-1.5358182 2.6469319 0.29644376 1.1797441e-38
-1.345582 2.6213045 0.70041347 5.99706e-39
-1.3319682 2.6202188 0.71933866 2.2132353e-38
-1.7802151 2.6788857 -0.20959719 2.3509524e-38
-1.7779061 2.6788611 -0.20851496 2.3232937e-38
-1.5947499 2.6471968 0.27371138 2.3509886e-38
-1.5889521 2.6474054 0.27281746 1.5397411e-38
-1.5808775 2.6471527 0.27881983 1.2078373e-38
-1.572788 2.6469612 0.2840102 1.3368022e-38
-1.5653603 2.6468625 0.28774685 1.6410473e-38
-1.5580548 2.6467867 0.29113704 1.6318638e-38
-1.3829424 2.6201935 0.70306993 8.9418929e-39
-1.3500183 2.6192842 0.72592711 1.6232225e-38
-1.3387516 2.6190126 0.73322302 2.2591531e-38
-1.60882 2.6468136 0.27424049 1.8806835e-38
-1.6025513 2.6469336 0.27468428 1.8069269e-38
-1.5962685 2.6463983 0.28387526 1.8161466e-38
-1.5941527 2.6462786 0.28615776 1.474878e-38
-1.585816 2.6463819 0.28749996 1.1428297e-38
-1.57555 2.6457479 0.29930153 1.0229033e-38
-1.5706369 2.6461232 0.29589403 1.2811591e-38
-1.559299 2.6440699 0.32699031 1.0138281e-38
-1.3965224 2.6185105 0.72110641 8.0231862e-39
-1.6314999 2.6467521 0.267674 2.203476e-38
-1.6226188 2.6464663 0.27438435 2.0836938e-38
-1.6148726 2.6466248 0.27479202 2.0836579e-38
-1.6083103 2.6462851 0.28146073 1.7054032e-38
-1.5962642 2.6459918 0.2893016 1.6040602e-38
-1.591205 2.6456635 0.29532772 1.3272929e-38
-1.573813 2.6434283 0.33082208 1.0137918e-38
-1.5665244 2.6425142 0.34539643 9.9535267e-39
-1.5703174 2.6413295 0.35996884 9.8613325e-39
-1.561035 2.6405895 0.37287092 9.5843854e-39
-1.3840151 2.618165 0.72979075 7.1008642e-39
-1.6439152 2.6460571 0.27290475 2.0099016e-38
-1.6366068 2.6459808 0.27630335 1.9637319e-38
-1.6296325 2.6459677 0.27875257 2.018977e-38
-1.6225777 2.6458721 0.2823272 1.6685614e-38
-1.6132015 2.6454732 0.29070327 1.3274011e-38
-1.5961086 2.6434128 0.32376611 1.0598899e-38
-1.5905774 2.6425056 0.33767426 1.0045725e-38
-1.5845304 2.6417112 0.35024723 9.8613339e-39
-1.5848534 2.6406658 0.36409521 9.6769412e-39
-1.5762985 2.6400592 0.37497488 9.4003529e-39
-1.5647732 2.6390884 0.39168566 8.9390174e-39
-1.6639719 2.6455011 0.27379203 1.7700853e-38
-1.6564296 2.645381 0.27785441 1.7793049e-38
-1.6491671 2.6453135 0.28112251 1.8622449e-38
-1.6419055 2.645246 0.28438729 1.8069996e-38
-1.6360408 2.6450438 0.28899488 1.7331708e-38
-1.624876 2.6446385 0.2980389 1.5026086e-38
-1.6000144 2.6399941 0.36811876 9.7694984e-39
-1.5894686 2.6392655 0.3812747 9.4929101e-39
-1.3978883 2.6149106 0.76870441 1.4755998e-38
-1.3914585 2.6140614 0.7821334 1.3749433e-38
-1.7837709 2.6654177 -0.031021005 2.3417689e-38
-1.6907779 2.645653 0.26303497 2.0651468e-38
-1.6755228 2.6453156 0.27250898 2.0191574e-38
-1.6692382 2.6454134 0.27324858 1.880828e-38
-1.6639305 2.6452529 0.27711824 1.880828e-38
-1.6568969 2.6453278 0.27841225 1.8716084e-38
-1.650435 2.6451197 0.28329206 1.8439139e-38
-1.7025725 2.6454055 0.26249641 2.0651468e-38
-1.6924609 2.6454213 0.26558149 2.0558914e-38
-1.6884933 2.6452067 0.26973358 1.880864e-38
-1.6824452 2.6451964 0.27184239 1.8255105e-38
-1.6729631 2.6450298 0.27715692 1.8253663e-38
-1.6615264 2.6448984 0.28263247 1.807035e-38
-1.7176578 2.6452491 0.25967115 2.1298632e-38
-1.7128834 2.6451881 0.26204073 1.8533135e-38
-1.7047834 2.6453898 0.26198643 1.7150563e-38
-1.6965315 2.6451359 0.26806569 1.8072155e-38
-1.6857992 2.6450779 0.27233183 1.8346221e-38
-1.7382085 2.6447511 0.25962445 2.258721e-38
-1.7315829 2.6448035 0.26108256 1.8164711e-38
-1.7226567 2.6447122 0.26520798 2.0007902e-38
-1.7159954 2.6444681 0.27063659 1.678034e-38
-1.7082187 2.6443036 0.27536562 1.7333154e-38
-1.7938772 2.6527605 0.13460292 2.3509884e-38
-1.7530891 2.6446354 0.25631931 2.1849281e-38
-1.7442893 2.6441634 0.26548663 2.0283767e-38
-1.7373003 2.6441474 0.26797727 2.1020609e-38
-1.7318079 2.6438098 0.27426794 1.8622803e-38
-1.7219123 2.6438494 0.27696446 1.7054754e-38
-1.7590953 2.6439893 0.26298743 2.2495735e-38
-1.751087 2.6437109 0.26931179 2.1020611e-38
-1.7428401 2.6434577 0.27537638 1.825438e-38
-1.5688964 2.6135538 0.73110837 8.2932585e-39
-1.5921805 2.6136258 0.72256458 7.8319272e-39
-1.6181588 2.6138885 0.71059662 8.0170401e-39
-1.6080989 2.6138182 0.71481222 7.9244829e-39
-1.6043345 2.6127951 0.7296896 7.7411707e-39
-1.6263125 2.6129313 0.72071493 6.727746e-39
-1.6170951 2.6131594 0.72067469 8.1074183e-39
-1.6238271 2.6118803 0.73554856 7.6493338e-39
-1.6583407 2.611351 0.73137379 7.9273724e-39
-1.6526884 2.6112916 0.73400778 8.1027491e-39
-1.6674663 2.7467928 -1.0791144 1.6777061e-38
-1.6605082 2.7468903 -1.0781448 1.8897561e-38
-1.6002953 2.7485621 -1.0808465 1.1985044e-38
-1.5998355 2.7484324 -1.0789641 1.1430802e-38
-1.4240993 2.7487104 -1.0254327 1.2534263e-38
-1.4662924 2.7479804 -1.0294337 1.3271825e-38
-1.4607837 2.7476921 -1.0237941 1.5669283e-38
-1.4768555 2.7472396 -1.0229892 1.3271101e-38
-1.4775295 2.7474616 -1.0261711 2.1110989e-38
-1.5862627 2.7443178 -1.0196344 1.5763642e-38
-1.6094234 2.7440565 -1.0236901 1.4289593e-38
-1.6133168 2.743489 -1.017385 1.3369436e-38
-1.6339052 2.7434313 -1.0233191 1.2907015e-38
-1.6291003 2.7434289 -1.0217243 1.4658731e-38
-1.6495279 2.7426598 -1.0181124 1.438215e-38
-1.6803429 2.742559 -1.0268044 1.1339693e-38
-1.6735308 2.741905 -1.0158569 1.3092491e-38
-1.6626251 2.7421157 -1.0151169 1.309177e-38
-1.7014624 2.7415805 -1.0206256 1.263007e-38
-1.6919937 2.7418017 -1.0204935 1.0602127e-38
-1.7509472 2.7398715 -1.0139345 9.1259142e-39
-0.193544 2.7750707 -0.97639954 1.0787221e-38
-0.1784431 2.7752182 -0.97345251 1.0603195e-38
-0.21219563 2.7742505 -0.97153145 1.300064e-38
-0.19219363 2.7746406 -0.97022283 9.9571014e-39
-0.22964238 2.774313 -0.97804701 1.4015147e-38
-0.22173177 2.7735724 -0.96558785 1.2908443e-38
-0.20078315 2.7740622 -0.96529955 9.3124495e-39
-0.24788392 2.7737231 -0.9761163 1.3369417e-38
-0.26818609 2.7731013 -0.9744339 1.4660527e-38
-0.26169163 2.7728426 -0.96886629 1.4291381e-38
-0.28538123 2.7729518 -0.97803527 1.6595551e-38
-0.27852616 2.7721236 -0.96475071 1.4568693e-38
-0.30469242 2.7720811 -0.97270733 1.6136016e-38
-0.29529092 2.7723169 -0.97279394 1.5030027e-38
-0.32121548 2.7723105 -0.98115021 1.4567605e-38
-0.32560244 2.7712905 -0.9689697 1.761007e-38
-0.31863853 2.7716317 -0.9712559 1.761007e-38
-0.34668016 2.7718523 -0.98333067 1.7242725e-38
-0.33759272 2.7716093 -0.97712702 1.622785e-38
-0.36749837 2.7715199 -0.98567629 1.8808615e-38
-0.35066357 2.7707999 -0.97058338 1.7334562e-38
-0.37429833 2.7707708 -0.97789377 1.8255441e-38
-0.36419025 2.7700613 -0.96513313 1.7610793e-38
-0.38694698 2.7701523 -0.97376084 1.7610789e-38
-0.39965689 2.7703588 -0.98065579 1.5305894e-38
-0.40059233 2.7694123 -0.96832716 1.6873586e-38
-0.41211486 2.7703116 -0.98408407 1.4291741e-38
-0.41364241 2.769639 -0.97560233 1.4291741e-38
-0.41192192 2.768836 -0.96433014 1.7704066e-38
-0.44258791 2.7694721 -0.98280734 1.5489209e-38
-0.43273085 2.7699115 -0.98545933 1.6318611e-38
-0.42750826 2.7690058 -0.97167146 1.8716419e-38
-0.45724273 2.7688868 -0.97976863 1.8532388e-38
-0.44618779 2.7680461 -0.96494853 1.8993728e-38
-0.46990356 2.7680602 -0.97286111 1.8348718e-38
-0.46159288 2.7673204 -0.96027863 1.8994807e-38
-0.48717731 2.7683809 -0.98276806 1.7333123e-38
-0.48195001 2.7673359 -0.96711826 1.8809341e-38
-0.51297921 2.767319 -0.97699672 1.9177397e-38
-0.50048161 2.7678177 -0.97958565 1.8072129e-38
-0.50005126 2.766639 -0.96371233 1.9454353e-38
-0.52885717 2.7676086 -0.98603666 1.7885577e-38
-0.52806783 2.76666 -0.9731198 2.0283026e-38
-0.51840848 2.7658067 -0.95858669 1.9178483e-38
-0.54717273 2.7668693 -0.98213583 1.678067e-38
-0.54418045 2.7659931 -0.9694683 1.9362154e-38
-0.56184357 2.7660475 -0.9759478 1.8808976e-38
-0.55758792 2.7651484 -0.96256304 1.9454353e-38
-0.58074868 2.7661924 -0.98403889 1.4844198e-38
-0.57592642 2.7653012 -0.97057509 1.9085925e-38
-0.57055676 2.7644176 -0.95703501 1.9546908e-38
-0.5957278 2.7656505 -0.98168409 1.7242008e-38
-0.58901197 2.7646723 -0.96644533 2.0099721e-38
-0.6125536 2.7655554 -0.98589468 1.7242009e-38
-0.61599731 2.7644715 -0.97255272 1.8809338e-38
-0.60777521 2.763757 -0.96034276 1.9639103e-38
-0.63142174 2.7646892 -0.98048484 1.8071051e-38
-0.62923062 2.7638664 -0.96878916 1.9454348e-38
-0.62199622 2.763145 -0.95680463 1.9269961e-38
-0.64606994 2.7640402 -0.97659236 1.7886301e-38
-0.64062428 2.7631578 -0.96304172 1.9822414e-38
-0.67303205 2.7638037 -0.98221862 1.6965784e-38
-0.66369903 2.7642028 -0.98450559 1.4014801e-38
-0.66401666 2.7631071 -0.96998531 1.9085567e-38
-0.65533793 2.7624025 -0.95775682 1.9269963e-38
-0.6871525 2.7632377 -0.97926521 1.7518959e-38
-0.67708832 2.7625077 -0.96624434 1.9546907e-38
-0.66786861 2.7617939 -0.95371485 1.9270682e-38
-0.69977379 2.7625997 -0.97486216 1.8072136e-38
-0.69333053 2.761867 -0.96298623 1.9085932e-38
-0.71979815 2.7627289 -0.98310912 1.6319333e-38
-0.71301031 2.7618654 -0.96937156 1.8440201e-38
-0.70422035 2.7610395 -0.95549053 1.9361798e-38
-0.7338475 2.7619877 -0.9777931 1.8071054e-38
-0.73026121 2.7609916 -0.96333307 1.927032e-38
-0.7507748 2.7611971 -0.97275531 1.8072134e-38
-0.74482483 2.7603216 -0.9591344 1.908593e-38
-0.77440214 2.761276 -0.98150438 1.6781035e-38
-0.76262009 2.7606044 -0.96870619 1.8901538e-38
-0.75928128 2.759546 -0.95349294 1.8624952e-38
-0.78600138 2.7606881 -0.97743613 1.8163973e-38
-0.78295803 2.7596138 -0.96210641 1.8717148e-38
-0.80722988 2.7599392 -0.97435743 1.8440918e-38
-0.79572606 2.7589002 -0.95674556 1.8717149e-38
-0.8292048 2.7598202 -0.9799273 1.8255804e-38
-0.81844658 2.759017 -0.96570224 1.8440561e-38
-0.8112343 2.7581542 -0.95183957 1.8349086e-38
-0.84113044 2.759104 -0.97425395 1.8348001e-38
-0.83856696 2.7581971 -0.96131772 1.908593e-38
-0.85524416 2.758383 -0.96922934 1.825581e-38
-0.8486318 2.7574911 -0.9551723 1.7795552e-38
-0.8804425 2.7584143 -0.97785348 1.7978862e-38
-0.8735168 2.7576952 -0.96600229 1.8164334e-38
-0.86214405 2.7566805 -0.94875395 1.8624595e-38
-0.89367265 2.7576799 -0.97236186 1.8162895e-38
-0.88598746 2.756999 -0.96077061 1.7979944e-38
-0.90750647 2.756937 -0.96695441 1.7702636e-38
-0.89812225 2.7561224 -0.95302802 1.7887387e-38
-0.92412663 2.7571137 -0.97472703 1.6780316e-38
-0.91403341 2.7564209 -0.96219146 1.7702993e-38
-0.90920627 2.7554052 -0.9470644 1.7979584e-38
-0.93600625 2.7563982 -0.96904725 1.6688844e-38
-0.92696655 2.7554543 -0.95350599 1.7611162e-38
-0.96757758 2.7561159 -0.97556424 1.7425331e-38
-0.94929904 2.7556441 -0.96331358 1.7334576e-38
-0.94208694 2.7548051 -0.94976765 1.7703357e-38
-0.97819805 2.7556682 -0.97304803 1.7425331e-38
-0.96946919 2.7549627 -0.96079075 1.7242021e-38
-0.95928669 2.7540491 -0.94528264 1.7426773e-38
-0.99059749 2.7549453 -0.96744066 1.6596651e-38
-0.98168904 2.7542307 -0.95499945 1.8070342e-38
-1.0054421 2.754313 -0.96383417 1.6965429e-38
-0.99393618 2.753356 -0.94731593 1.7518249e-38
-1.0301754 2.7543004 -0.97172254 1.6780321e-38
-1.016601 2.7534552 -0.9560222 1.72413e-38
-1.0138403 2.7524951 -0.94231009 1.7425333e-38
-1.0526947 2.7531505 -0.96371102 1.6872158e-38
-1.0432686 2.7535195 -0.96556652 1.7424971e-38
-1.0354314 2.752593 -0.9506489 1.7425333e-38
-1.0638061 2.7526829 -0.96109325 1.6872158e-38
-1.0540129 2.7519391 -0.94797611 1.7609727e-38
-1.0845066 2.7528026 -0.9694345 1.6688487e-38
-1.0768121 2.7520752 -0.95721799 1.7149106e-38
-1.0803229 2.7508662 -0.94222784 1.7057633e-38
-1.0716217 2.7511559 -0.94325995 1.8163621e-38
-1.1004819 2.7520299 -0.96432549 1.6595931e-38
-1.0947976 2.7509248 -0.94772536 1.6411904e-38
-1.1184963 2.7522039 -0.97251451 1.6135311e-38
-1.1117322 2.7512469 -0.95753896 1.7148746e-38
-1.1085544 2.7503231 -0.94417691 1.6504461e-38
-1.1325179 2.751442 -0.96691108 1.6043116e-38
-1.1286737 2.7505369 -0.9535836 1.6688128e-38
-1.119203 2.7498431 -0.94123709 1.8439129e-38
-1.1510859 2.7507246 -0.96338916 1.6319345e-38
-1.1449976 2.7496867 -0.94755411 1.6780329e-38
-1.1681899 2.7508028 -0.97000331 1.5950201e-38
-1.1646622 2.7498937 -0.95671999 1.6318987e-38
-1.1707479 2.7486227 -0.94173938 1.2909566e-38
-1.1631472 2.7487857 -0.94144064 1.6780332e-38
-1.1920387 2.7499273 -0.96608645 1.5949843e-38
-1.1833789 2.7498536 -0.96228331 1.5950566e-38
-1.1867608 2.7490747 -0.95299011 1.5949487e-38
-1.1753092 2.7494404 -0.95413989 1.6318989e-38
-1.2024335 2.748863 -0.95526785 1.7610084e-38
-1.196391 2.7494218 -0.96075749 1.6134593e-38
-1.2065653 2.7483034 -0.94914806 1.6412263e-38
-1.2196168 2.7495253 -0.96970296 1.576617e-38
-1.2156141 2.7485523 -0.9554168 1.6227148e-38
-1.2251443 2.7473583 -0.94258618 1.2817366e-38
-1.2117896 2.7475924 -0.94136041 1.6780686e-38
-1.2401965 2.7485907 -0.96393263 1.5765813e-38
-1.2416245 2.7475946 -0.95110685 1.6965073e-38
-1.2359155 2.7475019 -0.94800693 1.604348e-38
-1.2248945 2.7471035 -0.9391042 1.4660907e-38
-1.2576696 2.7477636 -0.95858806 1.5765813e-38
-1.2496094 2.7469177 -0.94467312 1.7426413e-38
-1.2822534 2.7477944 -0.96700728 1.4935691e-38
-1.2826718 2.7466264 -0.95155615 1.6227867e-38
-1.2709634 2.7470112 -0.95287699 1.5489586e-38
-1.2616081 2.7464054 -0.9417454 1.2447133e-38
-1.290399 2.7473791 -0.96411616 1.4843495e-38
-1.2919283 2.7463613 -0.9510318 1.6227867e-38
-1.3093913 2.7469087 -0.96402526 1.5766174e-38
-1.3101562 2.7463403 -0.95668834 1.5766174e-38
-1.3014846 2.7466919 -0.95855796 1.5766174e-38
-1.3001208 2.7464736 -0.95520073 1.604276e-38
-1.3049635 2.7454541 -0.94317287 1.5859089e-38
-1.3237159 2.7466202 -0.96484315 1.5858725e-38
-1.3229222 2.7456121 -0.95113212 1.4843858e-38
-1.3422309 2.7456691 -0.95818067 1.6687406e-38
-1.3364432 2.7449586 -0.9468109 1.7701913e-38
-1.3685201 2.7448142 -0.95533288 1.5949478e-38
-1.3600905 2.7449956 -0.95500994 1.5949484e-38
-1.3890607 2.7449567 -0.96392637 1.6040239e-38
-1.3794707 2.7453156 -0.96559215 1.6040239e-38
-1.3820995 2.7449369 -0.9613961 1.5948039e-38
-1.3742913 2.745163 -0.96186829 1.6595209e-38
-1.3793683 2.7442257 -0.95101333 1.8345846e-38
-1.3754928 2.7446249 -0.95507878 1.7608281e-38
-1.3973892 2.7442908 -0.95775175 1.5671089e-38
-1.4146997 2.743438 -0.95200831 1.8068897e-38
-1.4304534 2.7432764 -0.95498371 1.4655863e-38
-1.4288117 2.743711 -0.96025187 1.622355e-38
-1.4451982 2.7429378 -0.95526963 1.7238789e-38
-1.4391418 2.7429941 -0.95404816 2.1388666e-38
