# .PCD v0.7 - Point Cloud Data file format
VERSION 0.7
FIELDS x y z rgb
SIZE 4 4 4 4
TYPE F F F F
COUNT 1 1 1 1
WIDTH 1092
HEIGHT 1
VIEWPOINT 0 0 0 1 0 0 0
POINTS 1092
DATA ascii
1.6339772 2.1913934 1.5408229 4.9810807e-39
1.6656834 2.1336117 1.5408244 4.5193907e-39
1.6711034 2.1200159 1.5408298 3.4126816e-39
1.6850667 2.0923827 1.5408335 2.3056208e-39
1.3304803 2.719137 1.5408421 2.3056068e-39
1.3615034 2.6691933 1.5408347 3.1357262e-39
1.3683578 2.6562457 1.5408356 3.1353619e-39
1.3493248 2.6957507 1.5408281 3.5967086e-39
1.3828394 2.6306837 1.5408353 3.5034227e-39
1.3894769 2.6176424 1.5408368 3.3190343e-39
1.3987271 2.6043341 1.5408325 3.3193958e-39
1.4060559 2.5929871 1.5408301 4.1491593e-39
1.4086664 2.5779088 1.5408443 3.5041444e-39
1.4191334 2.5668182 1.540834 3.5959771e-39
1.4267173 2.5508707 1.5408372 4.3328275e-39
1.4329554 2.5411294 1.5408354 3.6870937e-39
1.460299 2.4891474 1.5408396 3.6885343e-39
1.4672079 2.4762232 1.5408404 4.2424283e-39
1.4737219 2.4631283 1.5408424 4.2417094e-39
1.4550871 2.5028057 1.5408337 3.6881755e-39
1.4879676 2.4374642 1.5408427 4.3335435e-39
1.4947889 2.4245021 1.5408437 4.2417052e-39
1.5160015 2.3865016 1.5408438 4.6104906e-39
1.5846009 2.2564836 1.5408543 6.5469743e-39
1.6192012 2.1919274 1.540858 9.6827145e-39
1.6251367 2.1803572 1.5408593 4.4275426e-39
1.6337732 2.1665895 1.5408571 4.6115808e-39
1.6377834 2.1531415 1.5408657 4.058044e-39
1.6457092 2.1397009 1.5408647 4.8863726e-39
1.6518515 2.1258118 1.5408686 2.951342e-39
1.6639005 2.0998316 1.5408748 3.1353801e-39
1.678389 2.0775332 1.5408698 4.3342834e-39
1.3004633 2.7527359 1.5408692 1.8424609e-39
1.3132987 2.726723 1.5408735 2.3970836e-39
1.3211851 2.7117004 1.5408748 2.3059669e-39
1.3254298 2.6999133 1.5408806 2.766585e-39
1.3336953 2.6877675 1.540877 3.6878252e-39
1.3406758 2.6748948 1.5408775 4.0566049e-39
1.3468571 2.663728 1.5408777 4.1495208e-39
1.3692913 2.6236398 1.5408777 3.5037857e-39
1.3758382 2.610559 1.5408796 3.6878168e-39
1.3834108 2.5979214 1.5408784 3.5030668e-39
1.3946924 2.5871611 1.5408657 4.2413535e-39
1.3982102 2.5724971 1.540877 3.3197517e-39
1.4038522 2.5610118 1.540879 4.9785598e-39
1.4138942 2.5474551 1.5408729 3.5959757e-39
1.4411203 2.4955807 1.5408775 4.0569594e-39
1.4598465 2.4560168 1.5408858 4.3342652e-39
1.6037792 2.1840317 1.5409063 1.032809e-38
1.6098685 2.1747715 1.540904 7.101583e-39
1.6138501 2.1584234 1.5409167 4.1513187e-39
1.6239847 2.1450334 1.5409102 3.5052304e-39
1.6435248 2.1057472 1.5409162 2.4910841e-39
1.657457 2.0799482 1.5409175 3.5048829e-39
1.6642612 2.0669785 1.5409186 6.3629488e-39
1.4485077 2.4828632 1.5408769 4.2413493e-39
1.4552737 2.4698768 1.5408781 3.7810886e-39
1.638056 2.1192944 1.5409111 3.1350144e-39
1.3205862 2.680953 1.5409181 3.0424544e-39
1.3338867 2.6548808 1.5409213 3.22684e-39
1.3477694 2.6290598 1.5409228 3.3190315e-39
1.3538191 2.6182294 1.5409226 3.3190329e-39
1.3642166 2.6043482 1.5409163 3.9640491e-39
1.3696318 2.5907781 1.5409217 3.3190399e-39
1.3784639 2.5786848 1.5409167 5.3469878e-39
1.3873024 2.5668156 1.5409113 4.5179404e-39
1.392228 2.5528131 1.5409184 4.4253832e-39
1.4021029 2.5414143 1.5409099 5.8086876e-39
1.4194357 2.5009305 1.5409229 3.6881755e-39
1.4261346 2.4917068 1.5409192 3.9647652e-39
1.4319454 2.4742734 1.5409287 4.6101332e-39
1.4660362 2.4094708 1.5409341 4.9792745e-39
1.5029241 2.3460891 1.5409309 5.4395394e-39
1.5897729 2.1764271 1.5409507 7.3778126e-39
1.6137717 2.1398175 1.5409422 3.2293568e-39
1.6153955 2.1277301 1.5409547 3.597789e-39
1.6308137 2.1003869 1.5409544 3.5963554e-39
1.6359565 2.0853772 1.5409623 1.752803e-39
1.6409121 2.0739086 1.5409659 2.4914442e-39
1.6503067 2.0598543 1.5409622 5.6257411e-39
1.3275058 2.6350245 1.5409638 3.6874567e-39
1.3141881 2.6610889 1.5409607 3.5027109e-39
1.3351367 2.622412 1.5409623 4.60942e-39
1.3518329 2.5980265 1.5409551 3.3190343e-39
1.3559986 2.5843942 1.5409635 4.0566035e-39
1.3612585 2.5697699 1.5409707 3.6878154e-39
1.3680195 2.5568063 1.5409719 5.0707568e-39
1.3748522 2.5438564 1.5409727 3.5037843e-39
1.4056528 2.4937849 1.540966 3.6885329e-39
1.4204148 2.4683447 1.5409648 3.9651197e-39
1.4271688 2.4553533 1.5409662 3.8732842e-39
1.4543747 2.40347 1.5409708 5.624288e-39
1.5832196 2.1571782 1.5409929 6.2711021e-39
1.6065841 2.1195135 1.5409873 3.2286505e-39
1.6115772 2.1055527 1.540994 3.3204888e-39
1.616843 2.0918386 1.541 1.7538778e-39
1.6232892 2.0787144 1.5410023 1.8464307e-39
1.6316128 2.0645199 1.5410013 4.7041407e-39
1.2980316 2.6547151 1.5410087 3.9644093e-39
1.3069757 2.640873 1.5410057 3.3183168e-39
1.3136487 2.6278467 1.5410072 4.6090612e-39
1.3378748 2.590503 1.5409992 3.964768e-39
1.3430129 2.5768967 1.5410053 3.6881783e-39
1.3500477 2.5640266 1.5410056 3.5037829e-39
1.3569791 2.5511119 1.5410064 5.3473465e-39
1.3858718 2.4990871 1.541007 3.9647638e-39
1.3934245 2.4873118 1.5410047 5.1633112e-39
1.392591 2.4704692 1.5410297 5.4398981e-39
1.4401469 2.3961322 1.5410153 4.2413465e-39
1.5761158 2.1357884 1.5410391 5.0725645e-39
1.5941812 2.0962553 1.541049 2.3066942e-39
1.603933 2.0850706 1.5410405 1.9389851e-39
1.279513 2.659636 1.5410469 3.8725738e-39
1.2861416 2.6465907 1.5410485 3.1346458e-39
1.2943397 2.6341984 1.5410455 3.8722123e-39
1.30247 2.619432 1.5410459 4.7012541e-39
1.3191671 2.5832081 1.5410546 3.8718479e-39
1.3333666 2.5554497 1.5410578 4.3328303e-39
1.363811 2.5051451 1.5410523 3.687814e-39
1.3694558 2.4916742 1.541057 3.8722052e-39
1.3437644 2.5442121 1.5410478 4.6097773e-39
1.3806629 2.4807644 1.5410447 4.0573168e-39
1.3845198 2.4663644 1.5410548 5.4398981e-39
1.5675969 2.1185174 1.5410833 3.9651324e-39
1.5819939 2.0925295 1.5410838 1.9379103e-39
1.2796004 2.6266649 1.5410917 3.3190371e-39
1.289722 2.6152582 1.5410825 3.5027109e-39
1.2943419 2.6012151 1.5410905 4.8863698e-39
1.3068749 2.574811 1.5410959 4.5168614e-39
1.3208929 2.5490491 1.5410969 3.5034227e-39
1.3501271 2.4980428 1.5410954 3.8714864e-39
1.3568904 2.4850552 1.5410967 3.872208e-39
1.3634923 2.4719982 1.5410984 4.794886e-39
1.3714365 2.4595213 1.541096 4.8870816e-39
1.3782721 2.4465652 1.541097 3.8725668e-39
1.270152 2.6052363 1.5411438 3.687821e-39
1.2871642 2.5810144 1.5411354 4.7019799e-39
1.2908001 2.5664697 1.5411464 4.610143e-39
1.2821058 2.5947387 1.5411289 3.8722151e-39
1.3293401 2.5037806 1.5411381 4.3331904e-39
1.33621 2.4917903 1.5411377 3.779295e-39
1.3509235 2.4653776 1.5411379 3.6885343e-39
1.3576957 2.452394 1.5411391 4.1502313e-39
1.3634589 2.4388843 1.5411435 4.6108535e-39
1.5349739 2.1153431 1.5411669 5.9952453e-39
1.2590714 2.5995049 1.5411786 3.5030696e-39
1.2751789 2.574646 1.5411733 4.4253902e-39
1.2784386 2.5632455 1.5411808 4.7941756e-39
1.2866467 2.5477958 1.5411819 3.9644065e-39
1.3065753 2.5087404 1.5411866 3.7803726e-39
1.3153739 2.4965558 1.5411819 3.6878168e-39
1.3258063 2.4813633 1.5411772 3.8714906e-39
1.3498385 2.4356136 1.541181 5.1640287e-39
1.3995714 2.344105 1.5411847 4.8870802e-39
1.2524973 2.5795648 1.5412217 3.2264813e-39
1.2610004 2.5673475 1.5412177 3.3190357e-39
1.266538 2.5538125 1.5412227 3.4112341e-39
1.294623 2.5023093 1.5412245 3.504143e-39
1.3015659 2.4893501 1.5412252 4.3331918e-39
1.3082567 2.4761324 1.541227 3.9640463e-39
1.3367585 2.4250579 1.5412272 3.9654785e-39
1.2357824 2.570883 1.5412742 3.2264785e-39
1.2466669 2.5599465 1.5412626 3.3190315e-39
1.2554622 2.5478375 1.5412576 3.4115928e-39
1.2741731 2.5081928 1.5412662 3.5041444e-39
1.2809776 2.4952235 1.5412673 4.6105032e-39
1.2898188 2.4817569 1.5412642 4.6097787e-39
1.384686 2.3013899 1.5412791 4.8870816e-39
1.2588122 2.5002646 1.5413142 4.3339135e-39
1.2684387 2.4886158 1.5413067 4.7956161e-39
1.2753168 2.4756782 1.5413077 3.7810942e-39
1.2820169 2.4626634 1.5413091 3.8729311e-39
1.2892174 2.4498653 1.541309 3.5963414e-39
1.3261088 2.3864841 1.5413055 4.3339051e-39
2.0967948 0.93832421 1.5414037 3.8689542e-39
1.2400955 2.5051422 1.5413531 3.8725738e-39
1.2476791 2.4943655 1.5413494 4.5186593e-39
1.2535634 2.4831245 1.5413504 4.8870929e-39
1.2658919 2.4558516 1.5413575 3.7810942e-39
1.2749251 2.4424994 1.5413537 3.7807327e-39
2.0709152 0.95683032 1.5414414 3.9611555e-39
1.1975495 2.5510631 1.541394 3.22684e-39
1.2201811 2.5131133 1.5413907 4.4250315e-39
1.237434 2.4890432 1.5413815 4.517946e-39
1.2409707 2.4743671 1.5413929 4.7966825e-39
1.2646246 2.4344058 1.5413897 3.9654869e-39
1.1804397 2.5586836 1.5414252 2.581828e-39
1.2027506 2.5041387 1.5414453 3.5034255e-39
1.2096257 2.4911959 1.5414462 4.6094228e-39
1.2257848 2.4666152 1.5414402 3.5959827e-39
1.2337302 2.4541392 1.541438 5.1651245e-39
1.2391351 2.4405644 1.5414433 5.1640371e-39
1.2473339 2.4281976 1.5414402 3.8722094e-39
1.2537677 2.4150681 1.5414425 4.1487991e-39
2.0558891 0.91613823 1.5415334 4.6047242e-39
2.0654163 0.90451103 1.541526 8.1974559e-39
1.1839172 2.5109735 1.5414817 3.2264841e-39
1.2122333 2.460247 1.541482 3.59634e-39
1.2250547 2.4331434 1.5414877 3.6885413e-39
1.2337331 2.4211314 1.5414829 4.9785626e-39
2.0420198 0.90895551 1.5415769 3.4069069e-39
1.164362 2.5172436 1.5415207 2.7665906e-39
1.1704789 2.5039771 1.5415239 2.5818336e-39
1.2053156 2.4394815 1.541527 3.5041444e-39
1.2131307 2.4269488 1.541525 3.5967044e-39
2.0360959 0.88929659 1.5416179 1.123991e-38
1.1570491 2.49699 1.541566 2.5825608e-39
1.1903255 2.4324465 1.5415729 3.4119558e-39
1.9056447 1.102204 1.5416452 2.7647787e-39
2.0273304 0.88478303 1.5416454 1.0871128e-38
1.1875736 2.4114196 1.5416085 3.4115942e-39
1.8766308 1.0885459 1.5417343 2.6725859e-39
1.9591192 0.93514657 1.5417426 3.0417187e-39
1.9683288 0.91728729 1.5417445 3.1339143e-39
1.989136 0.88134581 1.5417429 3.3168651e-39
1.7188224 1.3518107 1.5417596 5.2544194e-39
1.9252892 0.96393543 1.5417857 2.949886e-39
1.93891 0.93800163 1.5417879 3.3179497e-39
1.954801 0.91465026 1.5417811 3.5941722e-39
1.9747006 0.87615341 1.541785 3.5005389e-39
1.1795737 2.3243732 1.5417463 1.2262022e-38
1.6827089 1.3990797 1.5417829 4.0565993e-39
1.7689847 1.2294365 1.5418042 4.6090528e-39
1.8425657 1.0843633 1.5418228 1.9364628e-39
1.8946973 0.98112261 1.5418365 2.3052439e-39
1.9257101 0.93110824 1.5418293 4.0537168e-39
1.9291309 0.9164046 1.5418409 3.5934562e-39
1.9358703 0.90341836 1.5418423 4.0547902e-39
1.7768319 1.1837677 1.5418473 4.1491537e-39
1.824381 1.0929716 1.5418552 3.2268386e-39
1.8833066 0.97617918 1.5418711 2.8573373e-39
1.8928336 0.96350902 1.5418651 4.0547958e-39
1.8975769 0.94944447 1.5418727 4.2388256e-39
1.903865 0.93620235 1.5418754 4.3306625e-39
1.912388 0.92609584 1.5418686 3.9611625e-39
1.9397335 0.86874402 1.5418801 4.6065207e-39
1.9440205 0.85801238 1.5418844 5.34372e-39
1.6303759 1.4213657 1.5418799 5.8075988e-39
1.7314956 1.2263657 1.5418994 4.7008855e-39
1.7484959 1.2021686 1.541891 4.3331848e-39
1.8707323 0.96861172 1.5419118 2.3963619e-39
1.8772284 0.95550889 1.5419139 4.7912805e-39
1.8809479 0.94102067 1.5419246 4.238827e-39
1.8973603 0.91647863 1.5419182 4.2384696e-39
1.9103076 0.8902536 1.5419225 5.0675044e-39
1.9312365 0.85156786 1.5419242 5.3444388e-39
1.7633371 1.1767622 1.5418897 4.1491537e-39
1.9248382 0.86471295 1.541922 5.1597015e-39
1.5910411 1.4670467 1.5419133 5.5313721e-39
1.6459801 1.3635082 1.5419207 5.5317308e-39
1.6599693 1.3385292 1.5419205 5.1629455e-39
1.7070088 1.2500497 1.5419267 4.8856355e-39
1.731414 1.2013466 1.5419338 4.4253804e-39
1.7549856 1.153347 1.5419418 4.1487921e-39
1.7667588 1.1290815 1.5419462 4.2402703e-39
1.8419652 0.98524272 1.541959 2.1212141e-39
1.851499 0.97502118 1.5419499 3.5023437e-39
1.859633 0.95495993 1.5419574 1.3822128e-39
1.8824859 0.90836936 1.5419654 3.5016235e-39
1.9044031 0.87060297 1.5419635 4.4235756e-39
1.9105097 0.85693055 1.5419674 5.1604175e-39
1.7811629 1.0707166 1.5419905 2.5818336e-39
1.640053 1.3438476 1.5419618 5.1625909e-39
1.6743343 1.2791122 1.5419666 4.7019631e-39
1.690315 1.254458 1.5419613 4.7008841e-39
1.7401288 1.1523 1.5419793 4.3328233e-39
1.7646959 1.1100104 1.5419772 4.0565965e-39
1.7766013 1.0853457 1.5419817 3.4112243e-39
1.8484471 0.94628197 1.5419965 3.8711262e-39
1.8809104 0.88390017 1.5420026 5.8043464e-39
1.8914866 0.86267954 1.5420058 3.2254009e-39
1.8867054 0.87767625 1.541997 3.7789306e-39
1.5511768 1.4793364 1.5419935 6.0852745e-39
1.5582863 1.4634756 1.5419978 5.8086834e-39
1.5728667 1.4374504 1.5419977 6.08455e-39
1.596781 1.3884206 1.5420064 5.346978e-39
1.6115475 1.3623556 1.5420059 4.7016114e-39
1.6240305 1.3387482 1.5420077 5.1629511e-39
1.6538981 1.2850018 1.5420083 4.6094158e-39
1.7077284 1.1809837 1.5420189 4.5168558e-39
1.7273854 1.1417482 1.5420246 4.1484348e-39
1.7323829 1.1285039 1.5420306 4.3321058e-39
1.7459323 1.1057526 1.5420284 4.1487935e-39
1.876698 0.85333198 1.5420544 4.0555175e-39
1.7621827 1.0772356 1.5420278 2.766215e-39
1.8186375 0.97371513 1.5420316 3.318314e-39
1.8234907 0.96053916 1.5420377 3.7789334e-39
1.8341581 0.94953138 1.5420268 4.0555203e-39
1.8364679 0.93432707 1.5420419 4.0555175e-39
1.8468307 0.92431772 1.5420303 4.0555147e-39
1.8567377 0.89535642 1.5420457 3.9633191e-39
1.8634938 0.88236588 1.5420469 3.8711262e-39
1.8743486 0.87140644 1.5420355 3.7789334e-39
1.5433106 1.4587629 1.5420405 5.25659e-39
1.5510609 1.4462023 1.5420388 6.17711e-39
1.5601599 1.4344319 1.5420326 6.2689455e-39
1.5924833 1.3686726 1.5420436 4.8867173e-39
1.5979835 1.3551093 1.5420487 4.6094144e-39
1.6268933 1.3046411 1.5420471 4.6101318e-39
1.6783801 1.1989317 1.5420659 4.60905e-39
1.6996081 1.1629255 1.5420634 4.4250231e-39
1.7080182 1.1480998 1.542063 4.4253818e-39
1.7195227 1.1202292 1.542073 4.0565979e-39
1.7393044 1.0984725 1.5420545 4.240629e-39
1.7399197 1.082823 1.5420743 3.5030626e-39
1.7488205 1.0683283 1.5420724 2.6740264e-39
1.798612 0.97200197 1.5420827 3.1342843e-39
1.8165393 0.94043601 1.5420821 4.0555203e-39
1.8204756 0.92601347 1.5420921 3.9640407e-39
1.8373255 0.90168852 1.5420842 3.8711234e-39
1.8435689 0.88847655 1.542087 3.7789306e-39
1.8558532 0.85939676 1.5420967 3.8711304e-39
1.8648375 0.85021937 1.5420874 3.871129e-39
1.526842 1.450255 1.5420922 6.3622243e-39
1.5478312 1.4109749 1.5420946 5.7161305e-39
1.5667032 1.3744957 1.5420984 5.3469836e-39
1.6586764 1.2051378 1.5421053 4.6097703e-39
1.6650237 1.1919706 1.5421078 4.701247e-39
1.8075751 0.91946262 1.5421323 3.9644009e-39
1.841354 0.85450983 1.5421387 3.9629673e-39
1.5784253 1.3613784 1.5420877 5.2555082e-39
1.5982631 1.3222209 1.5420928 4.794886e-39
1.6529169 1.2185591 1.542101 4.1487893e-39
1.7020414 1.1258531 1.5421078 4.3328261e-39
1.7078611 1.1150227 1.5421084 4.1484348e-39
1.7146109 1.1019943 1.5421097 4.0565979e-39
1.7373698 1.0643458 1.5421057 3.0424446e-39
1.783959 0.97345597 1.5421163 2.8584163e-39
1.8038163 0.93236703 1.5421239 3.9644023e-39
1.8182186 0.90836209 1.5421215 3.9644009e-39
1.824785 0.8952899 1.5421234 3.8722052e-39
1.8300812 0.88278401 1.5421275 4.0555175e-39
1.8407304 0.86089414 1.5421314 3.9629673e-39
1.4886503 1.4964037 1.5421221 6.8239242e-39
1.5273398 1.4173696 1.5421357 5.2555152e-39
1.535437 1.4071747 1.5421299 5.6239376e-39
1.653378 1.1859841 1.5421443 4.5172201e-39
1.6588346 1.1699969 1.5421528 4.3331862e-39
1.7135159 1.068547 1.542158 3.0420886e-39
1.8291434 0.84461832 1.5421818 4.055163e-39
1.8445164 0.81374812 1.5421865 4.6072493e-39
1.6746368 1.1472062 1.5421454 3.9644051e-39
1.6965456 1.1054581 1.5421491 4.2406276e-39
1.7210602 1.0558974 1.5421569 2.8576974e-39
1.7674447 0.97154725 1.5421591 3.1350031e-39
1.791815 0.92819959 1.5421588 3.9640449e-39
1.7965033 0.91348922 1.5421674 4.0562406e-39
1.8147908 0.88056666 1.5421678 4.1477131e-39
1.8286843 0.85386908 1.5421703 4.055163e-39
1.8504971 0.80954206 1.5421777 3.9640491e-39
1.8572247 0.79653943 1.542179 2.8598708e-39
1.4071002 1.6190735 1.5421534 9.1299023e-39
1.5484941 1.3460653 1.5421813 5.2547922e-39
1.4749053 1.4892746 1.5421653 5.3487899e-39
1.5155412 1.4113749 1.5421726 5.3477095e-39
1.5226405 1.3985331 1.5421727 5.4406254e-39
1.5595722 1.3351684 1.5421692 5.071117e-39
1.5852598 1.2822943 1.5421786 4.7008939e-39
1.6306134 1.1922015 1.5421911 4.5182977e-39
1.6384896 1.178126 1.5421911 4.6094144e-39
1.6458161 1.1654657 1.5421906 4.5168586e-39
1.688247 1.0882584 1.5421926 4.2409878e-39
1.6993936 1.0611873 1.5422024 2.5818364e-39
1.7068095 1.0476966 1.5422027 2.7662206e-39
1.7473654 0.97121507 1.5422083 2.9506119e-39
1.7721268 0.9173823 1.5422213 4.0562406e-39
1.7810106 0.90485102 1.5422168 4.0562406e-39
1.7945645 0.88070267 1.5422168 3.9640449e-39
1.8154087 0.8399033 1.5422217 4.2399116e-39
1.8276294 0.81481606 1.542226 4.1473544e-39
1.8327842 0.80046016 1.542233 5.4420981e-39
1.8427594 0.78909898 1.5422243 1.0884541e-38
1.3865352 1.6252942 1.542195 8.2990584e-39
1.4097477 1.5791591 1.5422013 6.8242913e-39
1.4538788 1.4949089 1.5422087 6.2700287e-39
1.5052301 1.3911633 1.542225 3.5045143e-39
1.514538 1.375855 1.5422232 4.7941742e-39
1.6172006 1.1836468 1.5422354 4.6094144e-39
1.6312294 1.1578891 1.5422364 4.5164985e-39
1.5581303 1.3013105 1.5422188 4.4257476e-39
1.5678221 1.2898479 1.5422108 4.7941714e-39
1.5717962 1.2753962 1.5422208 4.6097801e-39
1.6185119 1.1876941 1.5422267 4.6094144e-39
1.6354215 1.1552007 1.5422299 4.6086913e-39
1.6742958 1.0811083 1.5422363 4.1487921e-39
1.6810294 1.0680771 1.5422378 2.8584163e-39
1.775499 0.8847661 1.5422575 4.0562406e-39
1.8081081 0.82206541 1.5422636 4.239906e-39
1.8155692 0.80797976 1.5422646 4.3317527e-39
1.8216228 0.79468572 1.542268 7.0094294e-39
1.3818008 1.6059121 1.5422328 6.4551402e-39
1.3926306 1.5950514 1.5422212 3.6885609e-39
1.3983718 1.5815239 1.5422257 3.1361032e-39
1.4127612 1.5395912 1.5422478 2.8591505e-39
1.4355217 1.4999622 1.5422465 2.8587876e-39
1.4438542 1.4896438 1.5422403 6.4572954e-40
1.4674923 1.4375119 1.5422537 1.8442741e-39
1.4794854 1.4090936 1.5422633 6.2711119e-39
1.4941632 1.3838481 1.542262 6.4572954e-40
1.520684 1.3358104 1.5422628 3.9647708e-39
1.5346766 1.3223343 1.5422472 3.5959869e-39
1.5365336 1.3066983 1.542264 4.9792829e-39
1.5417594 1.2934825 1.5422692 3.0428159e-39
1.548333 1.2798368 1.5422719 5.0711128e-39
1.5547878 1.2666558 1.5422741 4.8867215e-39
1.672576 1.0439336 1.542291 0
1.6914248 1.0077134 1.5422946 0
1.3653007 1.5974426 1.5422844 8.1153902e-39
1.4806585 1.3768231 1.5423043 5.9938033e-39
1.5346135 1.2728591 1.5423146 5.0711128e-39
1.4006819 1.5331823 1.5422859 5.4431547e-39
1.413538 1.5069178 1.5422904 7.1015984e-39
1.4433845 1.4522775 1.5422921 6.7320859e-39
1.4609565 1.4141269 1.5423014 6.2711105e-39
1.509818 1.3272884 1.5423009 5.2565928e-39
1.5292211 1.2856809 1.5423104 4.9792815e-39
1.5505701 1.2480416 1.5423098 2.9506175e-39
1.345533 1.6030698 1.5423248 7.8391649e-39
1.358838 1.5765204 1.5423286 6.5484191e-39
1.3658355 1.5628496 1.5423301 3.8751129e-39
1.377708 1.5386194 1.5423343 6.7324516e-39
1.4076186 1.4872606 1.5423315 6.6406203e-39
1.4125193 1.4737766 1.542338 6.7328131e-39
1.4230714 1.4533397 1.54234 6.4562234e-39
1.4685147 1.3669474 1.5423473 5.8097722e-39
1.4808279 1.3421394 1.5423511 5.441347e-39
1.4884853 1.3312863 1.5423473 5.441347e-39
1.5163054 1.2820934 1.5423466 4.9792829e-39
1.324417 1.6092166 1.5423677 9.0377151e-39
1.3308947 1.5961059 1.5423698 7.2859855e-39
1.3954659 1.4771922 1.5423747 6.7328131e-39
1.3992755 1.466556 1.5423799 6.7328131e-39
1.4069394 1.4529291 1.5423799 6.4562248e-39
1.4144303 1.4412851 1.5423775 6.4562234e-39
1.4546694 1.3635756 1.5423855 6.2703902e-39
1.4763337 1.3242613 1.5423863 5.5335427e-39
1.5020583 1.2723225 1.5423946 0
1.5114435 1.259836 1.5423888 2.3974465e-39
1.3243524 1.5761797 1.5424129 6.6413294e-39
1.3383993 1.5504297 1.5424138 2.0297584e-39
1.3582443 1.5112755 1.5424188 7.1941584e-39
1.4052408 1.4202145 1.5424286 6.1789163e-39
1.4090272 1.4056836 1.5424391 6.3636677e-39
1.452746 1.3293735 1.5424368 5.81121e-39
1.3694062 1.5004284 1.5424066 7.0097644e-39
1.4022524 1.4361429 1.5424142 6.3640278e-39
1.4224976 1.3959532 1.5424197 6.2718322e-39
1.4410198 1.3561262 1.5424287 6.2711091e-39
1.1460785 1.8797909 1.5424329 1.0059779e-38
1.311139 1.5684215 1.5424556 6.6416909e-39
1.3262326 1.5404689 1.5424569 3.2311771e-39
1.3440632 1.506005 1.5424604 7.0094056e-39
1.3928109 1.4119557 1.54247 6.2718322e-39
1.4106542 1.3900599 1.5424564 5.9952453e-39
1.4108579 1.3748384 1.5424767 5.9034084e-39
1.4202162 1.3618569 1.5424716 6.0874437e-39
1.4247119 1.3488212 1.5424786 4.5193935e-39
1.4313426 1.3384796 1.5424764 3.1353745e-39
1.1464931 1.8469609 1.5424767 2.2132353e-38
1.3231405 1.5096372 1.5425063 6.9182862e-39
1.3036544 1.5489466 1.5425003 8.024638e-39
1.3890952 1.391252 1.5425072 6.1799939e-39
1.3920535 1.3803173 1.542515 6.1796365e-39
1.3981363 1.3670359 1.5425184 5.9952481e-39
1.4054947 1.3567258 1.5425143 6.1796393e-39
1.0927887 1.9180284 1.5425104 1.9639831e-38
1.1177894 1.8651875 1.5425216 5.9988494e-39
1.1286048 1.8519462 1.5425133 1.198941e-38
1.2070639 1.6971717 1.5425333 8.5778075e-39
1.21386 1.6853197 1.5425328 7.9320752e-39
1.1121303 1.845643 1.5425619 2.2867022e-38
1.1999757 1.6767744 1.5425782 7.8398824e-39
1.0770215 1.8770118 1.5426046 5.2577013e-39
1.0991524 1.8224206 1.5426251 1.899121e-38
1.1572402 1.7236109 1.5426183 8.301585e-39
1.1872466 1.6700846 1.5426183 7.4710984e-39
1.2121813 1.6333733 1.5426077 7.4707397e-39
1.0301392 1.9351128 1.5426394 1.0514653e-38
1.0849282 1.8290706 1.5426506 1.5947676e-38
1.1205199 1.7678404 1.5426474 1.1987241e-38
1.1319762 1.7404706 1.5426569 8.3927016e-39
1.138253 1.7283727 1.5426581 8.1168308e-39
1.1475862 1.7144924 1.5426542 8.5770943e-39
1.1520369 1.7013413 1.5426612 8.6692927e-39
1.160773 1.6861336 1.5426607 8.3005074e-39
1.1678916 1.6765513 1.5426564 8.1164734e-39
1.170797 1.6615115 1.5426699 7.7480483e-39
1.1793851 1.649497 1.5426654 7.2874288e-39
1.0231616 1.9149987 1.5426837 1.9546555e-38
1.0609447 1.8356647 1.5426999 1.8532417e-38
1.1443133 1.6809727 1.5427078 7.6554939e-39
1.1511666 1.6680242 1.5427088 7.5632969e-39
1.107627 1.760663 1.5426885 1.9549072e-38
1.1118178 1.7464802 1.5426975 8.4837986e-39
1.1184338 1.7334293 1.5426993 8.0242778e-39
1.1277157 1.7187105 1.5426967 8.3012248e-39
1.1601187 1.6559831 1.5427034 7.6554939e-39
1.1661146 1.642664 1.5427068 7.4718187e-39
1.1755353 1.6309708 1.5426999 7.287426e-39
1.1808355 1.617575 1.5427053 7.840967e-39
1.010983 1.9087396 1.5427219 1.4107742e-38
1.0919248 1.7526046 1.5427376 7.7458959e-39
1.0971491 1.7393172 1.5427431 8.4845301e-39
1.1098447 1.7136037 1.5427471 8.2086733e-39
1.1254452 1.6854659 1.5427476 7.5632997e-39
1.1361154 1.6601774 1.542756 7.4711026e-39
1.152635 1.6356497 1.5427493 7.2874316e-39
1.1600621 1.6229494 1.5427486 6.8264493e-39
1.1674968 1.6102525 1.5427477 8.3023122e-39
0.99495387 1.9004303 1.5427721 1.2080869e-38
1.062801 1.7706496 1.5427839 7.5647486e-39
1.0830562 1.734978 1.5427831 8.4834623e-39
1.1036326 1.6937988 1.5427892 7.6558554e-39
1.1127765 1.6808764 1.5427846 7.7480525e-39
1.1187818 1.6675308 1.542788 7.4714642e-39
1.124938 1.6542566 1.5427912 7.3792657e-39
1.1307904 1.6421492 1.5427935 7.3792671e-39
1.1400433 1.6290194 1.542789 7.8431306e-39
1.1452638 1.6156746 1.5427945 6.4583954e-39
0.98619318 1.8793977 1.542822 5.4435106e-39
1.0506108 1.7641928 1.5428222 7.013007e-39
1.0711621 1.7253439 1.5428251 8.2083117e-39
1.1021322 1.6753634 1.542818 7.7484126e-39
1.1052501 1.6605246 1.5428306 7.4714642e-39
1.1124297 1.6477172 1.5428307 7.3796259e-39
1.1266519 1.6220888 1.5428309 6.0896087e-39
1.0173891 1.7987051 1.5428561 1.4480817e-38
1.0262733 1.7846841 1.5428536 2.3234018e-38
1.0277897 1.7688669 1.5428714 8.297248e-39
1.0347862 1.7560103 1.5428718 7.5650961e-39
1.0413873 1.742934 1.5428735 7.5651045e-39
1.0506347 1.7311939 1.5428672 8.0250079e-39
1.0562068 1.7153124 1.5428753 7.6558554e-39
1.0706477 1.6885419 1.5428767 7.6554939e-39
1.0784384 1.6795691 1.5428699 7.5636584e-39
1.0850011 1.6664951 1.5428717 7.5643773e-39
1.0212089 1.7491083 1.5429144 7.472176e-39
1.0083793 1.7751582 1.5429099 7.0054427e-39
1.0146124 1.7657424 1.5429076 6.2671462e-39
1.0383331 1.7248274 1.5429058 7.7484154e-39
1.0424588 1.7105612 1.5429151 7.1959535e-39
1.0495808 1.697729 1.5429153 7.3796231e-39
1.0578614 1.6874232 1.5429091 5.7193787e-39
1.0690413 1.6581888 1.5429218 6.6416937e-39
1.0765948 1.6456496 1.5429205 0
1.0560274 1.6515957 1.5429624 6.5498568e-39
1.0058297 1.709843 1.5430051 5.1651259e-39
1.0134621 1.6990855 1.5430013 6.7338949e-39
1.0291864 1.6698245 1.5430028 6.7335306e-39
1.0368159 1.6580145 1.5430003 0
0.83761752 2.0003138 1.5430186 4.9800116e-39
0.84336376 1.986141 1.5430238 5.0718456e-39
0.97564238 1.741071 1.5430361 6.9179261e-39
0.98106527 1.7281932 1.5430404 6.9179261e-39
0.99034476 1.7190714 1.5430303 6.9186393e-39
0.99448967 1.7052683 1.5430388 7.0101189e-39
1.001016 1.6890845 1.543045 6.8253731e-39
1.0091952 1.6767094 1.5430422 6.7342509e-39
1.0149255 1.6632756 1.5430465 6.6413336e-39
0.81718177 2.0062034 1.5430602 5.0725645e-39
0.94133824 1.773756 1.5430748 7.5632969e-39
0.94482744 1.7590739 1.5430864 3.2290149e-39
0.95423543 1.7432613 1.5430851 6.8257276e-39
0.96799624 1.7213564 1.5430815 6.9179261e-39
0.96256542 1.7349198 1.5430762 6.9186393e-39
0.98181432 1.6955078 1.5430831 6.2743489e-39
0.99573159 1.6697019 1.5430844 0
0.81632775 1.9728251 1.5431076 4.1502425e-39
0.87728947 1.8559788 1.5431187 6.0867192e-39
0.8903411 1.8297989 1.5431226 5.9959642e-39
0.88451761 1.8431927 1.5431186 5.9948823e-39
0.92699361 1.7661 1.5431203 6.6416895e-39
0.94009525 1.7409247 1.5431225 6.8253647e-39
0.95445448 1.7143153 1.543124 6.8250088e-39
0.96026182 1.7022681 1.5431262 6.7338907e-39
0.6782819 2.200707 1.543133 2.8594967e-39
0.74987257 2.0703979 1.5431364 3.9647638e-39
0.79628891 1.9789958 1.543148 4.2428024e-39
0.85086054 1.8742071 1.5431581 4.7966923e-39
0.85435951 1.8605684 1.5431682 4.5193907e-39
0.86483026 1.8494058 1.5431579 9.219563e-41
0.92531973 1.7323556 1.5431702 6.825006e-39
0.87841058 1.8270543 1.5431553 5.3502318e-39
0.92152798 1.7466286 1.54316 6.640972e-39
0.93209296 1.7210932 1.5431691 6.7328117e-39
0.94577354 1.6971195 1.5431685 6.8253619e-39
0.73487234 2.0625267 1.5431836 3.9647652e-39
0.74139643 2.0494356 1.5431856 4.2413563e-39
0.78115165 1.9711554 1.5431955 3.7818187e-39
0.8443374 1.8528897 1.543203 4.4268336e-39
0.85265589 1.8429556 1.5431962 5.6257383e-39
0.85825461 1.8294652 1.543201 5.6260942e-39
0.87679267 1.7904038 1.5432091 5.6271774e-39
0.89106536 1.7645073 1.5432097 6.0888772e-39
0.89632207 1.7502213 1.5432163 6.5491337e-39
0.90298903 1.7372357 1.5432178 6.6406133e-39
0.90937614 1.7239829 1.5432204 6.6406175e-39
0.87368202 1.8043121 1.5431979 5.6268187e-39
0.9204787 1.7131646 1.543208 6.7328103e-39
0.93111289 1.7021328 1.5431972 0
0.72782052 2.0423801 1.5432281 3.872208e-39
0.88327539 1.743628 1.543257 6.3651026e-39
0.73498315 2.0295653 1.5432281 4.517946e-39
0.83069032 1.8481841 1.5432426 5.1647615e-39
0.8355518 1.8364936 1.5432466 5.2569558e-39
0.84617418 1.8232974 1.5432388 5.3495073e-39
0.85266525 1.8099505 1.5432411 5.441703e-39
0.87230706 1.7705742 1.5432471 5.8112086e-39
0.87760782 1.757089 1.5432525 5.9963201e-39
0.8914187 1.7312372 1.5432541 6.7331663e-39
0.89982581 1.7150756 1.5432556 6.6406175e-39
0.6583786 2.1384618 1.5432662 3.5956226e-39
0.7151193 2.0358789 1.543268 3.872208e-39
0.71985608 2.0217624 1.5432757 4.057321e-39
0.76003277 1.9476707 1.5432789 3.2279246e-39
0.76903981 1.9317231 1.5432787 2.8587834e-39
0.77430618 1.9180837 1.5432844 3.7810998e-39
0.78264046 1.9057807 1.543281 3.5041486e-39
0.78596216 1.8910298 1.5432929 3.5963442e-39
0.79889989 1.8671622 1.543294 4.9803773e-39
0.80734521 1.8526683 1.5432931 5.0725701e-39
0.82126355 1.8308675 1.5432889 5.3491528e-39
0.86407161 1.7500502 1.5432949 5.8097694e-39
0.86908191 1.7346033 1.5433037 6.1792722e-39
0.83098471 1.8153023 1.5432866 5.3495073e-39
0.84141636 1.802512 1.5432786 5.3495101e-39
0.88489491 1.7113189 1.5432971 0
0.67897576 2.0666237 1.543314 3.6896259e-39
0.64582962 2.13185 1.5433055 3.5030668e-39
0.71328193 2.0018985 1.5433186 3.8725668e-39
0.72061181 1.9891562 1.5433183 3.6885314e-39
0.72713286 1.9760642 1.5433202 3.6885343e-39
0.73510182 1.9639555 1.5433173 3.9651281e-39
0.74255681 1.9509485 1.5433168 3.0435278e-39
0.74920875 1.9399742 1.5433155 3.2279162e-39
0.75535411 1.924894 1.5433213 3.9654911e-39
0.76231986 1.9095306 1.5433252 3.8732927e-39
0.77068198 1.8996159 1.5433184 3.5041472e-39
0.77453417 1.8851782 1.5433286 3.5963442e-39
0.78803176 1.8591912 1.5433313 4.8889033e-39
0.81171846 1.8198779 1.5433272 5.1647601e-39
0.8172251 1.808167 1.5433297 5.441347e-39
0.82315022 1.7950047 1.5433333 5.3491514e-39
0.82617569 1.779858 1.5433465 5.3491528e-39
0.8363542 1.7686654 1.543337 5.2573201e-39
0.84486842 1.7564727 1.5433329 5.3491528e-39
0.85075212 1.7418599 1.5433385 5.6257383e-39
0.85609555 1.7295041 1.5433424 5.9023252e-39
0.8651312 1.72122 1.5433316 6.3633047e-39
0.84531343 1.7730162 1.5433093 5.1654846e-39
0.63676369 2.112052 1.5433547 3.5956212e-39
0.64202261 2.0969152 1.5433625 3.6885399e-39
0.65261471 2.0858629 1.5433519 3.9654925e-39
0.67692238 2.0325644 1.5433652 4.2417192e-39
0.68607187 2.020771 1.5433592 3.780011e-39
0.69735873 1.9936907 1.5433686 3.2268344e-39
0.70311248 1.9801337 1.543373 3.5026983e-39
0.73385119 1.9300485 1.5433666 3.2282792e-39
0.74782467 1.904267 1.5433676 4.1495208e-39
0.75999767 1.877707 1.5433741 4.7048624e-39
0.76733297 1.8649672 1.5433737 4.7045065e-39
0.81479913 1.7741091 1.5433819 5.3491528e-39
0.71577281 1.9699663 1.5433561 3.3193902e-39
0.72154987 1.9565527 1.5433602 4.1488019e-39
0.7280578 1.9434547 1.5433624 3.135722e-39
0.7414546 1.9174242 1.5433651 3.8732941e-39
0.75497562 1.8914472 1.5433677 3.5959827e-39
0.7885977 1.8264265 1.5433744 5.1647615e-39
0.79530251 1.8134137 1.5433758 5.0725645e-39
0.80557746 1.8021092 1.5433663 5.3491528e-39
0.80979139 1.7878553 1.5433754 5.3491528e-39
0.82294548 1.7617193 1.5433791 5.4413512e-39
0.8309173 1.7505111 1.5433749 2.4907253e-39
0.64053738 2.079644 1.5433897 3.4119474e-39
0.6463635 2.0661352 1.5433939 3.4119488e-39
0.65171278 2.0524635 1.5433995 3.3208405e-39
0.67911571 2.0006895 1.5434034 3.3186699e-39
0.69354445 1.9723476 1.5434068 3.5952568e-39
0.71327335 1.9358693 1.5434085 3.4115928e-39
0.72127301 1.9234236 1.543406 3.1364437e-39
0.72497994 1.908892 1.5434167 3.3208363e-39
0.73456848 1.8973491 1.5434092 3.3201161e-39
0.74778849 1.8712418 1.5434126 4.7956259e-39
0.75118506 1.8565103 1.5434244 4.795986e-39
0.76698613 1.8335588 1.5434173 4.797058e-39
0.7817753 1.8063788 1.5434183 5.1647615e-39
0.78647876 1.7936436 1.5434241 5.1647615e-39
0.80150896 1.7668768 1.5434241 5.3491528e-39
0.70183188 1.9627525 1.5433997 4.1488033e-39
0.70892912 1.9499096 1.5434 3.3190343e-39
0.81225288 1.7565637 1.5434121 5.717571e-39
0.60046673 2.1084726 1.5434477 3.2268386e-39
0.64428967 2.0321567 1.5434452 3.7803768e-39
0.65091383 2.019109 1.5434469 4.1488005e-39
0.67073524 1.9799447 1.5434519 3.5948939e-39
0.67855191 1.9674126 1.54345 3.4115802e-39
0.6179657 2.0844212 1.543438 3.3190343e-39
0.62516302 2.0716214 1.543438 3.6885427e-39
0.63210458 2.0587113 1.5434387 3.3197559e-39
0.63897234 2.045769 1.5434395 2.1204981e-39
0.68891418 1.9561771 1.5434401 3.9647652e-39
0.69617885 1.9434789 1.5434397 4.1491635e-39
0.70051438 1.9291738 1.5434487 3.1350017e-39
0.70983374 1.9175663 1.5434418 3.7821816e-39
0.71334499 1.9028983 1.5434533 3.2282792e-39
0.72341788 1.8915892 1.5434442 3.5045059e-39
0.72760975 1.8772429 1.5434536 3.5048675e-39
0.73398674 1.8649988 1.5434548 4.7037862e-39
0.74062335 1.8510463 1.5434575 4.8878215e-39
0.74690372 1.8378502 1.5434602 4.8878215e-39
0.76049936 1.815854 1.5434572 4.8892551e-39
0.76938629 1.8002268 1.5434568 4.7045023e-39
0.77639854 1.7869565 1.5434579 4.3346478e-39
0.78113252 1.7744555 1.5434632 5.1647643e-39
0.78759867 1.7599761 1.5434673 4.4286384e-39
0.79447573 1.7496072 1.5434647 4.1527592e-39
0.608522 2.0656848 1.5434865 3.2264785e-39
0.61493295 2.0498555 1.5434924 3.5027081e-39
0.62367612 2.0395904 1.5434852 3.5030696e-39
0.62918127 2.0282736 1.5434872 3.1342857e-39
0.63609767 2.0126598 1.5434916 3.4108712e-39
0.65662307 1.9758332 1.5434918 3.5030584e-39
0.66499043 1.960363 1.5434926 3.4108656e-39
0.67191827 1.9474469 1.5434933 3.5030612e-39
0.67897117 1.9345846 1.5434936 3.3193902e-39
0.72683048 1.8438967 1.5435008 5.0725687e-39
0.72931772 1.8287872 1.5435153 5.2562425e-39
0.71486664 1.8705468 1.5434935 4.7956175e-39
0.7212435 1.8573924 1.5434959 4.7048624e-39
0.74065346 1.8180501 1.5435024 5.0718471e-39
0.75135779 1.8070287 1.5434912 5.0725659e-39
0.75446898 1.7922004 1.543504 4.8896194e-39
0.76394051 1.7805278 1.5434968 4.6115878e-39
0.76839018 1.7663963 1.5435052 0
0.77672595 1.7546735 1.5435009 0
0.61689615 2.0190351 1.5435296 3.4115914e-39
0.62262368 2.004251 1.5435357 3.226833e-39
0.63017476 1.99458 1.5435306 3.8725682e-39
0.63692266 1.9788644 1.5435356 3.687814e-39
0.64432818 1.9671879 1.5435336 3.5030626e-39
0.65106642 1.9530475 1.5435363 3.7796523e-39
0.65864444 1.9431142 1.5435315 3.4108642e-39
0.66561049 1.9276444 1.5435356 4.5175873e-39
0.67105544 1.9140646 1.5435408 4.2402815e-39
0.67799073 1.9011517 1.5435416 3.2275561e-39
0.68527114 1.8883879 1.5435412 3.2279204e-39
0.69172233 1.8771197 1.5435408 3.873657e-39
0.6988247 1.8603241 1.5435464 4.5190362e-39
0.70732617 1.8503636 1.5435394 4.6115864e-39
0.71183378 1.8358092 1.5435482 4.6123136e-39
0.72824305 1.8117787 1.5435411 5.4406324e-39
0.73482591 1.7970448 1.543545 3.7811068e-39
0.740978 1.7851812 1.5435463 0
0.74658674 1.7718334 1.5435508 4.1502481e-39
0.63708997 1.9459275 1.5435799 3.410504e-39
0.64420456 1.9330921 1.5435802 3.6867336e-39
0.69136357 1.8421013 1.5435895 4.981099e-39
0.61094487 1.9982694 1.5435723 3.1349961e-39
0.62015337 1.98299 1.5435708 3.3193916e-39
0.6273064 1.9724815 1.5435677 3.5034255e-39
0.63111615 1.9592562 1.5435764 3.503064e-39
0.65186387 1.9204923 1.5435787 4.1484404e-39
0.65782791 1.9071593 1.5435823 3.2275575e-39
0.66513842 1.8944086 1.543582 3.1360821e-39
0.67258012 1.8817146 1.5435812 3.227919e-39
0.68092692 1.8694873 1.5435774 4.5193879e-39
0.68602473 1.8557047 1.5435839 4.3346478e-39
0.69953096 1.8297211 1.5435864 4.4279196e-39
0.7051993 1.8162603 1.5435909 2.860975e-39
0.71053797 1.8024142 1.5435969 1.3840247e-39
0.71911281 1.7904531 1.5435923 1.7535485e-39
0.72812092 1.7785069 1.5435866 0
0.56949192 2.0426691 1.5436127 3.4112313e-39
0.58983111 2.0019906 1.5436186 3.0420816e-39
0.59414047 1.9895619 1.543625 3.1346402e-39
0.60329628 1.977865 1.5436187 3.2271974e-39
0.61108989 1.965323 1.5436168 3.5037857e-39
0.61813313 1.9524567 1.5436172 3.2268344e-39
0.62349343 1.9376839 1.5436243 3.3186713e-39
0.63440907 1.911505 1.5436333 3.1353605e-39
0.67759317 1.8349614 1.5436325 5.2562411e-39
0.64587831 1.9008065 1.5436201 3.043525e-39
0.65263069 1.8878144 1.5436213 3.3197503e-39
0.66611695 1.8616171 1.5436242 4.7041449e-39
0.67475605 1.8493489 1.5436199 2.5818546e-39
0.68864566 1.8228346 1.5436223 1.2629752e-38
0.58193725 1.9833554 1.5436631 3.042083e-39
0.59334004 1.9726527 1.5436499 3.2268358e-39
0.59687996 1.9591872 1.5436597 3.2275575e-39
0.60575438 1.9436013 1.5436593 3.3201133e-39
0.61177611 1.9326104 1.5436596 3.134643e-39
0.61721826 1.9187781 1.5436652 3.2275617e-39
0.62286097 1.9055804 1.5436695 3.1350003e-39
0.63182724 1.8936514 1.5436639 3.1353577e-39
0.63823116 1.880139 1.5436668 3.5952666e-39
0.64593691 1.8678228 1.5436648 4.4261273e-39
0.65295058 1.8549436 1.5436653 4.7048624e-39
0.65675408 1.840483 1.5436757 1.1154336e-42
0.6732223 1.8159739 1.543669 2.2865961e-38
0.56549156 1.9748096 1.5437148 3.3186727e-39
0.57310903 1.9622821 1.5437133 3.1342801e-39
0.61615205 1.8855817 1.543713 3.3190315e-39
0.62305576 1.8726554 1.5437138 4.7012583e-39
0.58751547 1.9530081 1.5436909 3.3183112e-39
0.59075546 1.9382473 1.5437031 3.2264757e-39
0.60054815 1.9268116 1.5436949 3.2264771e-39
0.60481435 1.9125028 1.5437039 3.227926e-39
0.61014062 1.8988944 1.5437095 3.2275561e-39
0.63424355 1.8618268 1.5437014 4.0576951e-39
0.6384778 1.8472373 1.5437109 3.5099542e-39
0.64486021 1.8343481 1.543713 2.2126503e-42
0.64991802 1.8269573 1.5437108 2.3142544e-38
0.5058639 2.0594728 1.5437444 3.2264855e-39
0.56935579 1.9426914 1.543749 3.1342815e-39
0.57407826 1.929661 1.5437553 3.1346388e-39
0.596829 1.8919526 1.5437514 3.1357234e-39
0.60284358 1.8786416 1.5437548 4.0566077e-39
0.60868502 1.8629565 1.543762 4.240999e-39
0.62236446 1.8411046 1.5437584 2.4979406e-39
0.58479446 1.9185724 1.5437443 3.2257554e-39
0.59109545 1.9053851 1.5437469 3.2264715e-39
0.63453186 1.8313484 1.5437422 0
0.55413836 1.9359547 1.5437951 2.949886e-39
0.56080192 1.9229244 1.5437968 3.0424418e-39
0.57170165 1.9119688 1.5437851 3.1346388e-39
0.57457173 1.8986045 1.5437964 3.1342787e-39
0.58319932 1.8870384 1.5437912 3.4108656e-39
0.58979273 1.8722045 1.5437952 3.6889042e-39
0.59570324 1.8584567 1.5437996 4.1488005e-39
0.60367328 1.8464336 1.5437965 2.5829182e-39
0.50580329 1.993428 1.5438344 3.042083e-39
0.54789579 1.9146036 1.5438395 3.0420816e-39
0.55465382 1.9031684 1.5438386 2.9502475e-39
0.55939853 1.8891985 1.543846 3.0420844e-39
0.57869148 1.8496794 1.5438529 3.41196e-39
0.58764106 1.8378733 1.5438472 0
0.57005292 1.8780034 1.5438354 3.6885441e-39
0.57631016 1.8647972 1.5438381 3.4126802e-39
0.49197704 1.986264 1.5438778 3.0417173e-39
0.51913875 1.9343616 1.5438824 3.22684e-39
0.53318924 1.9086134 1.5438832 2.7662136e-39
0.54228711 1.8967751 1.5438774 2.9509664e-39
0.54654932 1.8825668 1.5438863 3.0417243e-39
0.55582339 1.8708253 1.5438797 3.7800208e-39
0.56264347 1.8578744 1.5438808 3.8722193e-39
0.56669223 1.8435413 1.5438904 3.4112383e-39
0.43598607 2.0577931 1.5439165 3.1339241e-39
0.47924739 1.9795738 1.5439178 3.1331969e-39
0.48548463 1.966359 1.5439206 3.5956296e-39
0.49222633 1.9533626 1.5439219 3.0417229e-39
0.51948714 1.901503 1.5439264 3.0428061e-39
0.53943181 1.8623918 1.543931 3.7800236e-39
0.54661959 1.8495879 1.543931 0
0.53391385 1.8759173 1.5439261 3.3190427e-39
0.42397499 2.0499592 1.5439563 3.3190399e-39
0.43109724 2.037127 1.5439565 3.1346472e-39
0.45069349 1.9978653 1.5439622 3.0420872e-39
0.4666186 1.9731376 1.5439574 3.5034339e-39
0.47878826 1.9437175 1.5439678 2.9495245e-39
0.49619517 1.9059412 1.5439769 2.9498874e-39
0.50477958 1.8940759 1.5439721 3.042446e-39
0.51852578 1.8652667 1.5439779 1.1063476e-39
0.44350213 1.9776583 1.5440073 3.1342843e-39
0.48018456 1.9143536 1.5440043 2.765499e-39
0.49246436 1.8889979 1.544009 3.4112341e-39
0.50524932 1.8611517 1.5440158 0
0.43017167 1.9707085 1.5440491 3.3190399e-39
0.47091937 1.8928572 1.5440561 2.8577002e-39
0.42520013 1.9844704 1.5440425 3.042453e-39
0.47919503 1.8805238 1.5440527 1.7509855e-39
0.41031778 1.9769129 1.544089 3.0420872e-39
0.41903752 1.9618641 1.5440882 3.1342857e-39
0.4576081 1.8853319 1.5440986 2.4889107e-39
0.46588936 1.8737686 1.5440942 2.5803846e-39
0.38102219 1.9948205 1.5441358 2.9502531e-39
0.3849031 1.9803342 1.5441461 3.041367e-39
0.39553979 1.9692742 1.5441353 3.3186769e-39
0.40940946 1.9434479 1.5441368 3.5030724e-39
0.40638164 1.9582847 1.5441239 3.4108754e-39
0.3609128 2.0008509 1.5441765 2.7651332e-39
0.36807749 1.988116 1.5441765 3.0417285e-39
0.38865244 1.948766 1.5441799 3.0417271e-39
0.39411652 1.935534 1.5441847 3.2268428e-39
0.39980569 1.9219655 1.5441893 3.1342843e-39
0.40749151 1.9121075 1.544184 2.9498888e-39
0.41400465 1.8986944 1.5441865 2.9495245e-39
0.42232493 1.8841999 1.544186 2.7658521e-39
0.36071652 1.9677572 1.544222 3.0417229e-39
0.36773747 1.9548811 1.5442225 2.9495287e-39
0.3816047 1.9290538 1.5442239 3.2268456e-39
0.38873076 1.9162233 1.544224 3.3190399e-39
0.40335059 1.888745 1.5442258 2.7654919e-39
0.36491817 1.9204257 1.5442761 2.1204883e-39
0.37512615 1.9091549 1.5442667 2.5818182e-39
0.38153139 1.896013 1.544269 2.6736565e-39
0.38983482 1.8836914 1.5442656 2.7658549e-39
0.33237633 1.9531317 1.5443108 3.0420844e-39
0.36015275 1.9020329 1.5443127 2.8584134e-39
0.37007076 1.8898717 1.5443052 2.7658549e-39
0.32564878 1.9331251 1.5443543 2.028294e-39
0.34693158 1.8945925 1.5443552 2.8584163e-39
0.35252875 1.8830409 1.5443573 1.2907332e-39
0.32439843 1.8994274 1.5444033 3.0431648e-39
1.4622183 2.423959 1.5409237 5.9008762e-39
1.3917899 2.4546802 1.5410532 4.0565993e-39
1.3009928 2.455904 1.5412722 4.2417136e-39
1.2825007 2.4298635 1.5413525 3.6885343e-39
1.2683171 2.3895354 1.5414419 4.1495096e-39
1.229201 2.402272 1.5415196 5.163314e-39
1.1999137 2.4200482 1.5415666 4.3339163e-39
1.1976262 2.3859265 1.5416187 4.2431654e-39
1.1814162 2.3940227 1.5416471 3.8733123e-39
2.6589108 1.1141627 1.539798 9.219563e-41
2.5706987 1.2498153 1.5398278 0
2.6586747 1.0810033 1.5398437 9.1841101e-41
2.6243474 1.1127096 1.539884 2.7550649e-40
2.6546028 1.0627561 1.5398785 5.5101298e-40
2.5426726 1.2355595 1.5399153 9.1835496e-41
2.5507534 1.2225552 1.5399134 0
2.6086736 1.1060687 1.5399312 1.8367239e-40
2.6160462 1.0913053 1.5399333 4.2038954e-45
2.5722895 1.1506275 1.5399588 0
2.5769069 1.1375605 1.5399655 9.1836897e-41
2.590601 1.1116582 1.5399674 9.2554362e-41
2.5953529 1.0975646 1.539975 9.1836897e-41
2.6044953 1.0858426 1.5399688 2.8025969e-45
2.620383 1.0566907 1.5399699 3.965868e-39
2.5132391 1.2200834 1.5400078 3.6734198e-40
2.5523913 1.1413971 1.5400199 0
2.5634251 1.1305454 1.5400078 9.1835496e-41
2.5939076 1.0639648 1.5400244 9.219563e-41
2.6033368 1.0523325 1.5400174 1.1938615e-39
2.5775819 1.1048431 1.5400083 9.1835496e-41
2.5911164 1.0788718 1.5400109 9.2197031e-41
2.6138079 1.0410428 1.5400074 5.6253866e-39
2.501055 1.2137733 1.5400461 6.4284847e-40
2.5416367 1.1358503 1.5400535 9.1835496e-41
2.5489299 1.1233407 1.5400529 9.1835496e-41
2.5538683 1.1090603 1.5400603 9.1836897e-41
2.5642295 1.0978838 1.5400505 9.2194229e-41
2.5789185 1.0663257 1.5400577 9.1835496e-41
2.5897338 1.0450326 1.5400604 3.2246834e-39
2.5982034 1.0331687 1.540056 1.0235507e-38
2.5717506 1.0852243 1.5400493 1.8367099e-40
2.578615 1.0722806 1.5400503 9.2194229e-41
1.8426857 2.4419887 1.5399745 1.6872574e-38
2.4940581 1.1936505 1.5400904 2.7586522e-40
2.5289626 1.1291842 1.5400935 6.4356594e-40
2.5363107 1.1164498 1.5400931 1.8402972e-40
2.5424817 1.1032063 1.540096 9.219563e-41
2.5502689 1.0896659 1.5400954 2.7586522e-40
2.558213 1.0782971 1.5400916 1.8402972e-40
2.5636666 1.0659065 1.5400953 9.2194229e-41
2.5850401 1.0271437 1.540096 9.6787307e-39
2.4742906 1.1999485 1.5401299 3.6770072e-40
2.4810984 1.1869917 1.5401311 3.6770072e-40
2.5012283 1.1449764 1.5401394 9.1835496e-41
2.5082924 1.1349725 1.5401359 1.8367099e-40
2.5222707 1.1091932 1.5401371 6.4392467e-40
2.5251088 1.0942614 1.5401504 4.6025788e-40
2.54267 1.0702786 1.5401404 3.6805945e-40
2.5519838 1.042217 1.5401559 1.8367239e-40
2.5586405 1.0291576 1.5401574 8.2651947e-40
2.5160644 1.1224214 1.5401341 3.6805945e-40
2.5368602 1.0836781 1.5401363 3.6806085e-40
1.8116804 2.4307408 1.5400652 3.3226538e-39
1.8253032 2.4045632 1.5400677 6.2732797e-39
2.4588237 1.1919557 1.5401785 1.8402972e-40
2.4723668 1.1659883 1.540181 1.8367099e-40
2.4674695 1.1797823 1.540174 4.6025368e-40
2.4865086 1.1402795 1.5401816 1.8367099e-40
2.4940567 1.1311924 1.5401756 1.8402972e-40
2.5027606 1.1154832 1.5401759 3.6805945e-40
2.5082958 1.1018527 1.5401809 3.6806225e-40
2.5139666 1.0885053 1.5401853 4.6025788e-40
2.5207722 1.0794499 1.5401812 4.5953621e-40
2.5277553 1.0625625 1.5401871 2.7550649e-40
2.5367589 1.0506251 1.5401815 1.8402972e-40
2.5398479 1.0397015 1.5401889 1.8403253e-40
2.5478995 1.0236191 1.5401912 1.0105492e-39
2.3565085 1.3528126 1.5402082 7.6486373e-39
2.4457755 1.1851281 1.5402195 3.6805945e-40
2.4585183 1.1588147 1.5402244 3.6806085e-40
2.4652822 1.1458274 1.5402256 5.5173184e-40
2.4733019 1.1333833 1.540223 1.8402972e-40
2.4993377 1.0809941 1.5402311 2.7586942e-40
2.3519197 1.3673095 1.5401996 2.027201e-39
2.4543905 1.1729413 1.5402153 3.6805945e-40
2.5115197 1.070582 1.5402156 3.6770212e-40
2.5154238 1.0561261 1.5402259 1.8367099e-40
2.5284848 1.0299503 1.5402297 1.8402972e-40
2.536428 1.0182259 1.5402263 2.7622676e-40
1.7866104 2.3940432 1.540176 5.7157759e-39
2.3394876 1.361022 1.5402384 1.750624e-39
2.3507693 1.3342683 1.5402473 1.4289272e-38
2.4274478 1.191323 1.5402557 5.5173184e-40
2.4469323 1.1535916 1.5402597 3.6805945e-40
2.454813 1.138675 1.5402608 2.7586522e-40
2.4601195 1.1264973 1.5402645 5.5173184e-40
2.4865983 1.0743535 1.540271 2.7586522e-40
2.526216 0.99588943 1.5402815 1.2874934e-39
2.4749863 1.1011025 1.5402629 1.1963754e-39
2.5021913 1.0492185 1.5402673 4.6025508e-40
2.5157111 1.0232412 1.54027 1.8403113e-40
2.5224755 1.0102541 1.5402712 4.5989775e-40
2.3159907 1.3653144 1.5402896 2.9448483e-39
2.512192 0.98871058 1.5403254 1.5640775e-39
2.411268 1.1837474 1.5403053 1.1052587e-39
2.4193523 1.1720344 1.5403016 7.3647903e-40
2.4266746 1.1582456 1.5403025 6.442848e-40
2.4320679 1.1450058 1.5403075 4.6061381e-40
2.4381804 1.1317374 1.5403106 2.7622535e-40
2.4471962 1.1197548 1.5403051 5.5173184e-40
2.4548354 1.1072646 1.5403035 8.279558e-40
2.4602933 1.0937033 1.5403087 4.6025508e-40
2.5003216 1.0147388 1.5403188 7.3576017e-40
2.5096939 1.0037746 1.540311 4.5953761e-40
2.5173113 0.98427743 1.5403191 3.6734198e-40
2.3026006 1.3584085 1.5403316 3.2221527e-39
2.3075278 1.3444685 1.5403388 1.4733252e-39
2.3139703 1.3295393 1.5403433 8.9390314e-39
2.3949976 1.1753335 1.5403563 9.2050876e-40
2.4117603 1.150951 1.5403488 4.5989635e-40
2.4153028 1.1363906 1.54036 4.6025368e-40
2.4244075 1.1245962 1.5403539 6.4464494e-40
2.4324775 1.1121739 1.5403512 7.361231e-40
2.4384215 1.0988324 1.5403548 9.197941e-40
2.4451435 1.0858271 1.5403562 7.3683917e-40
2.4931931 0.99522144 1.5403628 1.105972e-39
2.4995108 0.9820413 1.5403653 5.5245211e-40
2.371711 1.2291043 1.5403397 9.2051016e-40
2.4054883 1.1641507 1.540346 4.6025368e-40
2.4767468 1.036034 1.5403472 9.2015143e-40
2.4880447 1.0089068 1.5403568 1.3804023e-39
2.5113709 0.9715541 1.5403508 1.2889325e-39
1.7650834 2.349772 1.5402886 1.3830816e-38
2.2901797 1.3491989 1.5403744 2.3941997e-39
2.3652937 1.2074102 1.5403849 1.0123457e-39
2.3829288 1.1691222 1.5403941 9.2086749e-40
2.3913579 1.156886 1.5403903 4.6025368e-40
2.399806 1.1448349 1.5403861 4.5989495e-40
2.4035573 1.1303068 1.5403967 5.5244791e-40
2.4118972 1.1180552 1.5403931 6.4464494e-40
2.4182639 1.1048566 1.5403956 1.1963796e-39
2.4270525 1.0929793 1.5403905 9.197941e-40
2.4306874 1.0821521 1.5403963 7.3683917e-40
2.4602947 1.0275456 1.5403987 4.6025648e-40
2.4670374 1.0145495 1.5404 3.6806085e-40
2.4738226 1.0015714 1.5404012 6.442834e-40
2.4803767 0.98849386 1.5404031 1.2882109e-39
2.4938607 0.96250075 1.5404056 1.3807652e-39
2.3621328 1.1748563 1.5404369 1.0127044e-39
2.2771165 1.3432673 1.5404143 2.8562512e-39
2.3538995 1.2033662 1.540418 9.2051016e-40
2.370713 1.1626544 1.5404326 1.0127044e-39
2.3774302 1.1496472 1.540434 5.5244791e-40
2.3908248 1.1236155 1.5404369 7.361203e-40
2.3980978 1.1108485 1.5404366 5.5209058e-40
2.4048884 1.0978731 1.5404377 4.6025508e-40
2.4130285 1.0871412 1.5404325 5.5245071e-40
2.4467146 1.0217113 1.5404396 4.6025648e-40
2.454201 1.0079539 1.5404402 2.7622676e-40
2.4610147 0.99499512 1.5404413 6.442834e-40
2.468456 0.98236281 1.5404404 7.3576437e-40
2.4721243 0.97175521 1.5404459 1.2878549e-39
2.4754982 0.95292377 1.5404633 1.4726035e-39
2.4927745 0.93058854 1.5404518 1.5658698e-39
2.2462947 1.3621169 1.5404634 4.5132432e-39
2.316714 1.2335904 1.5404673 1.8438846e-40
2.3372262 1.1947243 1.5404704 1.1048986e-39
2.3479197 1.1711531 1.5404764 9.2051016e-40
2.3573215 1.1556784 1.5404747 7.3647903e-40
2.374233 1.1150572 1.5404887 6.4428621e-40
2.4447255 0.98661888 1.5404923 4.5989635e-40
2.4514561 0.97361732 1.5404937 8.2759706e-40
2.478817 0.92180115 1.5404977 7.371979e-40
2.3713944 1.1299398 1.5404755 7.3683917e-40
2.3850729 1.1040308 1.5404774 7.3648043e-40
2.3917856 1.0910218 1.5404788 6.4464494e-40
2.4392498 1.0001628 1.5404871 3.6841958e-40
2.4764967 0.93694466 1.5404826 1.1967369e-39
2.4868181 0.90934885 1.540495 1.6569892e-39
1.7279404 2.3211799 1.5404178 1.5858768e-38
1.7383231 2.302402 1.5404181 6.6427727e-39
2.2335956 1.355582 1.5405033 4.8813083e-39
2.3046579 1.2257127 1.5405073 2.3941927e-39
2.3319514 1.1754969 1.5405092 1.0130659e-39
2.3505619 1.135658 1.5405183 1.1049e-39
2.3564703 1.1214869 1.5405232 8.2867606e-40
2.3673625 1.10216 1.5405231 8.2867466e-40
2.426003 0.99027276 1.5405327 6.4392607e-40
2.4367752 0.96946102 1.540535 5.5209198e-40
