# .PCD v0.7 - Point Cloud Data file format
VERSION 0.7
FIELDS x y z rgb
SIZE 4 4 4 4
TYPE F F F F
COUNT 1 1 1 1
WIDTH 1041
HEIGHT 1
VIEWPOINT 0 0 0 1 0 0 0
POINTS 1041
DATA ascii
-0.98491001 -3.0540385 1.4493537 1.1237038e-38
-0.95864391 -3.1064103 1.4492636 1.1053367e-38
-0.94522178 -3.1324506 1.4492234 1.2711445e-38
-0.91776478 -3.1842217 1.4491533 1.1789488e-38
-1.5639677 -2.0175054 1.450387 4.5991036e-40
-1.4823729 -2.1732104 1.4501635 1.2611686e-44
-1.4518733 -2.2399385 1.4500113 1.289664e-39
-1.4399594 -2.2503006 1.4500785 1.6580878e-39
-1.4265779 -2.2761755 1.4500391 2.8522996e-39
-0.768911 -3.5434365 1.4481394 1.1054832e-38
-1.4353434 -2.2452209 1.4501778 2.6729656e-39
-1.4252136 -2.261955 1.450171 1.9325097e-39
-0.86017007 -3.3522356 1.448527 1.3355009e-38
-0.85516417 -3.3661232 1.4484782 1.1697286e-38
-0.85416877 -3.3821199 1.4483619 1.3262809e-38
-0.83917028 -3.3908587 1.4484812 1.1789839e-38
-0.83267075 -3.4039853 1.4484576 1.2249743e-38
-0.81936324 -3.4300835 1.4484154 1.1238105e-38
-0.8121525 -3.4428513 1.4484037 1.2711795e-38
-0.81358528 -3.4600785 1.4482465 1.1237748e-38
-0.80421281 -3.4717121 1.4482713 1.206678e-38
-0.79435045 -3.4828565 1.4483061 1.2619235e-38
-0.76602423 -3.5355556 1.4482396 1.0133559e-38
-1.4250298 -2.2591207 1.4501963 1.0138002e-39
-0.92204267 -3.2193921 1.4488156 1.2250827e-38
-0.91646963 -3.2329867 1.4487764 1.1698009e-38
-0.90947402 -3.245863 1.4487611 1.0315795e-38
-0.90307474 -3.2590404 1.4487357 1.1237035e-38
-0.89731175 -3.2718782 1.4487051 1.151327e-38
-0.88896626 -3.284734 1.448707 1.2434492e-38
-0.88383424 -3.3009198 1.4486414 1.2526327e-38
-0.87453306 -3.3102179 1.4486841 1.2710359e-38
-0.87196153 -3.3253727 1.4485945 1.2710001e-38
-0.86473596 -3.3381333 1.448583 1.3170978e-38
-0.84314561 -3.376054 1.4485502 1.2065708e-38
-0.82491004 -3.416476 1.448455 1.0961519e-38
-0.80423075 -3.4387658 1.4485369 1.2711795e-38
-0.80339938 -3.4542999 1.4484221 1.197494e-38
-0.77384031 -3.5055516 1.4483827 1.1420011e-38
-0.76712406 -3.518569 1.4483627 1.1237047e-38
-0.7656455 -3.5262482 1.4483194 1.0318681e-38
-1.0659145 -2.9310477 1.4493207 1.2894028e-38
-1.0398166 -2.9835048 1.4492278 1.1236676e-38
-1.0327213 -2.9963307 1.4492142 1.1513269e-38
-1.0260018 -3.0093465 1.4491942 1.142071e-38
-1.0206395 -3.0210905 1.4491674 1.2987669e-38
-1.0148411 -3.0326407 1.4491475 1.1421079e-38
-1.0086757 -3.049865 1.4490867 1.2066082e-38
-1.0006597 -3.0621939 1.4490886 1.2711077e-38
-0.98934144 -3.0852702 1.4490458 1.188204e-38
-0.97965509 -3.1007926 1.4490432 1.1144842e-38
-0.97149551 -3.1130514 1.4490473 1.1237038e-38
-0.96741551 -3.1255443 1.4489982 1.2250462e-38
-0.9603526 -3.1379855 1.4489874 1.2711805e-38
-0.95311296 -3.1531553 1.4489566 1.2342308e-38
-0.93286592 -3.1902251 1.4489138 1.2619252e-38
-0.92839682 -3.206192 1.4488416 1.2343022e-38
-0.79288691 -3.4659431 1.4484613 1.3446838e-38
-0.78595406 -3.4788513 1.4484448 1.3448273e-38
-0.75895399 -3.5299559 1.4483743 1.1423594e-38
-1.5920049 -1.9971479 1.4501964 9.219563e-40
-1.5835465 -2.0111773 1.4501903 2.765981e-40
-1.5672355 -2.0507858 1.4500772 1.4012985e-45
-1.5092986 -2.1541831 1.4499764 6.4430022e-40
-1.4823118 -2.2067051 1.4498942 3.3179777e-39
-1.428116 -2.3109143 1.4497395 4.5003008e-39
-1.5741264 -2.0228395 1.4502155 2.7623516e-40
-1.5678694 -2.0360925 1.4501877 4.6026489e-40
-1.4923161 -2.1788614 1.4499922 7.3650846e-40
-1.4836088 -2.1904199 1.4500091 3.0414118e-39
-1.4816365 -2.2032566 1.4499305 5.7143564e-39
-1.4606079 -2.2432728 1.4498739 1.4740539e-39
-1.4273374 -2.2971742 1.4498601 4.6850536e-39
-1.4299933 -2.311126 1.4497139 4.9591224e-39
-0.77315962 -3.5581307 1.4479672 1.1328891e-38
-1.4501622 -2.2482738 1.4499657 1.1985474e-39
-1.4277915 -2.2770231 1.4500169 2.6700775e-39
-1.4262652 -2.293349 1.4499046 4.2269524e-39
-0.87239003 -3.3586009 1.4483209 1.4645016e-38
-0.86977768 -3.371038 1.4482538 1.2341579e-38
-0.86166191 -3.3860006 1.4482358 1.3262809e-38
-0.85299402 -3.3980231 1.4482484 1.2802544e-38
-0.84629685 -3.4110506 1.4482281 1.1605808e-38
-0.83867377 -3.4258814 1.448205 1.1513971e-38
-0.83374792 -3.4375603 1.448173 1.1053714e-38
-0.82682592 -3.4477346 1.4481785 1.1790195e-38
-0.82064015 -3.4637396 1.4481277 1.1237748e-38
-0.81511271 -3.4773571 1.4480878 1.206678e-38
-0.80923468 -3.483536 1.4481124 1.3724505e-38
-0.79209912 -3.5147054 1.4480778 1.215862e-38
-0.77082491 -3.5550964 1.4480212 1.0592743e-38
-1.4458743 -2.2534776 1.449978 1.845e-39
-1.4349473 -2.2639658 1.4500316 3.4098188e-39
-1.4315884 -2.2790689 1.4499524 1.7502946e-39
-1.0397727 -3.0329459 1.4488297 1.2158262e-38
-1.0348247 -3.0468771 1.4487799 1.2342652e-38
-0.98978227 -3.1225212 1.4487398 1.1237038e-38
-0.98274797 -3.1353779 1.448725 1.2066431e-38
-0.94781184 -3.1997814 1.4486476 1.1237042e-38
-0.94389552 -3.2142279 1.4485807 1.2342662e-38
-0.93520439 -3.2262325 1.4485939 1.0592761e-38
-0.92863113 -3.2393222 1.4485714 1.1882399e-38
-0.92182475 -3.2522943 1.448553 1.1790203e-38
-0.9142496 -3.2648783 1.4485472 1.0683128e-38
-0.90958065 -3.2789636 1.4484928 1.1789132e-38
-0.90033031 -3.2906675 1.4485154 1.2526682e-38
-0.89881653 -3.3051577 1.4484178 1.2341938e-38
-0.89112628 -3.318836 1.4484047 1.2710717e-38
-0.88472009 -3.3320098 1.4483795 1.2710359e-38
-0.8740471 -3.3430777 1.4484252 1.3723426e-38
-0.80663949 -3.4739461 1.4482225 1.3263881e-38
-0.78775609 -3.5131702 1.4481452 1.3356084e-38
-0.77240157 -3.5378115 1.4481407 1.2525247e-38
-1.0379068 -3.0155108 1.4489938 1.1789486e-38
-1.0244333 -3.0415268 1.4489545 1.1789495e-38
-1.0210787 -3.0562806 1.4488779 1.160547e-38
-1.0139483 -3.0690894 1.4488649 1.1973877e-38
-1.0045286 -3.0807106 1.4488903 1.1789861e-38
-0.99989748 -3.0948122 1.4488351 1.0868617e-38
-0.99415547 -3.1083212 1.4487989 1.0960812e-38
-0.97390783 -3.1473236 1.4487405 1.2711445e-38
-0.95089233 -3.1838765 1.4487369 1.1328877e-38
-0.79877418 -3.4855194 1.4482287 1.3539392e-38
-0.7919426 -3.4984787 1.4482107 1.3540111e-38
-1.5998095 -2.0058658 1.4500273 4.6026629e-40
-1.5737988 -2.0630262 1.4498954 3.5873241e-43
-1.5511338 -2.1098664 1.4498045 0
-1.5478066 -2.1246717 1.4497272 2.8025969e-45
-1.537627 -2.1384444 1.4497448 9.2197031e-41
-1.5277309 -2.1472769 1.4497989 1.4012985e-45
-1.5208569 -2.1602147 1.4497814 9.1846707e-41
-1.4861027 -2.2277496 1.4496765 1.1056287e-39
-1.4749775 -2.2534845 1.4496098 2.210184e-39
-1.4332871 -2.3312337 1.4495102 3.2146011e-39
-1.5921988 -2.0164557 1.4500383 2.7623516e-40
-1.5701824 -2.0558271 1.4499992 9.18397e-41
-1.551783 -2.0938311 1.4499255 1.4012985e-45
-1.5115852 -2.1719429 1.4498042 1.8439686e-40
-1.502811 -2.1831174 1.449825 7.0064923e-45
-1.4848312 -2.223434 1.4497274 3.5016627e-39
-1.4688801 -2.2534955 1.4496868 3.1321403e-39
-1.4310997 -2.3278987 1.4495648 6.5206846e-39
-1.4279494 -2.3430965 1.4494821 6.4295637e-39
-0.86866784 -3.4061413 1.4479846 1.4183677e-38
-0.86146897 -3.418915 1.4479727 1.2802544e-38
-0.85532051 -3.432219 1.4479432 1.225081e-38
-0.84894681 -3.4454095 1.4479175 1.1329938e-38
-0.82874691 -3.484436 1.4478583 1.2066783e-38
-0.81491625 -3.5267632 1.4476919 1.1974224e-38
-0.80281633 -3.5371249 1.4477614 1.298766e-38
-0.79357213 -3.5651941 1.447652 1.2895463e-38
-0.78248298 -3.576299 1.4477028 1.0960462e-38
-1.5821911 -2.0270996 1.4500791 2.6733187e-39
-1.5728474 -2.0365438 1.450121 2.8577142e-39
-1.5686705 -2.0517519 1.4500513 9.2199834e-41
-1.5574806 -2.0803194 1.4499624 1.4012985e-45
-1.5501835 -2.0930347 1.4499522 9.219563e-41
-1.5006485 -2.1860907 1.4498285 6.4431283e-40
-1.4871721 -2.1923418 1.4499485 3.6774556e-40
-1.488758 -2.2061918 1.4498168 8.2961984e-39
-1.4625802 -2.253896 1.4497633 1.751717e-39
-1.4287474 -2.3105762 1.4497342 4.0418408e-39
-1.4260961 -2.325161 1.4496502 7.2557245e-39
-1.0386047 -3.0653236 1.4485832 1.2158264e-38
-1.0379354 -3.0814538 1.4484617 1.2250815e-38
-0.91869611 -3.3014054 1.4481963 1.2157548e-38
-0.91323119 -3.3137825 1.4481657 1.2986583e-38
-0.90864563 -3.3214965 1.4481615 1.1881331e-38
-0.88578504 -3.3652954 1.4480975 1.2802556e-38
-0.87442547 -3.3893528 1.4480472 1.3446843e-38
-0.8398068 -3.4572039 1.447938 1.2618516e-38
-0.83301288 -3.4701822 1.4479192 1.1974589e-38
-0.82039666 -3.495008 1.4478786 1.4092563e-38
-0.80501121 -3.5221074 1.4478548 1.3171691e-38
-0.79027957 -3.5470579 1.44784 1.2157549e-38
-0.77954966 -3.5703037 1.4477882 1.142144e-38
-1.5453106 -2.0905752 1.4500338 2.8025969e-45
-1.4905403 -2.1941369 1.4498916 9.0327209e-39
-1.4541719 -2.2559373 1.4498532 3.1350172e-39
-1.4360842 -2.2962465 1.449757 2.0247123e-39
-1.4323542 -2.3125162 1.4496729 2.6643112e-39
-1.0608956 -3.0109458 1.4487399 1.3079147e-38
-1.0563813 -3.0265598 1.4486711 1.2157906e-38
-1.0508336 -3.0386813 1.4486436 1.2158264e-38
-1.0448929 -3.0520902 1.4486104 1.2342652e-38
-1.0317595 -3.0617976 1.4486984 1.2158264e-38
-1.0301178 -3.0767164 1.4485989 1.188169e-38
-1.0233915 -3.0904803 1.4485729 1.19746e-38
-1.0142548 -3.1022561 1.4485936 1.1513271e-38
-1.0076081 -3.1153085 1.4485724 1.1973877e-38
-1.0024835 -3.1310198 1.4485105 1.1144842e-38
-0.99323189 -3.1408217 1.4485486 1.1237038e-38
-0.98836929 -3.1555526 1.4484912 1.2250468e-38
-0.96041673 -3.2063413 1.4484352 1.2158271e-38
-0.95736766 -3.2173777 1.4483849 1.2158268e-38
-0.94585347 -3.2317572 1.4484146 1.1329233e-38
-0.94086087 -3.2456775 1.4483654 1.0684593e-38
-0.93297714 -3.2580781 1.4483652 1.2341939e-38
-0.92779773 -3.2718971 1.4483192 1.0499124e-38
-0.9224419 -3.2856283 1.4482762 1.1972072e-38
-0.90913886 -3.2952199 1.4483672 1.1420709e-38
-0.90877777 -3.3101676 1.4482512 1.2802189e-38
-0.90252453 -3.32268 1.4482293 1.3262807e-38
-0.89676106 -3.338285 1.4481765 1.3078775e-38
-0.88631707 -3.3493845 1.4482191 1.2986581e-38
-0.8753441 -3.3766975 1.4481376 1.4276596e-38
-0.81390208 -3.4928353 1.4479784 1.3723062e-38
-0.78550249 -3.5429969 1.4479331 1.2157549e-38
-0.78032547 -3.5574386 1.4478822 1.160511e-38
-1.4437099 -2.2689452 1.4498806 4.8860181e-39
-1.6159983 -2.0128894 1.4497659 1.197474e-39
-1.5823181 -2.0765848 1.4496783 0
-1.5737169 -2.0900333 1.4496787 0
-1.5712525 -2.1038387 1.4495986 0
-1.5626857 -2.1174054 1.4495976 0
-1.5263839 -2.1796093 1.449555 9.2202636e-41
-1.4966164 -2.2451999 1.4494028 4.6026489e-40
-1.4852215 -2.2632971 1.449401 3.1317717e-39
-0.82596385 -3.5332093 1.4475001 1.2987657e-38
-0.81843424 -3.5450573 1.4475 1.1974224e-38
-0.81637698 -3.5604804 1.4474015 1.3079493e-38
-0.81101841 -3.5742059 1.4473587 1.2066417e-38
-0.78857362 -3.5955453 1.4474705 1.0593112e-38
-0.78671777 -3.6104815 1.4473736 1.1328533e-38
-1.6042296 -2.0228679 1.4498343 2.765953e-40
-1.5778486 -2.0740166 1.4497557 1.4012985e-45
-1.573342 -2.088505 1.4496958 3.5873241e-43
-1.5621146 -2.0992005 1.4497515 9.219563e-41
-1.5581043 -2.1136086 1.4496861 9.2197031e-41
-1.5499004 -2.1259592 1.4496903 1.4012985e-45
-1.5454046 -2.1400106 1.4496338 0
-1.5391279 -2.1532269 1.4496067 9.1836897e-41
-1.5319018 -2.1660137 1.449595 1.4012985e-45
-1.5192685 -2.1859372 1.4495941 8.4077908e-45
-1.4889827 -2.2427516 1.4495192 1.3815051e-39
-1.4822128 -2.2557471 1.4495 1.9346677e-39
-0.88009793 -3.4121082 1.4477918 1.3447203e-38
-0.87622118 -3.426568 1.4477243 1.3539033e-38
-0.86736137 -3.4384942 1.4477402 1.2341575e-38
-0.86118048 -3.451951 1.4477099 1.2342294e-38
-0.8558678 -3.465533 1.4476676 1.2066061e-38
-0.84898686 -3.476799 1.4476638 1.1698006e-38
-0.84098881 -3.4913793 1.4476475 1.2710716e-38
-0.82607675 -3.5161009 1.4476366 1.2618889e-38
-0.82331288 -3.528933 1.4475682 1.3447552e-38
-0.81699473 -3.5443642 1.4475236 1.3815976e-38
-0.80807477 -3.5566235 1.4475377 1.2342647e-38
-0.80385715 -3.5705147 1.447479 1.2895463e-38
-0.79676294 -3.5833414 1.4474653 1.0683509e-38
-0.78849924 -3.5951061 1.447475 1.11445e-38
-1.5941596 -2.0350022 1.4498639 1.5666138e-39
-1.5723124 -2.0722115 1.4498402 9.2197031e-41
-1.5679489 -2.0857379 1.4497863 1.4012985e-45
-1.5471028 -2.1079471 1.4498709 1.8403253e-40
-1.5487112 -2.1223178 1.4497347 9.1838299e-41
-1.5148519 -2.1827085 1.449676 9.2123883e-40
-1.5042995 -2.2002039 1.4496684 2.7624918e-40
-1.4996525 -2.2153404 1.4496051 4.5169132e-39
-1.4910828 -2.2270315 1.4496193 2.8577212e-39
-1.4727023 -2.2639439 1.4495542 2.7651556e-39
-1.4284209 -2.3448458 1.4494619 6.979862e-39
-1.0730772 -3.0356991 1.4483861 1.2434135e-38
-1.0656128 -3.0463145 1.4483949 1.2526329e-38
-1.0592598 -3.0595274 1.4483687 1.2527055e-38
-1.0534415 -3.0724237 1.4483384 1.2342654e-38
-1.0478449 -3.0865915 1.4482949 1.2250815e-38
-1.03827 -3.1001625 1.4483064 1.2158275e-38
-1.0375755 -3.1143019 1.4482013 1.1882052e-38
-1.0036721 -3.1627407 1.4482396 1.280328e-38
-0.99987483 -3.177253 1.4481705 1.188169e-38
-0.95699114 -3.2540312 1.4480939 1.1329233e-38
-0.9439854 -3.2802813 1.4480467 1.2710363e-38
-0.91609931 -3.331836 1.4479839 1.3170609e-38
-0.91000175 -3.3477819 1.4479324 1.3263171e-38
-0.90244734 -3.3591812 1.4479359 1.3263531e-38
-0.89040202 -3.3868392 1.4478654 1.271036e-38
-0.88594401 -3.3986516 1.4478265 1.1144129e-38
-0.83278424 -3.5030789 1.4476569 1.3447558e-38
-0.82167304 -3.5157447 1.4476953 1.3540115e-38
-0.81223881 -3.5419312 1.4476035 1.289439e-38
-0.80177814 -3.5530593 1.447646 1.390781e-38
-0.79734707 -3.56723 1.4475878 1.2617806e-38
-0.79233825 -3.5752115 1.4475869 1.1327452e-38
-1.58298 -2.0441034 1.4499319 2.9484693e-39
-1.5736724 -2.0558505 1.449955 3.4108852e-39
-1.5722383 -2.0715716 1.4498463 1.8439967e-40
-1.5600667 -2.0799515 1.4499327 1.2907416e-39
-1.5440656 -2.109504 1.4498968 5.5210179e-40
-1.5085934 -2.1870391 1.4497204 1.1056189e-39
-1.5000331 -2.1985106 1.4497361 2.4878625e-39
-1.4989855 -2.2150953 1.4496156 4.6076823e-39
-1.4681207 -2.2631171 1.4496188 2.8580715e-39
-1.4289922 -2.3309004 1.4495672 5.9707436e-39
-1.4282624 -2.3434029 1.4494756 7.2564419e-39
-1.0715818 -3.0252836 1.4484891 1.2249745e-38
-1.0269014 -3.1088095 1.4483806 1.261925e-38
-1.0214155 -3.1221564 1.4483426 1.1881687e-38
-1.016173 -3.136236 1.4482951 1.1329229e-38
-1.0084754 -3.1487584 1.4482915 1.123704e-38
-0.98923463 -3.1717799 1.4483495 1.1513277e-38
-0.98745447 -3.1881549 1.4482398 1.2526689e-38
-0.96895385 -3.2250383 1.4481764 1.1052655e-38
-0.96268833 -3.2404995 1.448131 1.1421429e-38
-0.94870418 -3.2662561 1.4481001 1.0408008e-38
-0.89401072 -3.3699093 1.4479562 1.3908175e-38
-1.6287055 -2.0207286 1.4495419 8.2869848e-40
-1.5851091 -2.1107419 1.4493674 4.2038954e-45
-1.4976225 -2.2797904 1.449111 1.5648076e-39
-1.4370873 -2.3964286 1.4489362 5.6941609e-39
-1.4348956 -2.4126277 1.4488333 6.9802166e-39
-1.6262776 -2.0209956 1.4495705 8.2869568e-40
-1.5938696 -2.0836747 1.4494749 0
-1.5794295 -2.1246328 1.4493273 2.8025969e-45
-1.4948246 -2.2622409 1.4492879 9.2197031e-41
-0.8707633 -3.4732227 1.4474171 1.1605446e-38
-0.8569833 -3.4990821 1.4473829 1.1605808e-38
-0.85206968 -3.512614 1.447336 1.2986941e-38
-0.84382451 -3.5252383 1.4473385 1.3079136e-38
-0.83874702 -3.5390997 1.447291 1.2895099e-38
-0.83132887 -3.5517533 1.4472828 1.3908176e-38
-0.82708269 -3.5660264 1.4472213 1.3079493e-38
-0.82070762 -3.5792162 1.4471955 1.2066417e-38
-0.80970907 -3.5917587 1.4472334 1.1973877e-38
-0.79443347 -3.6242115 1.4471651 1.1511843e-38
-1.6165545 -2.0293362 1.4496262 1.8403673e-40
-1.5708908 -2.1037455 1.4496039 9.219563e-41
-1.5535944 -2.1443195 1.4494956 9.1835496e-41
-1.5469007 -2.1573241 1.4494753 9.1835496e-41
-1.5410141 -2.1707845 1.4494412 1.8403533e-40
-1.5324315 -2.1828294 1.4494528 1.836794e-40
-1.4934019 -2.2616048 1.449311 1.1049238e-39
-1.0746493 -3.0675032 1.4481096 1.2987669e-38
-1.0622041 -3.0940363 1.4480531 1.2434848e-38
-0.92125273 -3.3675714 1.4476304 1.2894746e-38
-0.9103685 -3.3948162 1.4475484 1.2618162e-38
-0.89939821 -3.4056396 1.4475999 1.2157548e-38
-0.89448565 -3.4208589 1.4475392 1.2894751e-38
-0.88665593 -3.4359732 1.4475164 1.418368e-38
-0.88264298 -3.4464407 1.4474828 1.3630867e-38
-0.87524486 -3.4573367 1.4474885 1.1696942e-38
-0.86315858 -3.4857919 1.447412 1.2066784e-38
-0.84626269 -3.5126069 1.4474095 1.3907817e-38
-0.83995271 -3.5233018 1.4474031 1.3815975e-38
-0.81894904 -3.5615664 1.4473603 1.2434479e-38
-0.81273556 -3.5751939 1.4473289 1.3907809e-38
-0.80165029 -3.6024129 1.4472495 1.1050868e-38
-0.79372174 -3.6148188 1.4472498 1.11445e-38
-1.6049665 -2.037313 1.4497086 2.7647871e-39
-1.5540667 -2.1366858 1.4495511 9.1835496e-41
-1.5243131 -2.1919177 1.4494821 8.2868307e-40
-1.520237 -2.2076209 1.449407 4.6026769e-40
-1.5094008 -2.222249 1.4494262 3.5942353e-39
-1.5059574 -2.2351663 1.4493654 3.8535708e-43
-1.4941559 -2.2477896 1.4494131 2.6726111e-39
-1.4851155 -2.2695756 1.4493515 1.2893011e-39
-1.091565 -3.0269775 1.4482224 1.2618886e-38
-1.0865127 -3.0406768 1.4481759 1.252669e-38
-1.0808979 -3.05425 1.4481374 1.2526333e-38
-1.0665951 -3.0798454 1.448112 1.2526686e-38
-1.0538532 -3.1062288 1.4480604 1.1789844e-38
-1.0466635 -3.1190076 1.4480484 1.1882052e-38
-1.0358591 -3.1299164 1.4480971 1.2987667e-38
-1.0298395 -3.1432998 1.4480653 1.2342654e-38
-1.0236611 -3.1582503 1.4480228 1.2066795e-38
-1.0217851 -3.1721447 1.4479345 1.2435578e-38
-1.0132297 -3.1804893 1.4479754 1.2250104e-38
-1.0025798 -3.1961837 1.4479837 1.2158275e-38
-0.97765088 -3.2478538 1.4478823 1.2986227e-38
-0.97178876 -3.259896 1.4478594 1.2433058e-38
-0.96424979 -3.2743194 1.4478384 1.3263171e-38
-0.95710552 -3.284832 1.4478441 1.2709997e-38
-0.95093882 -3.2991471 1.4478066 1.3539395e-38
-0.92986 -3.3394384 1.4477484 1.3170972e-38
-0.92242771 -3.3533304 1.4477304 1.2709998e-38
-0.90851229 -3.3773835 1.4477125 1.3355368e-38
-0.83267075 -3.5270348 1.4474652 1.5106348e-38
-0.80472654 -3.5808918 1.4473842 1.3539396e-38
-1.5941789 -2.0508475 1.4497359 2.8569869e-39
-1.5478648 -2.1249418 1.4497243 1.836808e-40
-1.5088801 -2.2120333 1.4495151 4.6076823e-39
-1.5011954 -2.2310333 1.4494592 4.886388e-39
-1.4926516 -2.2448258 1.449456 1.9357649e-39
-1.4786495 -2.2730911 1.4494051 3.1350158e-39
-1.6410452 -2.0338304 1.44928 3.6807627e-40
-1.5036602 -2.2989519 1.4488801 1.7484786e-39
-1.4321711 -2.4277256 1.448746 7.3479159e-39
-1.4283383 -2.4432774 1.4486691 7.8989359e-39
-1.4250646 -2.4570582 1.4485993 7.4408374e-39
-0.84662712 -3.5596814 1.4470251 1.2526678e-38
-0.83985955 -3.5726728 1.447006 1.3631951e-38
-0.8351059 -3.5863714 1.4469557 1.2343004e-38
-0.82710713 -3.6002424 1.446945 1.2250088e-38
-0.8100853 -3.6353424 1.4468774 1.1054095e-38
-1.637822 -2.0283012 1.4493654 9.2125565e-40
-1.5900896 -2.1202967 1.4492275 2.8025969e-45
-1.5861204 -2.129674 1.4492021 1.4012985e-45
-1.4404418 -2.3990798 1.4488723 3.9489305e-39
-1.4361796 -2.4154348 1.4487945 6.062226e-39
-1.4335912 -2.4285302 1.4487215 6.3373681e-39
-1.423763 -2.4387276 1.4487636 7.8071032e-39
-0.92913216 -3.404506 1.4472327 1.2895104e-38
-0.91341859 -3.4293678 1.4472311 1.3447558e-38
-0.89556354 -3.4531231 1.4472654 1.3815261e-38
-0.88349062 -3.4798441 1.4472026 1.1696942e-38
-0.87638855 -3.4926667 1.4471891 1.2065711e-38
-0.87268054 -3.5072422 1.4471184 1.2066061e-38
-0.86449343 -3.5187378 1.4471292 1.2434481e-38
-0.85873067 -3.5329762 1.4470874 1.1882387e-38
-0.84919524 -3.5436902 1.4471216 1.2342294e-38
-0.84979278 -3.5613756 1.4469715 1.3815973e-38
-0.82433975 -3.5950518 1.4470218 1.2434118e-38
-0.8176375 -3.608423 1.4469988 1.3816338e-38
-0.81025094 -3.6233103 1.4469723 1.3078789e-38
-0.80426788 -3.6371441 1.4469364 1.1513283e-38
-0.7938087 -3.6549714 1.4469249 1.0499852e-38
-0.78777951 -3.6612389 1.4469507 1.1423609e-38
-1.6264317 -2.0326149 1.4494749 2.3048893e-39
-1.5249333 -2.2284954 1.4491791 1.847584e-40
-1.4402751 -2.3985648 1.4488786 4.9591252e-39
-1.4180298 -2.4363112 1.4488558 7.3497208e-39
-1.0945446 -3.0613351 1.4479077 1.2618527e-38
-1.0884447 -3.0742781 1.4478805 1.252633e-38
-1.0806644 -3.0871441 1.4478751 1.2526688e-38
-1.072927 -3.0996463 1.4478722 1.2526686e-38
-1.0668846 -3.113004 1.4478409 1.1421782e-38
-1.0606065 -3.1262422 1.4478135 1.1790203e-38
-1.0459085 -3.1516387 1.4477947 1.2342655e-38
-1.0330896 -3.1779833 1.4477445 1.2435578e-38
-1.0264932 -3.191061 1.4477224 1.2250101e-38
-1.0228457 -3.205662 1.4476508 1.2157908e-38
-1.0063535 -3.230118 1.4476622 1.1789488e-38
-0.99380207 -3.2575474 1.4475998 1.289439e-38
-0.98769379 -3.2699306 1.4475772 1.271e-38
-0.97952634 -3.2822068 1.4475815 1.2801835e-38
-0.97202832 -3.2948298 1.4475746 1.3355011e-38
-0.96536958 -3.3078763 1.4475538 1.2894387e-38
-0.93297291 -3.3753664 1.4474193 1.2894387e-38
-0.92701167 -3.3888109 1.4473863 1.2618162e-38
-0.92206883 -3.400872 1.4473516 1.2341936e-38
-0.91286844 -3.4126251 1.447373 1.3447924e-38
-0.90161371 -3.4397695 1.4472966 1.3170614e-38
-0.88961101 -3.4665692 1.4472322 1.4736485e-38
-0.87706959 -3.4930804 1.4471772 1.4644291e-38
-0.86728024 -3.5083301 1.447178 1.40922e-38
-0.8571229 -3.5157588 1.4472467 1.4737211e-38
-0.85317081 -3.5301709 1.4471804 1.3815616e-38
-0.84068894 -3.5566854 1.4471245 1.3815617e-38
-0.83195806 -3.5688272 1.4471369 1.4369147e-38
-0.81917089 -3.5949638 1.4470879 1.3816333e-38
-1.621146 -2.0369592 1.4495068 1.3825799e-39
-1.5583986 -2.1468689 1.4494141 2.8025969e-45
-1.5528836 -2.1605325 1.4493736 1.8367239e-40
-1.550927 -2.1731403 1.4492967 1.836766e-40
-1.5424939 -2.190695 1.4492618 6.4394008e-40
-1.5304101 -2.2157497 1.4492127 9.2204038e-41
-1.5206991 -2.2428484 1.4491169 3.5873241e-43
-1.5120457 -2.2472286 1.4491911 7.9270627e-39
-1.4985231 -2.264328 1.4492242 1.473705e-39
-1.4946012 -2.2788157 1.4491571 2.2119847e-39
-1.1041275 -3.0336568 1.4480097 1.2250104e-38
-1.0990044 -3.0471792 1.4479654 1.1789488e-38
-1.0519327 -3.138272 1.4478263 1.2895832e-38
-1.0386759 -3.1643956 1.4477834 1.3172057e-38
-1.0084985 -3.2147596 1.4477589 1.2066081e-38
-1.0002186 -3.2303512 1.4477379 1.2157906e-38
-0.98479807 -3.2633951 1.4476666 1.2801837e-38
-0.93187851 -3.3653872 1.4475136 1.2157552e-38
-1.6641587 -2.03058 1.4490138 1.4740749e-39
-1.4370857 -2.4797602 1.4482641 8.6339828e-39
-1.6568412 -2.034946 1.4490712 7.3649865e-40
-1.5163434 -2.306392 1.4486597 6.4285128e-40
-1.5109109 -2.3200572 1.4486182 2.6693545e-39
-1.4989009 -2.3438699 1.448578 1.1985334e-39
-1.4277171 -2.4747815 1.4484229 9.4604994e-39
-0.8854506 -3.5138452 1.4469036 1.2709996e-38
-0.87277579 -3.5402625 1.4468509 1.179019e-38
-0.85406172 -3.5798514 1.4467684 1.3263162e-38
-0.84681779 -3.5927899 1.4467556 1.4000363e-38
-0.84239072 -3.6069624 1.4466975 1.2711069e-38
-0.83316767 -3.6186984 1.4467195 1.3170967e-38
-0.82411373 -3.6305029 1.4467388 1.2527397e-38
-0.81884217 -3.6417325 1.4467149 1.3631597e-38
-0.81148469 -3.6595483 1.4466643 1.1421446e-38
-0.80694157 -3.6713436 1.4466267 1.1880622e-38
-0.80540812 -3.6868267 1.4465213 1.1880623e-38
-1.6496232 -2.0351129 1.4491612 1.2896752e-39
-1.5913358 -2.1473517 1.4489934 0
-1.4278229 -2.4597189 1.4485431 8.6329024e-39
-1.0035197 -3.2781067 1.4473112 1.2709998e-38
-0.95165008 -3.3832045 1.4471197 1.3262809e-38
-0.93931735 -3.4060075 1.4470917 1.2895104e-38
-0.93034089 -3.4220316 1.4470761 1.3263525e-38
-0.92329472 -3.4360702 1.447052 1.2894388e-38
-0.88992453 -3.499078 1.4469661 1.298658e-38
-0.88143831 -3.5118206 1.4469707 1.4276949e-38
-0.87805915 -3.5265222 1.4468949 1.289474e-38
-0.86713022 -3.5374141 1.4469454 1.4552819e-38
-0.86261994 -3.5516312 1.4468877 1.3079137e-38
-0.85079008 -3.5747068 1.4468514 1.3815973e-38
-0.84270787 -3.5902929 1.4468278 1.4737567e-38
-0.82995647 -3.61711 1.4467729 1.3999646e-38
-0.80705357 -3.6547575 1.446759 1.3355354e-38
-1.639866 -2.0406864 1.4492397 2.5807602e-39
-1.5865757 -2.1447949 1.4490743 0
-1.5445737 -2.2221985 1.4489814 9.8090893e-45
-1.4455 -2.4175074 1.4486599 5.2346359e-39
-1.4397062 -2.4317861 1.4486179 6.6121641e-39
-1.4314687 -2.4437473 1.4486258 6.5214006e-39
-1.1068368 -3.0677371 1.4477005 1.2526689e-38
-1.1010779 -3.0806525 1.4476691 1.1697656e-38
-1.0920323 -3.0930383 1.4476837 1.197388e-38
-1.0885562 -3.1057699 1.447625 1.1973881e-38
-1.079416 -3.1195264 1.4476297 1.1789486e-38
-1.0738499 -3.1331246 1.4475906 1.2803632e-38
-1.065279 -3.1452057 1.4476014 1.1605812e-38
-1.0584931 -3.1581881 1.4475827 1.289583e-38
-1.0521868 -3.1714125 1.4475558 1.1328873e-38
-1.0466392 -3.1850195 1.4475163 1.3172057e-38
-1.0398914 -3.1992762 1.4474866 1.2987663e-38
-1.0353827 -3.2121522 1.4474398 1.1973878e-38
-1.0257306 -3.2236557 1.4474692 1.2526688e-38
-1.020793 -3.2374001 1.4474208 1.252633e-38
-1.0122418 -3.2496638 1.4474301 1.2157548e-38
-1.0059382 -3.2629206 1.447403 1.3078778e-38
-0.99076343 -3.288034 1.4473925 1.2341223e-38
-0.9858321 -3.3019886 1.4473423 1.24345e-38
-0.97774249 -3.3142817 1.4473455 1.3631596e-38
-0.97191149 -3.3277645 1.4473104 1.3078778e-38
-0.96585763 -3.3411758 1.447279 1.3447198e-38
-0.95637053 -3.3594801 1.4472513 1.2709998e-38
-0.95144457 -3.3666604 1.4472556 1.2894027e-38
-0.94600397 -3.380336 1.4472142 1.1973159e-38
-0.94039017 -3.3939097 1.4471759 1.2341938e-38
-0.91375965 -3.4460979 1.4470918 1.1973154e-38
-0.90651011 -3.4588461 1.4470807 1.3631232e-38
-0.89885026 -3.469007 1.4470956 1.4184036e-38
-0.8920424 -3.4841895 1.4470594 1.4092197e-38
-0.88272643 -3.4960644 1.4470814 1.4552815e-38
-0.87583256 -3.5089924 1.4470644 1.4552815e-38
-0.87006921 -3.5224488 1.4470289 1.3999646e-38
-0.86639202 -3.5370829 1.4469573 1.3723419e-38
-0.85707778 -3.5461521 1.4470019 1.3723419e-38
-0.85145998 -3.5623481 1.4469426 1.4184397e-38
-0.8234818 -3.6303337 1.4467483 1.3263158e-38
-0.80371165 -3.6495204 1.4468436 1.3355354e-38
-1.6308516 -2.0478094 1.4492964 2.5814734e-39
-1.5576038 -2.1795065 1.4491608 1.8367239e-40
-1.5557818 -2.1943774 1.449064 9.1842503e-41
-1.5450728 -2.2131312 1.4490483 9.8090893e-45
-1.5320057 -2.2383156 1.4490105 3.5873241e-43
-1.444183 -2.4140348 1.4487045 5.5104983e-39
-1.1184391 -3.0407786 1.4477712 1.1973877e-38
-1.1114771 -3.0536721 1.4477552 1.2711076e-38
-1.6743215 -2.0377614 1.4488273 1.5662677e-39
-1.5380664 -2.3176503 1.4482939 2.7551349e-40
-1.5205115 -2.3403134 1.4483334 1.1960194e-39
-1.4355564 -2.4981973 1.4481348 1.0562165e-38
-1.4349951 -2.5117064 1.4480329 1.0561802e-38
-0.86254603 -3.6009254 1.4464911 1.3263162e-38
-0.84987342 -3.6273437 1.4464384 1.2711429e-38
-1.6620662 -2.0497963 1.4488853 1.3818667e-39
-1.5284806 -2.3127155 1.4484551 1.8403141e-39
-1.5218139 -2.325758 1.4484344 1.7477569e-39
-1.4353166 -2.4930906 1.448179 1.0103348e-38
-1.429199 -2.5087662 1.44813 1.1112455e-38
-0.89311033 -3.5322123 1.4466585 1.3631944e-38
-0.88438028 -3.5462716 1.4466556 1.2894386e-38
-0.87922901 -3.561687 1.4465966 1.2618872e-38
-0.87279332 -3.5732806 1.4465845 1.2895459e-38
-0.86773759 -3.5871384 1.4465367 1.3447557e-38
-0.85502851 -3.6135385 1.4464846 1.2986936e-38
-0.83453572 -3.6505008 1.4464457 1.2434499e-38
-0.82660639 -3.6664379 1.4464175 1.1974251e-38
-0.80698532 -3.7004287 1.4463917 1.1880979e-38
-1.6553988 -2.0500739 1.4489673 1.1056455e-39
-1.4310632 -2.4767814 1.4483645 9.0920799e-39
-1.4316078 -2.4900839 1.4482502 1.0194465e-38
-1.1023579 -3.1148953 1.4473768 1.1973881e-38
-1.0673968 -3.1957531 1.447167 1.2710719e-38
-1.0581083 -3.2074418 1.4471902 1.3079859e-38
-1.049667 -3.2206514 1.4471904 1.3355728e-38
-1.0443341 -3.2332916 1.447156 1.252633e-38
-1.0371577 -3.2460849 1.4471437 1.2803272e-38
-1.0317191 -3.2597659 1.4471021 1.2157905e-38
-1.0239507 -3.2722247 1.4471 1.2895465e-38
-1.0197592 -3.2865541 1.4470373 1.2341936e-38
-1.0100546 -3.2967322 1.4470781 1.3723787e-38
-1.0039482 -3.308614 1.4470595 1.2710363e-38
-0.99718034 -3.3243496 1.4470183 1.2986944e-38
-0.99139601 -3.3378551 1.4469825 1.372415e-38
-0.96914238 -3.374485 1.4469687 1.3262449e-38
-0.96377802 -3.3895035 1.4469155 1.3262809e-38
-0.95657557 -3.3987188 1.4469322 1.2802554e-38
-0.94584548 -3.4132268 1.446951 1.2066072e-38
-0.94433999 -3.4252968 1.4468726 1.2618882e-38
-0.93649334 -3.4413617 1.4468423 1.3816338e-38
-0.9275046 -3.4531972 1.4468607 1.3354998e-38
-0.92270553 -3.4656761 1.4468207 1.3355004e-38
-0.89903319 -3.5112836 1.4467524 1.2709996e-38
-0.89615697 -3.5194671 1.4467229 1.3631223e-38
-0.87148488 -3.5643778 1.4466727 1.3815973e-38
-0.87316883 -3.5735569 1.4465775 1.3263158e-38
-0.86098516 -3.5852036 1.4466377 1.3907809e-38
-0.84461552 -3.616163 1.4465951 1.3999646e-38
-0.84123021 -3.6229825 1.4465829 1.3907809e-38
-0.83248955 -3.6366653 1.4465832 1.3631583e-38
-1.6440624 -2.0613034 1.4490204 1.2907318e-39
-1.4502349 -2.4375255 1.4484385 5.6026911e-39
-1.441175 -2.4491329 1.4484595 4.6839704e-39
-1.4325501 -2.4611378 1.4484718 6.7987064e-39
-1.430481 -2.4761903 1.4483765 8.6325464e-39
-1.1378263 -3.0343542 1.4475776 1.2527045e-38
-1.1334418 -3.0485563 1.4475187 1.2250461e-38
-1.1247342 -3.0605607 1.4475319 1.2711435e-38
-1.1186156 -3.0738795 1.4475019 1.2619241e-38
-1.1133339 -3.0867374 1.4474652 1.197388e-38
-1.1071393 -3.1009016 1.4474292 1.1789491e-38
-1.0914148 -3.1257572 1.4474277 1.1789488e-38
-1.087026 -3.139972 1.4473686 1.3356448e-38
-1.078274 -3.1519389 1.4473828 1.2619246e-38
-1.0735943 -3.1622069 1.4473592 1.3264254e-38
-1.0655762 -3.1780677 1.4473327 1.2250462e-38
-1.05677 -3.1938803 1.4473166 1.2711438e-38
-1.0137709 -3.2834785 1.447138 1.2618516e-38
-0.98071897 -3.3421097 1.4470834 1.4276234e-38
-0.91045612 -3.477473 1.4468806 1.4645012e-38
-0.89700997 -3.5034659 1.446841 1.3815612e-38
-0.88369918 -3.5296826 1.4467981 1.3999643e-38
-0.86960739 -3.5556116 1.4467673 1.4368428e-38
-0.86506498 -3.5693839 1.4467137 1.4737211e-38
-0.83357716 -3.6256964 1.4466578 1.3263158e-38
-1.6863737 -2.0450752 1.4486159 2.1201618e-39
-1.5402427 -2.3285155 1.4481788 2.6711523e-39
-1.431806 -2.5265622 1.4479535 1.0837307e-38
-1.4321222 -2.5406735 1.4478357 1.1112099e-38
-1.4229934 -2.5549872 1.4478357 1.0745472e-38
-0.89548624 -3.5685267 1.4463357 1.2894386e-38
-0.89052552 -3.5824435 1.4462862 1.2342287e-38
-0.8826766 -3.5948808 1.4462852 1.3170964e-38
-0.87691152 -3.6083868 1.4462491 1.2434837e-38
-0.8678422 -3.6202035 1.4462687 1.2986934e-38
-0.8632676 -3.6352413 1.4462051 1.1974224e-38
-0.84970748 -3.6580534 1.4461927 1.3263174e-38
-0.83821833 -3.6847208 1.446123 1.4184397e-38
-0.83045059 -3.6965003 1.4461262 1.1145935e-38
-0.82790422 -3.7149873 1.4460094 1.4092573e-38
-1.6757075 -2.0556934 1.4486651 2.0268801e-39
-1.5325326 -2.3310094 1.4482561 1.9328656e-39
-1.4353374 -2.518959 1.4479702 1.0653636e-38
-1.4343899 -2.5279706 1.4479095 1.0653278e-38
-1.4301203 -2.5422816 1.4478481 1.1295767e-38
-1.0336443 -3.2932267 1.446808 1.3171334e-38
-1.0270753 -3.3055255 1.4467919 1.289511e-38
-0.97721946 -3.3964853 1.446689 1.3355005e-38
-0.94511944 -3.4623199 1.4465643 1.3816338e-38
-0.93794543 -3.4751062 1.4465519 1.4000373e-38
-0.90329391 -3.5396304 1.44647 1.3723779e-38
-0.89883918 -3.5520358 1.4464262 1.3171327e-38
-0.88087976 -3.5940125 1.4463149 1.4553174e-38
-0.83928978 -3.671422 1.4462168 1.1789497e-38
-0.83452493 -3.6854818 1.4461637 1.5105272e-38
-0.81051731 -3.7207196 1.4461832 1.1880979e-38
-1.6682556 -2.0538609 1.4487742 3.6878953e-40
-1.4518822 -2.4711411 1.4481463 5.6030429e-39
-1.4295989 -2.5127933 1.4480925 1.0653278e-38
-1.4320704 -2.52686 1.4479477 1.0745471e-38
-1.4085327 -2.5641479 1.4479449 9.1867838e-39
-1.1209035 -3.1080463 1.4471973 1.1973882e-38
-1.1143711 -3.1211565 1.4471742 1.2802914e-38
-1.1008902 -3.147167 1.4471351 1.1789487e-38
-1.0936811 -3.1599357 1.4471233 1.1974243e-38
-1.0825483 -3.1872959 1.4470435 1.2710717e-38
-1.07687 -3.2006721 1.4470074 1.2710719e-38
-1.0711761 -3.2142053 1.4469705 1.3724509e-38
-1.0646632 -3.2273254 1.446947 1.1973518e-38
-1.0572859 -3.2400095 1.446938 1.3263532e-38
-1.0510315 -3.2532599 1.4469103 1.2526683e-38
-1.0440392 -3.2661381 1.4468949 1.1881321e-38
-1.0365652 -3.2787728 1.4468876 1.326389e-38
-1.014856 -3.3167467 1.446856 1.3447198e-38
-1.0101444 -3.3310668 1.4468001 1.307914e-38
-1.002923 -3.3438294 1.4467884 1.3908182e-38
-0.99308288 -3.3552322 1.446821 1.2710719e-38
-0.98613924 -3.3681343 1.4468048 1.2525251e-38
-0.98294812 -3.3829696 1.4467256 1.3262449e-38
-0.97095805 -3.406698 1.4466859 1.3446839e-38
-0.96112186 -3.4212053 1.4466933 1.3170974e-38
-0.95571029 -3.4348514 1.4466518 1.3540109e-38
-0.94955277 -3.4481506 1.4466224 1.3447555e-38
-0.92741847 -3.4862823 1.446595 1.41844e-38
-0.9024905 -3.5341761 1.4465241 1.3723773e-38
-0.89423829 -3.5510857 1.4464922 1.3631581e-38
-0.84780747 -3.6264119 1.446472 1.4644654e-38
-0.84345293 -3.6406608 1.4464122 1.3999646e-38
-0.83785325 -3.6542904 1.4463732 1.3263158e-38
-0.8228243 -3.687717 1.4462938 1.3631588e-38
-1.6651733 -2.0537689 1.4488139 3.6871105e-39
-1.4522895 -2.4628055 1.4482085 5.6030429e-39
-1.4478748 -2.471386 1.4481951 5.6023268e-39
-1.432755 -2.4968874 1.4481808 9.0002402e-39
-1.4301739 -2.5094218 1.4481124 9.367222e-39
-1.4269478 -2.5242703 1.4480333 9.5544817e-39
-1.1516455 -3.0409982 1.4473493 1.2435207e-38
-1.1471665 -3.0556729 1.4472876 1.2527045e-38
-1.1371047 -3.0669727 1.4473238 1.1974238e-38
-1.1301553 -3.0798707 1.4473076 1.1974596e-38
-1.1273175 -3.0948765 1.4472224 1.280363e-38
-1.1068764 -3.133781 1.4471673 1.2894747e-38
-1.0831305 -3.1709852 1.4471676 1.2158275e-38
-1.0662122 -3.1952155 1.4471862 1.1973888e-38
-0.96509242 -3.4067726 1.4467595 1.3446833e-38
-0.91736078 -3.4975326 1.4466316 1.4553177e-38
-0.9109934 -3.5107262 1.4466056 1.5013075e-38
-1.7081484 -2.0462072 1.4483312 2.3049202e-39
-1.4249899 -2.6055195 1.447403 1.1480516e-38
-0.89797479 -3.6027946 1.4460278 1.3170965e-38
-1.6983515 -2.051384 1.4484135 2.304553e-39
-1.4238389 -2.571964 1.4476881 1.1205008e-38
-1.423622 -2.5847175 1.447588 1.0929142e-38
-1.4151012 -2.599128 1.4475796 1.0469968e-38
-0.9144544 -3.5618908 1.4461491 1.3171334e-38
-0.90288311 -3.5864129 1.4460977 1.3263162e-38
-0.89020455 -3.6152804 1.4460254 1.2710709e-38
-0.88183582 -3.6276872 1.4460312 1.2158257e-38
-0.87665409 -3.6412556 1.4459873 1.1513612e-38
-0.86982298 -3.6542153 1.4459692 1.2343005e-38
-0.86380285 -3.6653984 1.4459552 1.436843e-38
-0.83850759 -3.7105281 1.4459112 1.4092573e-38
-0.83385336 -3.7198093 1.4458953 1.2986592e-38
-1.6892639 -2.0591214 1.4484659 2.0272417e-39
-1.5430903 -2.3368649 1.4480753 1.8406756e-39
-1.4302559 -2.558995 1.4477115 1.0469607e-38
-1.4216808 -2.5728917 1.4477079 1.0287013e-38
-1.0903558 -3.2076762 1.4467803 1.2894747e-38
-1.0840577 -3.2209046 1.4467534 1.2157551e-38
-1.0797732 -3.2351599 1.4466926 1.2802553e-38
-1.0728469 -3.2480831 1.446676 1.2894755e-38
-1.0657049 -3.2602525 1.4466681 1.3632314e-38
-1.057451 -3.2731049 1.446669 1.1789486e-38
-1.0578074 -3.289783 1.44653 1.2895104e-38
-1.0404108 -3.313767 1.4465567 1.2342294e-38
-1.0329908 -3.3236527 1.4465708 1.3079505e-38
-1.0251127 -3.3391328 1.4465456 1.2434137e-38
-1.0110464 -3.3645344 1.4465188 1.390818e-38
-1.0032017 -3.3769827 1.4465177 1.2802554e-38
-0.98348248 -3.4162517 1.4464504 1.3355005e-38
-0.97074205 -3.4427478 1.4463979 1.3355004e-38
-0.96293724 -3.4551036 1.4463971 1.3631944e-38
-0.94236362 -3.4939418 1.446344 1.5290019e-38
-0.91274738 -3.5557046 1.4462206 1.3171334e-38
-0.90244573 -3.5701773 1.4462343 1.3907805e-38
-0.89598757 -3.5853789 1.4461933 1.4000363e-38
-0.88960499 -3.6001105 1.4461552 1.3907806e-38
-0.8498255 -3.6793933 1.4460192 1.5289663e-38
-0.8480792 -3.6925449 1.4459351 1.5474055e-38
-0.83801693 -3.7033017 1.4459757 1.3170616e-38
-0.82098585 -3.728724 1.4459863 1.1696949e-38
-0.81594026 -3.7446916 1.4459212 1.1698387e-38
-1.6813135 -2.0621393 1.4485422 9.2124444e-40
-1.4287109 -2.5416272 1.4478711 1.0561441e-38
-1.425282 -2.5565584 1.4477941 9.6438047e-39
-1.4171602 -2.5706663 1.4477831 1.0202738e-38
-1.4054421 -2.5955858 1.4477304 8.3627923e-39
-1.3993629 -2.6089227 1.4476998 9.3780246e-39
-1.1631308 -3.0639532 1.4470187 1.2435567e-38
-1.1541241 -3.0757895 1.4470372 1.2158627e-38
-1.1473258 -3.0887654 1.4470185 1.2434868e-38
-1.1417953 -3.1032412 1.4469718 1.2895467e-38
-1.1331441 -3.116976 1.4469705 1.2803633e-38
-1.129199 -3.1288607 1.4469246 1.2158269e-38
-1.121402 -3.1417139 1.4469196 1.2802916e-38
-1.116297 -3.1551661 1.4468756 1.2895836e-38
-1.1063379 -3.1665215 1.44691 1.2157548e-38
-1.0988922 -3.182986 1.4468714 1.2526332e-38
-1.0960152 -3.1941259 1.4468181 1.2895106e-38
-1.0460188 -3.2826076 1.4467371 1.3448273e-38
-1.0425582 -3.2954078 1.4466776 1.2711069e-38
-1.0211796 -3.3203294 1.4467471 1.2987297e-38
-1.0159796 -3.3506172 1.4465685 1.3816346e-38
-0.99292076 -3.3886964 1.4465532 1.3262446e-38
-0.98904943 -3.4026539 1.4464897 1.3446835e-38
-0.97520566 -3.4284816 1.4464566 1.2525617e-38
-0.95532292 -3.4676678 1.4463921 1.3723778e-38
-0.94833356 -3.4805474 1.4463767 1.3723416e-38
-0.93475568 -3.5051088 1.4463503 1.5290019e-38
-0.91209662 -3.5460119 1.4463071 1.3907805e-38
-0.83816767 -3.6893337 1.4460864 1.3538666e-38
-1.4236695 -2.5390799 1.4479554 8.3588252e-39
-1.7197341 -2.0534341 1.4481263 3.0432055e-39
-1.4217464 -2.620347 1.4473244 1.1112812e-38
-1.4191524 -2.6337438 1.4472491 1.0562161e-38
-0.90454096 -3.6227136 1.445784 1.2341217e-38
-0.89667344 -3.6351502 1.4457833 1.1513965e-38
-0.89078891 -3.648587 1.4457494 1.2250811e-38
-1.713953 -2.0528352 1.4482043 2.5811427e-39
-1.4178134 -2.6210401 1.4473686 1.0561805e-38
-1.0879066 -3.2558589 1.4464228 1.3908898e-38
-1.0804386 -3.2684968 1.4464154 1.2894746e-38
-1.0487016 -3.3339317 1.4462892 1.317133e-38
-0.9486503 -3.5301414 1.4459726 1.3630509e-38
-0.91994715 -3.5805216 1.4459293 1.3631223e-38
-0.91605526 -3.5957108 1.4458561 1.3631223e-38
-0.90965146 -3.6089182 1.4458306 1.3170965e-38
-0.87440872 -3.6731343 1.4457586 1.4092207e-38
-0.86685944 -3.6854899 1.4457544 1.3815623e-38
-0.85942096 -3.6983848 1.4457446 1.5474055e-38
-0.8532483 -3.7114513 1.4457173 1.3353934e-38
-0.84716594 -3.7261045 1.4456761 1.4829048e-38
-0.8244915 -3.7627919 1.4456671 1.1788782e-38
-1.7048242 -2.0567567 1.4482881 3.1346626e-39
-1.4298149 -2.590508 1.4474629 1.056216e-38
-1.4225464 -2.6020782 1.4474617 9.9200329e-39
-1.4122845 -2.6168351 1.4474725 9.647769e-39
-1.1439323 -3.1364713 1.4466767 1.2527048e-38
-1.1034459 -3.2144806 1.4465599 1.2895106e-38
-1.098048 -3.2273176 1.4465246 1.2895104e-38
-1.0930746 -3.2420599 1.4464687 1.2894747e-38
-1.0688335 -3.2790003 1.4464774 1.3632314e-38
-1.0652857 -3.2936637 1.4464041 1.2895104e-38
-1.0574746 -3.3061261 1.4464024 1.243377e-38
-1.0528741 -3.320214 1.446347 1.1973877e-38
-1.0362625 -3.3477843 1.4463348 1.3263164e-38
-1.0298083 -3.3577943 1.4463358 1.317097e-38
-1.0226556 -3.3705914 1.446323 1.4829049e-38
-1.0170372 -3.3837378 1.4462881 1.234194e-38
-1.0089202 -3.3964369 1.4462885 1.2433417e-38
-1.003244 -3.4100063 1.4462508 1.4092206e-38
-0.99683511 -3.4234841 1.4462231 1.3354286e-38
-0.99511784 -3.4388113 1.4461212 1.2801837e-38
-0.98525268 -3.4463487 1.4461851 1.2525611e-38
-0.97448015 -3.461081 1.4462026 1.3079147e-38
-0.96869302 -3.4745886 1.446167 1.280256e-38
-0.96294618 -3.4881158 1.4461306 1.3815979e-38
-0.95524561 -3.502085 1.4461154 1.3446485e-38
-0.91942012 -3.5645564 1.4460647 1.4092196e-38
-0.91521609 -3.5771782 1.4460162 1.3908165e-38
-0.90107924 -3.6045387 1.4459745 1.4553174e-38
-0.8485983 -3.7077007 1.4458064 1.4184036e-38
-0.84149182 -3.7210438 1.4457886 1.3999647e-38
-0.82127875 -3.761168 1.4457209 1.2525973e-38
-0.8180238 -3.7726345 1.4456695 1.1606191e-38
-1.6936303 -2.0685248 1.4483349 1.1056399e-39
-1.4251575 -2.5876384 1.4475449 9.9203902e-39
-1.4176389 -2.5996637 1.4475431 9.1914712e-39
-1.4060296 -2.6228151 1.4475033 9.2854618e-39
-1.2015754 -3.0179112 1.4469037 1.2895463e-38
-1.1953011 -3.0311644 1.4468762 1.2435564e-38
-1.1761113 -3.0673811 1.4468268 1.2619598e-38
-1.1659436 -3.0819142 1.4468383 1.2527419e-38
-1.1599919 -3.0953386 1.4468054 1.2435219e-38
-1.1559114 -3.1097031 1.4467411 1.2987663e-38
-1.1485246 -3.1223822 1.4467323 1.3817424e-38
-1.1359333 -3.1488416 1.4466782 1.3632672e-38
-1.1279888 -3.1612394 1.4466788 1.3817063e-38
-1.119352 -3.1732657 1.446691 1.3724509e-38
-1.1126435 -3.1862886 1.4466709 1.2895107e-38
-1.1080345 -3.2003896 1.4466155 1.307878e-38
-1.0555764 -3.2887006 1.4465669 1.4001088e-38
-0.94665748 -3.5127141 1.4461383 1.5382214e-38
-0.9374814 -3.5244703 1.4461595 1.5290019e-38
-1.7361182 -2.0631537 1.4478407 1.8428476e-39
-1.7317455 -2.0598402 1.4479227 2.5822217e-39
-1.4228641 -2.6543281 1.4470361 1.0653635e-38
-0.93539387 -3.5892618 1.4456635 1.3539391e-38
-0.92994297 -3.6030354 1.4456213 1.3447196e-38
-0.92919046 -3.6190279 1.4455018 1.2894386e-38
-0.92221934 -3.6319132 1.4454862 1.4092564e-38
-0.91119069 -3.6426969 1.4455386 1.2709997e-38
-0.90336776 -3.6526845 1.4455572 1.1421412e-38
-0.89961833 -3.6696756 1.4454676 1.317132e-38
-0.89007932 -3.6815667 1.4454924 1.4184761e-38
-1.7255139 -2.0601091 1.4479994 4.2413843e-39
-1.4260358 -2.638715 1.4471219 1.083695e-38
-1.1072601 -3.2494173 1.4462298 1.2895104e-38
-1.1012931 -3.2607772 1.4462137 1.3540474e-38
-1.092212 -3.2768326 1.4461991 1.2803276e-38
-1.0858575 -3.2878368 1.4461907 1.3632309e-38
-1.080133 -3.3013546 1.4461541 1.3540478e-38
-1.066047 -3.32706 1.446125 1.2341936e-38
-1.0613954 -3.3405702 1.446075 1.3263165e-38
-1.0524889 -3.3530314 1.4460871 1.3263162e-38
-1.0494742 -3.3679497 1.446005 1.2526327e-38
-1.0407466 -3.37954 1.4460219 1.3170979e-38
-1.0109191 -3.4373503 1.4459331 1.3631232e-38
-1.0048738 -3.445296 1.4459454 1.3815623e-38
-0.99801129 -3.456794 1.4459394 1.2801837e-38
-0.99144202 -3.4698853 1.4459171 1.3539392e-38
-0.98560482 -3.4833467 1.4458823 1.3079147e-38
-0.96191609 -3.5334053 1.4457784 1.3630509e-38
-0.95172912 -3.5503368 1.4457706 1.3630869e-38
-0.93556166 -3.582587 1.4457152 1.3539391e-38
-0.92614645 -3.6008949 1.4456866 1.3907446e-38
-0.92405623 -3.6164322 1.4455878 1.3907805e-38
-0.91202533 -3.6276803 1.4456493 1.3723057e-38
-0.88112092 -3.6931272 1.4455125 1.4092207e-38
-0.87245321 -3.7031584 1.4455413 1.5197106e-38
-0.83074027 -3.7825506 1.4454287 1.1788782e-38
-1.716813 -2.0626028 1.4480894 3.0428257e-39
-1.4211055 -2.6358609 1.4472072 1.0194102e-38
-1.2696183 -2.9211817 1.4468228 1.2802926e-38
-1.2158723 -3.0253134 1.446663 1.2711431e-38
-1.2107662 -3.0394588 1.4466136 1.363339e-38
-1.2063234 -3.0533531 1.4465578 1.2896186e-38
-1.1826261 -3.0905697 1.4465574 1.1974596e-38
-1.1775522 -3.1044366 1.4465097 1.3540477e-38
-1.1709335 -3.1197524 1.44647 1.335645e-38
-1.1631759 -3.1299508 1.4464859 1.3356451e-38
-1.1567833 -3.143141 1.4464604 1.3172054e-38
-1.1521542 -3.1546447 1.4464263 1.3817065e-38
-1.1448174 -3.1699517 1.4463955 1.4001453e-38
-1.1384759 -3.1831725 1.4463692 1.3540475e-38
-1.1303332 -3.1954482 1.4463731 1.30795e-38
-1.1251795 -3.2092721 1.4463269 1.3447921e-38
-1.1168275 -3.2234278 1.4463185 1.2987303e-38
-1.1117184 -3.2352607 1.4462876 1.3079137e-38
-1.0698359 -3.3096118 1.4462179 1.3447912e-38
-1.0652465 -3.3209043 1.4461848 1.2341936e-38
-1.0409433 -3.3656428 1.4461315 1.372378e-38
-1.0357236 -3.3792679 1.4460876 1.4000009e-38
-1.0311139 -3.3914649 1.4460475 1.4000014e-38
-1.0242354 -3.4044006 1.4460303 1.234158e-38
-1.0162387 -3.4132171 1.4460603 1.3999647e-38
-1.0070606 -3.4323039 1.4460225 1.3170254e-38
-0.97750247 -3.4956644 1.4458855 1.42766e-38
-0.96803343 -3.506515 1.4459178 1.427623e-38
-0.96164042 -3.5203507 1.4458871 1.5104909e-38
-0.9562583 -3.5341792 1.4458437 1.4736848e-38
-0.94733131 -3.5433235 1.4458829 1.3906728e-38
-0.93961549 -3.5585372 1.4458579 1.5473691e-38
-0.93361127 -3.5719342 1.4458257 1.4644292e-38
-0.93135661 -3.5872808 1.4457304 1.280218e-38
-0.91674244 -3.612663 1.4457107 1.464537e-38
-0.8591103 -3.7148068 1.4456161 1.5290023e-38
-0.85471171 -3.7305381 1.4455448 1.3999643e-38
-0.83038288 -3.7735577 1.4455057 1.1788782e-38
-0.82108581 -3.791476 1.4454788 1.1515797e-38
-1.704897 -2.0780046 1.4481158 2.3038286e-39
-1.420604 -2.6242816 1.4473072 1.1409204e-38
-1.2818807 -2.8945565 1.4468825 1.252598e-38
-1.2620918 -2.9337904 1.4468163 1.1050479e-38
-1.2554852 -2.9468632 1.4467945 1.1049755e-38
-1.2214268 -3.0117097 1.4467025 1.3540112e-38
-1.1912076 -3.0620399 1.4466789 1.2158627e-38
-1.1876149 -3.0766807 1.4466063 1.1790206e-38
-1.7490238 -2.0678363 1.4476396 1.8424875e-39
-1.4278685 -2.6884599 1.4466976 1.1020618e-38
-1.7432823 -2.0671611 1.4477177 2.7669787e-39
-1.430384 -2.6730459 1.4467901 1.0745471e-38
-1.4014592 -2.7259247 1.4467294 8.6346988e-39
-1.0633992 -3.3751423 1.4457707 1.2526327e-38
-0.9684428 -3.5569181 1.4455061 1.3630509e-38
-0.94999164 -3.5987015 1.4454026 1.2986221e-38
-0.9440431 -3.6102316 1.4453849 1.2525606e-38
-0.93784851 -3.6235123 1.4453561 1.2894386e-38
-0.93027115 -3.6360953 1.4453506 1.4092564e-38
-0.92379731 -3.649235 1.4453266 1.1696938e-38
-0.91581982 -3.6639202 1.4453089 1.3263165e-38
-0.90252948 -3.6877236 1.4452852 1.4368784e-38
-0.83511168 -3.8175974 1.4450907 1.1329596e-38
-0.82847148 -3.8308241 1.445068 1.1423241e-38
-1.7376795 -2.0662181 1.4477961 4.5183257e-39
-1.4255567 -2.6554482 1.446993 1.1113893e-38
-1.4278128 -2.6695032 1.4468511 1.0011505e-38
-1.4017489 -2.725631 1.4467282 8.0829684e-39
-1.2928313 -2.9331584 1.4464326 9.3927677e-39
-1.287413 -2.9468527 1.4463907 9.8522955e-39
-1.2190483 -3.0599279 1.4463437 1.3725585e-38
-1.1936082 -3.1127167 1.4462398 1.2895823e-38
-1.1897299 -3.1272159 1.4461719 1.3909259e-38
-1.1809067 -3.1386025 1.4461917 1.409293e-38
-1.1718756 -3.15097 1.4462062 1.2711439e-38
-1.1332517 -3.2292693 1.4460634 1.3079496e-38
-1.128379 -3.2416377 1.4460254 1.2618522e-38
-1.121379 -3.2567649 1.4459919 1.2618523e-38
-1.1147517 -3.2673221 1.4459906 1.3724864e-38
-1.1087964 -3.2832043 1.4459379 1.2895465e-38
-1.0987049 -3.2944901 1.4459745 1.3632309e-38
-1.0923042 -3.3076715 1.4459492 1.3632311e-38
-1.088299 -3.3194587 1.4459047 1.3816702e-38
-1.0826898 -3.3357048 1.4458448 1.3724146e-38
-1.0739104 -3.3460786 1.4458721 1.2157909e-38
-1.0652256 -3.3596375 1.4458727 1.3447194e-38
-1.0543609 -3.3850355 1.4458053 1.3263162e-38
-1.0443531 -3.398345 1.4458246 1.4553178e-38
-1.0254977 -3.4407809 1.4457209 1.3815259e-38
-1.0184412 -3.4508955 1.4457287 1.3630869e-38
-1.0125781 -3.4639966 1.4456971 1.3723427e-38
-1.0042263 -3.4765062 1.445702 1.4184763e-38
-0.99805123 -3.4903569 1.4456683 1.3815623e-38
-0.99016941 -3.5022552 1.4456722 1.4184405e-38
-0.98408204 -3.5155902 1.4456416 1.5198185e-38
-0.9780224 -3.529918 1.4456028 1.3169891e-38
-0.97307086 -3.5428472 1.4455611 1.252489e-38
-0.95860195 -3.5702205 1.4455234 1.3538677e-38
-0.94474196 -3.5950058 1.4454989 1.3906733e-38
-0.93664879 -3.6065006 1.4455086 1.2986569e-38
-0.90599138 -3.6730633 1.4453596 1.5013791e-38
-0.89582121 -3.6887348 1.445362 1.5014148e-38
-0.88901883 -3.6972864 1.445379 1.4184031e-38
-0.88395727 -3.7104914 1.4453366 1.4184031e-38
-0.87613463 -3.7235889 1.4453299 1.5381137e-38
-0.8719728 -3.736984 1.4452746 1.5381496e-38
-0.86897653 -3.752908 1.445184 1.5565888e-38
-1.7294775 -2.0702848 1.4478672 3.1357486e-39
-1.4254569 -2.6557612 1.4469918 1.0011147e-38
-1.4111207 -2.6810601 1.4469692 9.3794567e-39
-1.397651 -2.7070763 1.4469298 1.0118468e-38
-1.3897094 -2.7194755 1.4469302 1.2245441e-38
-1.2888074 -2.9146574 1.4466327 1.2618178e-38
-1.2864561 -2.9299257 1.4465393 9.9459415e-39
-1.2775393 -2.9413059 1.4465604 1.1879159e-38
-1.2692125 -2.953989 1.4465634 1.1603289e-38
-1.2643034 -2.9679275 1.4465131 1.187915e-38
-1.2322499 -3.0338168 1.4463873 1.4001448e-38
-1.2254168 -3.0427704 1.4464015 1.3909618e-38
-1.2134968 -3.0647364 1.4463751 1.2711443e-38
-1.2114056 -3.0725183 1.4463389 1.2988029e-38
-1.1939356 -3.1002207 1.4463364 1.298802e-38
-1.1638517 -3.1633275 1.446208 1.4277683e-38
-1.1582642 -3.1769145 1.4461691 1.4185845e-38
-1.1510506 -3.1896811 1.4461576 1.3263887e-38
-1.1445211 -3.2027926 1.4461344 1.3079497e-38
-1.1371509 -3.2154801 1.4461253 1.3908899e-38
-1.082149 -3.3167682 1.4460043 1.4277675e-38
-1.0766168 -3.3304458 1.445964 1.3078771e-38
-1.0338103 -3.4128757 1.4458408 1.390781e-38
-1.019123 -3.4347112 1.4458505 1.4275874e-38
-1.0128407 -3.4488432 1.445816 1.3446478e-38
-0.94708347 -3.5811121 1.4455812 1.3815253e-38
-1.7675562 -2.0708714 1.4473807 2.2127147e-39
-1.7613292 -2.0736763 1.4474368 2.4882184e-39
-1.4316487 -2.7085011 1.4464881 1.1204649e-38
-1.428822 -2.7230613 1.4464065 1.1112815e-38
-1.3288057 -2.9072802 1.4461861 1.1338284e-38
-1.3208876 -2.9145832 1.4462274 1.1338284e-38
-1.3164418 -2.9287896 1.446169 8.5680923e-39
-1.3112808 -2.9427204 1.4461219 1.2526334e-38
-0.95777678 -3.6173608 1.4451536 1.3630509e-38
-0.95246202 -3.6310854 1.4451101 1.2525606e-38
-1.7577615 -2.0688112 1.4475212 3.4119894e-39
-1.4296114 -2.6905167 1.446659 1.1205008e-38
