# .PCD v0.7 - Point Cloud Data file format
VERSION 0.7
FIELDS x y z rgb
SIZE 4 4 4 4
TYPE F F F F
COUNT 1 1 1 1
WIDTH 381
HEIGHT 1
VIEWPOINT 0 0 0 1 0 0 0
POINTS 381
DATA ascii
-1.7726241 2.6406434 1.4626489 1.0137946e-39
-1.7886572 2.6354315 1.4624724 2.9506133e-39
-1.8798513 2.5036185 1.4615204 2.9488168e-39
-1.892248 2.4999788 1.4613838 2.3041705e-39
-1.904465 2.4931343 1.4612508 2.6725929e-39
-1.9240522 2.4991922 1.4610291 2.76442e-39
-1.9214987 2.4821758 1.4610662 2.5800301e-39
-2.1937213 2.2931805 1.4581213 4.6050801e-39
-2.461941 2.2952883 1.455125 8.2014342e-39
-2.483721 2.2724869 1.4548932 5.2515257e-39
-2.5153301 2.2914262 1.4545308 5.8036191e-39
-2.5077486 2.2788281 1.4546218 3.1317549e-39
-2.5346606 2.2978477 1.4543117 3.4998186e-39
-2.5309558 2.2833145 1.4543604 3.7764041e-39
-2.4964504 2.2185278 1.4547783 6.1738436e-39
-2.543576 2.279248 1.4542215 4.3299352e-39
-2.5094399 2.2118857 1.4546366 5.9908943e-39
-2.5005503 2.2000041 1.4547418 6.2678399e-39
-2.5421009 2.211453 1.454272 5.6221159e-39
-2.5401921 2.1794641 1.4543095 6.0834486e-39
-2.5332286 2.1665785 1.4543937 6.2678413e-39
-2.5701153 2.1969204 1.4539666 5.2540481e-39
-2.5565383 2.1709585 1.4541312 7.1901605e-39
-1.7825611 2.6377563 1.4625393 1.9357439e-39
-1.7503847 2.5049913 1.4629655 3.5034241e-39
-1.8568307 2.4842608 1.4617872 2.8569729e-39
-1.8807803 2.4864163 1.4615188 1.7506352e-39
-1.8767815 2.4739568 1.4615695 2.8558953e-39
-1.8986799 2.4793463 1.4613224 1.7509911e-39
-1.8749834 2.4418862 1.4616059 3.0406439e-39
-1.9116081 2.4724762 1.4611815 1.5669572e-39
-1.9293239 2.4792244 1.4609803 2.2112462e-39
-1.9102743 2.4400311 1.4612126 3.5927373e-39
-1.882054 2.3892968 1.4615533 3.5923786e-39
-1.8668802 2.3634987 1.4617358 3.7760495e-39
-1.8938504 2.3785028 1.461427 4.0529938e-39
-1.8809687 2.3569493 1.4615817 3.7764111e-39
-1.8730766 2.3438196 1.4616765 3.4998242e-39
-1.9165556 2.3872838 1.4611691 3.7767712e-39
-1.9099376 2.3742208 1.4612496 2.9470161e-39
-1.9027123 2.3614507 1.4613366 3.8689668e-39
-1.8950404 2.348896 1.4614286 3.9611611e-39
-1.9090278 2.3416393 1.4612762 4.2366676e-39
-2.0026042 2.3776193 1.4602129 4.2373864e-39
-1.9950523 2.3631268 1.4603046 4.7898413e-39
-1.9890714 2.3508215 1.4603776 4.974227e-39
-2.0160887 2.3687248 1.4600668 4.7901987e-39
-2.0080099 2.3563666 1.4601634 5.2508139e-39
-2.0397947 2.37556 1.4597988 4.6980002e-39
-2.0295122 2.3617404 1.4599205 6.0802088e-39
-2.0241554 2.348012 1.4599873 5.4348464e-39
-2.051141 2.367053 1.4596764 5.1589742e-39
-2.0420754 2.3551936 1.4597836 5.0667828e-39
-2.0829604 2.2325602 1.4593887 5.8050639e-39
-2.0813167 2.219233 1.4594138 4.9770969e-39
-2.0741482 2.2064533 1.4595003 5.345522e-39
-2.1006751 2.2255533 1.4591944 5.5291916e-39
-2.0932131 2.2131484 1.4592839 4.9770969e-39
-2.0807917 2.1866488 1.4594361 6.0820123e-39
-2.1047299 2.2401037 1.4591417 6.2660378e-39
-2.0846534 2.2010219 1.4593856 5.345522e-39
-2.0714507 2.1748798 1.4595463 5.6217488e-39
-2.1223986 2.2349741 1.4589469 5.9898167e-39
-2.1142721 2.2187359 1.4590461 5.2526132e-39
-2.1040859 2.2075005 1.4591655 4.8849082e-39
-2.0983336 2.19398 1.4592364 5.3455248e-39
-2.0929189 2.1802561 1.4593039 4.9763892e-39
-2.0852168 2.1677299 1.4593961 5.530272e-39
-2.0790555 2.154834 1.4594713 6.1742079e-39
-2.165139 2.2914486 1.4584414 5.8043422e-39
-2.1261666 2.2124887 1.4589162 5.253332e-39
-2.1202047 2.1991091 1.4589897 5.6221103e-39
-2.1129405 2.1863575 1.4590771 5.9905355e-39
-2.1062245 2.173342 1.4591587 4.5164858e-39
-2.0968933 2.1616559 1.4592688 5.5295574e-39
-2.0931442 2.1471407 1.459318 5.7146647e-39
-2.1466041 2.2183762 1.458685 3.594538e-39
-2.140518 2.2050564 1.4587597 3.5019864e-39
-2.1333013 2.1922822 1.4588467 6.174568e-39
-2.1264083 2.1793516 1.4589303 5.1618525e-39
-2.1200337 2.1661711 1.4590082 5.5299189e-39
-2.1135302 2.153053 1.4590874 5.3455248e-39
-2.2045066 2.288002 1.4580034 5.9887292e-39
-2.1669323 2.222904 1.4584558 5.8057813e-39
-2.2236953 2.2940311 1.4577862 6.4500633e-39
-2.1900039 2.2289326 1.4581952 5.7139416e-39
-2.1835206 2.2158046 1.4582741 5.437003e-39
-2.2391 2.2890239 1.4576167 5.436996e-39
-2.2117133 2.2342067 1.45795 5.6217404e-39
-2.2019529 2.2227428 1.4580649 5.8979713e-39
-2.1953588 2.2091093 1.4581453 5.9901712e-39
-2.2269828 2.2282166 1.4577826 5.9898082e-39
-2.2170238 2.21488 1.4579005 6.0823612e-39
-2.2487884 2.2315586 1.4575374 5.8968952e-39
-2.2401893 2.2205617 1.457639 5.8976168e-39
-2.2325878 2.2078493 1.4577303 6.0820081e-39
-2.2644827 2.2243474 1.4573658 5.3451605e-39
-2.2549434 2.2118247 1.4574786 5.8976196e-39
-2.2437646 2.1975312 1.4576106 6.358595e-39
-2.2854381 2.2289538 1.4571295 5.1622126e-39
-2.2759788 2.2192531 1.45724 5.4380764e-39
-2.2687922 2.2068603 1.4573265 6.3585978e-39
-2.3989589 2.2870221 1.4558325 7.3720252e-39
-2.4341474 2.2816808 1.4554423 6.3589593e-39
-2.441206 2.2801726 1.4553642 7.9259221e-39
-2.3844497 2.1445451 1.4560663 7.1905136e-39
-2.3728931 2.1340435 1.4562006 7.6511317e-39
-2.3698318 2.1191328 1.4562422 7.6507729e-39
-2.4759648 2.2786822 1.4549768 7.5574955e-39
-2.3963363 2.1548688 1.4559283 7.1901535e-39
-2.3929965 2.1401358 1.4559729 7.1905136e-39
-2.3867331 2.1269019 1.4560496 7.7429672e-39
-2.3796518 2.1140621 1.4561352 7.6507729e-39
-2.3703332 2.1023674 1.4562451 7.7429686e-39
-2.3629911 2.0874894 1.4563346 7.6507729e-39
-2.3512936 2.0645304 1.4564768 7.5585815e-39
-2.3433535 2.0494151 1.456573 7.1901591e-39
-2.426616 2.1721752 1.4555814 7.6504184e-39
-2.4204342 2.1589017 1.4556571 7.8348111e-39
-2.4059112 2.1333966 1.4558322 7.5585787e-39
-2.40365 2.1181083 1.4558651 7.6511359e-39
-2.3944008 2.1070495 1.455974 8.1113979e-39
-2.3889365 2.094785 1.4560412 8.0192009e-39
-2.3789334 2.0813882 1.4561596 7.5582242e-39
-2.3741107 2.0674593 1.4562205 7.9270053e-39
-2.3651404 2.0555308 1.4563267 7.8348097e-39
-2.358156 2.0426445 1.4564111 7.1890801e-39
-2.3473582 2.031724 1.4565371 7.1901619e-39
-2.4574645 2.189296 1.4552284 6.4522325e-39
-2.4625697 2.2030888 1.4551646 6.2681986e-39
-2.4337199 2.1519825 1.4555123 7.8351726e-39
-2.4270029 2.1389661 1.4555938 7.8348125e-39
-2.4201741 2.1258693 1.4556768 7.8351712e-39
-2.4148145 2.1123369 1.4557434 7.5593018e-39
-2.4080482 2.0993452 1.4558256 8.3872674e-39
-2.4016502 2.0861762 1.4559035 8.2957892e-39
-2.3932412 2.0739932 1.4560037 7.3749119e-39
-2.3861749 2.0607507 1.4560891 7.558943e-39
-2.378058 2.0488751 1.4561858 7.1905206e-39
-2.3735778 2.0383332 1.456241 7.3738329e-39
-2.3639205 2.0230989 1.4563566 6.8217381e-39
-2.4862514 2.2090733 1.4548968 6.2674797e-39
-2.4632919 2.1697202 1.4551733 7.55822e-39
-2.4550409 2.1574445 1.4552715 7.006128e-39
-2.4482803 2.1444504 1.4553535 7.7429756e-39
-2.4416044 2.1314151 1.4554346 7.3745532e-39
-2.437145 2.1186812 1.4554908 7.006128e-39
-2.4287508 2.1025913 1.4555926 7.8348139e-39
-2.4214039 2.0923932 1.4556799 8.295792e-39
-2.3919983 2.0417428 1.4560337 7.3745504e-39
-2.3784244 2.0169468 1.4561977 8.1110406e-39
-2.5468628 2.2914522 1.4541787 6.448627e-39
-2.4895787 2.1890483 1.4548699 6.8210165e-39
-2.4827762 2.1760802 1.4549524 6.912852e-39
-2.4749811 2.1627216 1.4550461 7.0054077e-39
-2.4717929 2.148735 1.4550887 7.281996e-39
-2.462733 2.1377773 1.4551954 6.8210193e-39
-2.453876 2.1251011 1.4553008 6.6373483e-39
-2.4493933 2.1108932 1.455358 6.6380685e-39
-2.4436996 2.0973845 1.4554284 7.375272e-39
-2.4363954 2.0845218 1.4555163 7.4663901e-39
-2.4200108 2.060045 1.4557117 7.1905192e-39
-2.4130759 2.0471346 1.4557956 8.2032362e-39
-2.5657072 2.2959116 1.453966 5.7125025e-39
-2.5611994 2.2823825 1.4540231 6.3575202e-39
-2.5275285 2.218992 1.4544311 6.8195801e-39
-2.5208757 2.2059455 1.4545119 5.6221145e-39
-2.514895 2.1947939 1.4545842 6.8206591e-39
-2.5047557 2.1812108 1.4547043 7.0050462e-39
-2.4982681 2.1680846 1.4547833 7.0054077e-39
-2.4775548 2.1293101 1.4550341 7.3749105e-39
-2.4900951 2.1557717 1.4548807 6.8210165e-39
-2.4827671 2.1430511 1.454969 7.2812799e-39
-2.4698586 2.1167669 1.4551264 6.8220997e-39
-2.4625413 2.1040413 1.4552146 7.4663943e-39
-2.5347362 2.1987498 1.4543607 5.7146703e-39
-2.5281034 2.185694 1.4544413 7.1890829e-39
-2.5166571 2.1732836 1.4545754 7.2816373e-39
-2.5138624 2.1599476 1.4546133 7.4660285e-39
-2.5069437 2.1470363 1.454697 7.374193e-39
-2.4980774 2.135046 1.4548022 7.3734728e-39
-2.4934216 2.1210513 1.4548612 8.0188436e-39
-2.4835932 2.1096323 1.4549766 8.1113951e-39
-2.4757085 2.0971801 1.455071 7.0061308e-39
-2.5631692 2.2169759 1.454034 6.5440708e-39
-2.5579605 2.2031682 1.4540991 5.530635e-39
-2.5498545 2.1894844 1.4541966 6.1760058e-39
-2.5289986 2.1537137 1.4544474 7.4663901e-39
-2.5228701 2.1388962 1.4545233 7.9266508e-39
-2.5081508 2.1135321 1.4547005 7.5578654e-39
-2.5128334 2.1275287 1.4546411 7.3738343e-39
-2.4975283 2.1023815 1.4548247 7.5582256e-39
-2.4909554 2.0888097 1.4549049 7.8348153e-39
-2.5619862 2.184586 1.4540635 6.7291824e-39
-2.5483899 2.1586337 1.4542284 6.3607572e-39
-2.5414205 2.1458156 1.4543128 7.3741944e-39
-2.5349755 2.1325939 1.4543912 7.9266508e-39
-2.5272064 2.1201057 1.4544843 7.3741958e-39
-2.5215228 2.1100128 1.4545529 7.3738357e-39
-2.5689614 2.1644566 1.4539958 7.4663901e-39
-2.5556281 2.1383777 1.4541578 7.3734756e-39
-2.5615137 2.1517937 1.4540854 6.3607628e-39
-2.5467186 2.1257987 1.4542636 7.2820002e-39
-2.5344477 2.0997193 1.4544138 7.9273682e-39
-2.5310428 2.085 1.4544592 7.7429756e-39
-2.5169239 2.0593264 1.4546298 7.3745532e-39
-2.5075221 2.0476851 1.4547406 7.8348111e-39
-2.5352924 2.0664003 1.4544212 7.9273682e-39
-2.5474746 2.096916 1.4542698 7.5593018e-39
-2.5402105 2.0802834 1.4543592 7.7429756e-39
-2.5268695 2.0706494 1.4545131 7.9273682e-39
-2.5268865 2.0541997 1.4545211 7.3745532e-39
-2.5199282 2.0413005 1.4546053 7.9270067e-39
-2.5680566 2.1002231 1.4540383 7.9266508e-39
-2.5603681 2.0863738 1.454131 7.3745532e-39
-2.5530131 2.0711462 1.4542209 7.0983236e-39
-2.5470674 2.0602107 1.4542928 7.3745518e-39
-2.5407004 2.0470264 1.4543705 8.6638571e-39
-2.5330496 2.0344615 1.4544623 8.3876303e-39
-2.5258331 2.0216873 1.4545493 8.3879904e-39
-2.5683467 2.0656919 1.4540523 7.5593046e-39
-2.558722 2.0529761 1.4541662 7.5593032e-39
-2.1732664 2.2873013 1.4583527 5.8043422e-39
-2.1876817 2.2812641 1.4581947 4.8816684e-39
-2.2643411 2.257585 1.4573507 5.1589672e-39
-2.2562144 2.2422535 1.4574491 4.5139635e-39
-2.5140338 2.2590313 1.4545616 4.9756633e-39
-2.5073121 2.2460182 1.4546432 5.5288343e-39
-2.5028129 2.2320213 1.4547005 5.4366373e-39
-2.5345781 2.264931 1.4543293 5.988016e-39
-2.5293827 2.2511272 1.4543941 6.6348259e-39
-2.5193539 2.2398119 1.4545119 5.8979798e-39
-2.5169439 2.2263432 1.4545455 6.0820095e-39
-2.5567458 2.2699196 1.4540792 6.7270244e-39
-2.568393 2.2639105 1.4539521 3.2243177e-39
-2.5642114 2.250634 1.4540055 5.067866e-39
-2.0934544 2.2460523 1.4592648 6.2656819e-39
-2.09676 2.2607627 1.4592204 6.2656819e-39
-2.0856743 2.2500272 1.4593496 6.2656819e-39
-2.1353319 2.2906086 1.4587746 6.2653161e-39
-2.1289756 2.2735634 1.4588541 5.7128682e-39
-2.1202619 2.2652113 1.4589555 5.0678618e-39
-2.1160548 2.2508552 1.45901 5.0678632e-39
-2.1121626 2.2403562 1.4590586 5.1607735e-39
-2.1509058 2.2817626 1.4586052 5.8050611e-39
-2.1435196 2.2696493 1.4586937 6.4500689e-39
-2.1386974 2.2558327 1.4587545 4.8838278e-39
-2.1477201 2.2846355 1.4586391 5.5288385e-39
-2.127429 2.2489567 1.4588838 5.0682233e-39
-2.164669 2.2751932 1.4584547 4.606885e-39
-2.1544974 2.2613287 1.4585754 4.7912749e-39
-2.1491177 2.2501838 1.4586411 5.4373589e-39
-2.1375566 2.2395952 1.4587755 4.6083255e-39
-2.1781864 2.2681632 1.4583074 4.514325e-39
-2.1684446 2.2536416 1.4584234 4.9760221e-39
-2.2031169 2.2717586 1.4580271 5.0671373e-39
-2.1918073 2.2611582 1.4581589 4.3299338e-39
-2.1869125 2.2481382 1.45822 5.0685722e-39
-2.1724732 2.2380166 1.4583863 4.8849012e-39
-2.2080159 2.2527552 1.4579821 4.1462628e-39
-2.2172718 2.2774458 1.4578663 5.8050583e-39
-2.211658 2.2655571 1.4579349 5.5284742e-39
-2.1973844 2.238471 1.4581078 4.5154082e-39
-2.2332604 2.272579 1.4576901 5.712864e-39
-2.2197053 2.2466066 1.4578546 4.7916266e-39
-2.2259009 2.2598739 1.4577787 6.634456e-39
-2.2525783 2.2790062 1.4574711 4.2388242e-39
-2.2495272 2.264128 1.4575127 2.8558925e-39
-2.2455056 2.2496977 1.4575649 5.7132186e-39
-2.2334924 2.2404382 1.4577037 4.883818e-39
-2.2733109 2.2497959 1.4572544 5.1604133e-39
-2.2731912 2.2354188 1.457263 4.8834733e-39
-2.2907095 2.2427094 1.4570637 6.1745666e-39
-2.3050768 2.2353888 1.4569068 6.3589607e-39
-2.3920166 2.2726936 1.4559172 7.6493366e-39
-2.4159222 2.2771618 1.4556481 5.8054254e-39
-2.4072149 2.2648492 1.4557515 7.7415322e-39
-2.464041 2.2697859 1.4551144 6.0816451e-39
-2.4566493 2.2545719 1.4552046 7.2816289e-39
-2.4476397 2.2438204 1.4553107 6.7295341e-39
-2.4772029 2.2615614 1.4549716 8.1113867e-39
-2.4992743 2.2686989 1.4547215 5.2518887e-39
-2.4903104 2.254729 1.4548286 5.3451605e-39
-2.4862926 2.2403584 1.4548806 5.8057799e-39
-2.4815707 2.2263243 1.4549406 6.0823696e-39
-2.5197465 2.272531 1.454491 3.9615142e-39
-2.4988461 2.2503426 1.4547355 5.5288343e-39
-2.5483093 2.2577338 1.4541794 6.2660462e-39
-2.5410917 2.2449598 1.4542664 7.0025294e-39
-2.5343435 2.2319601 1.4543484 6.4507962e-39
-2.5547769 2.237849 1.4541173 6.5433534e-39
-2.5461164 2.2257714 1.4542201 6.0827354e-39
-2.5682702 2.2308307 1.4539702 6.3593222e-39
-1.7988231 2.5017588 1.4624262 2.9502517e-39
-1.8320814 2.4971302 1.462057 2.3963577e-39
-1.9309485 2.4651711 1.4609691 2.0268535e-39
-1.9448053 2.4560099 1.4608189 2.8573359e-39
-1.869559 2.4611952 1.4616567 3.224675e-39
-1.8615727 2.4497225 1.4617517 2.9480895e-39
-1.8879898 2.4681234 1.4614474 2.7637025e-39
-1.8822337 2.4546442 1.4615185 3.2246764e-39
-1.9048569 2.4594433 1.4612634 2.5796686e-39
-1.8974811 2.4475288 1.4613518 3.1321193e-39
-1.921734 2.4671214 1.4610711 2.4871114e-39
-1.9168118 2.4531543 1.4611331 3.6852902e-39
-1.9336866 2.4474576 1.4609475 3.040281e-39
-1.795011 2.5660703 1.4624363 2.7662262e-39
-1.7937919 2.5491018 1.4624585 2.5825538e-39
-1.8585819 2.5333111 1.461743 1.0134289e-39
-1.8780469 2.5397029 1.4615225 1.6587997e-39
-1.8883253 2.5170259 1.461419 2.4878401e-39
-1.9046189 2.5091832 1.4612411 1.4740469e-39
-1.7359847 2.546994 1.4631052 3.1346458e-39
-1.7263116 2.5354621 1.463219 3.0424474e-39
-1.7615447 2.5667233 1.4628098 3.6874553e-39
-1.7528245 2.5547268 1.4629132 3.0417355e-39
-1.7485489 2.5404816 1.4629681 3.8722066e-39
-1.7781535 2.5581491 1.4626286 3.3190385e-39
-1.7705989 2.5461884 1.4627188 3.3190385e-39
-1.7658275 2.5315328 1.4627795 3.4115914e-39
-1.7561044 2.5179615 1.4628952 3.6878168e-39
-1.7787549 2.5248916 1.4626385 2.9509748e-39
-1.784956 2.538156 1.4625627 2.9506161e-39
-1.7675917 2.5136359 1.4627689 3.3186713e-39
-1.791581 2.5181952 1.4624988 3.4112257e-39
-1.8762888 2.5238411 1.46155 2.6725901e-39
-1.8703272 2.5367897 1.4616101 1.2896514e-39
-1.8602735 2.5154912 1.4617331 1.6587983e-39
-1.8767307 2.5073392 1.4615533 2.1201323e-39
-1.8970596 2.5129457 1.4613236 1.2900171e-39
-1.9193556 2.5197952 1.4610711 1.2896556e-39
-1.9176908 2.502326 1.4610986 2.6725817e-39
-1.8175299 2.5535469 1.4621911 3.3190385e-39
-1.8086865 2.5401859 1.4622967 3.3193944e-39
-1.8299054 2.5477486 1.4620559 3.1350031e-39
-1.8173621 2.5247493 1.4622076 3.3197545e-39
-1.8010221 2.5320406 1.4623864 3.0431676e-39
-1.8050556 2.5111997 1.4623518 3.4115886e-39
-1.8287469 2.5164726 1.4620847 3.042446e-39
-1.8408285 2.5422392 1.4619367 2.7658591e-39
-1.8498501 2.5210698 1.4618466 1.2900157e-39
-1.8550214 2.5347943 1.461782 1.2896514e-39
-1.8429728 2.5136852 1.4619272 1.7513554e-39
-1.8381394 2.5104635 1.4619827 2.580749e-39
-2.0002942 2.3426774 1.4602563 5.4352037e-39
-2.0375638 2.3410914 1.459841 5.4348464e-39
-1.7817545 2.6243358 1.4625549 2.3048865e-39
-1.8037432 2.627111 1.4623082 2.4899939e-39
-1.7751763 2.6093044 1.4626361 2.4892792e-39
-1.7716085 2.6275604 1.4626667 2.0279409e-39
-1.7650532 2.614459 1.4627465 2.6736705e-39
-1.7968174 2.5837605 1.4624072 2.5818364e-39
-1.7570009 2.5856106 1.462851 3.2268428e-39
-1.7482313 2.5732615 1.4629552 3.1342801e-39
-1.786098 2.5870826 1.4625254 2.8584219e-39
-1.7848667 2.572324 1.4625465 3.042453e-39
-1.7985773 2.5972795 1.4623809 2.5821923e-39
-1.7608017 2.6001716 1.4628012 3.0420928e-39
-1.7851459 2.60131 1.4625288 2.3974423e-39
-1.7758503 2.5923333 1.4626371 2.5818364e-39
-1.8900735 2.4340975 1.4614413 3.5001829e-39
-1.9015954 2.4273746 1.461316 3.6852902e-39
-1.923678 2.4331238 1.4610665 3.8693228e-39
-1.9372061 2.426162 1.4609189 3.8693186e-39
-1.9450098 2.4383457 1.4608256 3.6852846e-39
-2.5222213 2.3043578 1.4544473 3.8675123e-39
-2.5422254 2.3104539 1.4542208 4.5132418e-39
-2.4775078 2.2937739 1.4549519 6.9103282e-39
-2.5528014 2.3048427 1.4541056 4.8827488e-39
-2.0209363 2.3332002 1.4600306 5.3430109e-39
-2.0092194 2.322763 1.4601668 5.527042e-39
-2.0303383 2.3283215 1.4599282 5.3430109e-39
-2.0243297 2.3197846 1.4599994 5.5270434e-39
-2.0522232 2.3326118 1.4596816 5.7143018e-39
-2.0469778 2.3197138 1.4597466 4.8838362e-39
-2.0717936 2.3398211 1.4594594 4.3310156e-39
-2.0652957 2.3266776 1.4595386 2.2108888e-39
-2.0593796 2.3132935 1.4596114 4.4228623e-39
-2.0514247 2.3018143 1.4597059 3.5931016e-39
-2.154968 2.2966378 1.4585524 6.4493459e-39
-2.2105894 2.3007896 1.4579291 5.7121466e-39
