# .PCD v0.7 - Point Cloud Data file format
VERSION 0.7
FIELDS x y z rgb
SIZE 4 4 4 4
TYPE F F F F
COUNT 1 1 1 1
WIDTH 1014
HEIGHT 1
VIEWPOINT 0 0 0 1 0 0 0
POINTS 1014
DATA ascii
-3.0890005 0.45852914 0.15664329 2.3211995e-38
-3.0884421 0.44461396 0.15696369 2.3399629e-38
-3.0878861 0.43112752 0.156868 2.330708e-38
-3.087307 0.41563737 0.15833947 2.3304193e-38
-3.0890436 0.44759724 0.16961056 2.3204805e-38
-3.0883467 0.42907158 0.17125086 2.3299158e-38
-3.0897636 0.44793716 0.18824364 2.328584e-38
-3.0890908 0.43470201 0.18481004 2.3381274e-38
-3.0907938 0.46495584 0.19703311 2.3373354e-38
-3.0903182 0.45015201 0.20049402 2.3372997e-38
-3.0921712 0.47846216 0.21877867 2.3353918e-38
-3.0913844 0.46556857 0.21196225 2.3085968e-38
-3.0930912 0.49338865 0.22691602 2.3166652e-38
-3.0937376 0.49575391 0.24141385 2.3252736e-38
-3.0941942 0.49691629 0.25220835 2.3248782e-38
-3.0948515 0.49898875 0.26732236 2.3246621e-38
-3.0961745 0.51631325 0.28349817 2.2872443e-38
-3.0954876 0.50145614 0.28143963 2.2780964e-38
-3.0976307 0.54113477 0.29509136 2.2779162e-38
-3.0971301 0.52937615 0.2945933 2.2963561e-38
-3.0966215 0.51419437 0.29759729 2.2780253e-38
-3.0983133 0.54509604 0.3088232 2.2684815e-38
-3.0989146 0.54724383 0.32237265 2.2871006e-38
-3.1005192 0.57337946 0.33644426 2.1035722e-38
-3.1001034 0.56270617 0.33701763 2.1969204e-38
-3.0994711 0.54919481 0.33494824 2.1595376e-38
-3.101248 0.57894713 0.34966075 2.1423596e-38
-3.1006937 0.56599587 0.3490454 2.2814814e-38
-3.1001666 0.55214733 0.35011131 2.2834981e-38
-3.0820796 0.34462386 0.097188778 2.3509845e-38
-3.0815279 0.33222559 0.09603674 2.3509844e-38
-3.0838065 0.37756383 0.10713052 2.3501555e-38
-3.083478 0.3677521 0.10907196 2.3413705e-38
-3.0821211 0.33326682 0.11056872 2.3325113e-38
-3.0845134 0.37790391 0.12542567 2.349797e-38
-3.0839343 0.36620262 0.12279613 2.3410462e-38
-3.0832825 0.35061491 0.12245867 2.3219211e-38
-3.0827236 0.33653608 0.12293797 2.3412987e-38
-3.0854568 0.39157715 0.13553362 2.340758e-38
-3.0844333 0.36545357 0.13678449 2.3501214e-38
-3.082761 0.32423168 0.1372377 2.3505899e-38
-3.0869091 0.41318306 0.15049645 2.3400726e-38
-3.0861747 0.39494964 0.15084282 2.3398212e-38
-3.087353 0.40982965 0.16584593 2.3300958e-38
-3.0867753 0.39657748 0.16493437 2.3209484e-38
-3.0878301 0.41160977 0.17650859 2.3297714e-38
-3.0885522 0.41545364 0.19141537 2.3191483e-38
-3.0880461 0.40255427 0.19201033 2.3286917e-38
-3.0896499 0.43104649 0.20351966 2.3371195e-38
-3.0907998 0.44528753 0.21846291 2.3177093e-38
-3.092428 0.4723143 0.23220532 2.3260656e-38
-3.0918844 0.45987388 0.23130985 2.335177e-38
-3.0913954 0.44677922 0.23257571 2.335141e-38
-3.0930767 0.47550344 0.24588183 2.3253822e-38
-3.0937655 0.47825369 0.2610859 2.3154429e-38
-3.0931396 0.46267232 0.26142085 2.3157671e-38
-3.0943203 0.48046646 0.27334428 2.3153348e-38
-3.095449 0.49360725 0.28891337 2.3057555e-38
-3.0948915 0.48044297 0.2884433 2.2872806e-38
-3.0961852 0.49981073 0.30163574 2.2963561e-38
-3.0977302 0.52566516 0.31444949 2.277845e-38
-3.0972221 0.5128327 0.31492719 2.2686257e-38
-3.0983846 0.52874708 0.32838809 2.2687339e-38
-3.0990815 0.53219867 0.34305888 2.2531381e-38
-3.0995657 0.53537142 0.35239878 2.3103292e-38
-3.0990098 0.51958764 0.35479936 2.2272096e-38
-3.0813389 0.32706159 0.096632764 2.3509844e-38
-3.080965 0.31459647 0.10025894 2.3509121e-38
-3.0826621 0.34310558 0.11420533 2.3503008e-38
-3.0816369 0.31756017 0.11477876 2.3323314e-38
-3.0821607 0.32151517 0.12433181 2.3413349e-38
-3.0816369 0.30595657 0.12733318 2.3506263e-38
-3.0839651 0.3484447 0.14282362 2.3402176e-38
-3.0833125 0.3365736 0.13844436 2.3505536e-38
-3.0822351 0.30765206 0.14129256 2.3411903e-38
-3.0850081 0.36257842 0.15506369 2.3218493e-38
-3.0844481 0.34774464 0.15633045 2.3482842e-38
-3.0837474 0.33453393 0.15212578 2.3216689e-38
-3.0832815 0.32152402 0.15390442 2.3224255e-38
-3.0866606 0.3902767 0.16871522 2.3302755e-38
-3.087188 0.39085776 0.18201366 2.3295197e-38
-3.086755 0.37868279 0.18375824 2.3387397e-38
-3.0878932 0.39361835 0.19764657 2.3375158e-38
-3.0873501 0.3801662 0.19786109 2.32844e-38
-3.088933 0.40856251 0.20892774 2.3463393e-38
-3.0902197 0.42745265 0.22245021 2.3267488e-38
-3.0896215 0.41261807 0.22270888 2.3083098e-38
-3.0911152 0.43539444 0.2374943 2.3352851e-38
-3.0902505 0.41219589 0.23977199 2.3443614e-38
-3.0924959 0.45619226 0.25143731 2.3066194e-38
-3.0919468 0.44320586 0.25099394 2.3161266e-38
-3.0925601 0.44526973 0.26495403 2.3155874e-38
-3.0920031 0.43010053 0.26666439 2.315587e-38
-3.0936139 0.4598439 0.27700433 2.3062241e-38
-3.0931566 0.44557476 0.28037322 2.3244467e-38
-3.0942996 0.46269032 0.29202649 2.2780616e-38
-3.0954778 0.47864339 0.30586675 2.2778814e-38
-3.0966258 0.49405354 0.31950215 2.277809e-38
-3.0978346 0.51060992 0.33349305 2.2693097e-38
-3.0983872 0.51398277 0.34443116 2.2703176e-38
-3.0979443 0.50017285 0.34768173 2.2804734e-38
-3.0983195 0.5007931 0.3569124 2.3013984e-38
-3.0977495 0.48611781 0.35774505 2.3014346e-38
-3.0984533 0.48918676 0.3730081 2.304638e-38
-3.0792136 0.27838898 0.093192436 2.3509856e-38
-3.0786529 0.26387185 0.094097376 2.3509858e-38
-3.0802639 0.29457149 0.10340463 2.3508755e-38
-3.0792584 0.26787683 0.10575239 2.3416937e-38
-3.0787289 0.25594312 0.10467805 2.3416205e-38
-3.0809822 0.30006912 0.11641984 2.3507705e-38
-3.0804358 0.28443885 0.11890703 2.3506981e-38
-3.0798492 0.26835972 0.12082635 2.3506982e-38
-3.0813432 0.29415795 0.13234964 2.3506622e-38
-3.0819793 0.29717848 0.14586532 2.3226427e-38
-3.0835209 0.31772566 0.16433597 2.3492189e-38
-3.0827579 0.30446461 0.1585446 2.3406481e-38
-3.0854869 0.35798758 0.17266849 2.339352e-38
-3.0849006 0.34406239 0.17226076 2.3389559e-38
-3.0844624 0.33224332 0.1734806 2.348787e-38
-3.0833542 0.30408862 0.17468917 2.3027972e-38
-3.0861406 0.36013809 0.18760212 2.3382358e-38
-3.0856202 0.34643283 0.18868937 2.3383077e-38
-3.0850616 0.33242691 0.1890979 2.3014653e-38
-3.0845077 0.31953785 0.18842231 2.3386675e-38
-3.08689 0.36525339 0.20184934 2.3097492e-38
-3.0862164 0.34819308 0.20252346 2.3461244e-38
-3.0884986 0.39440522 0.2127689 2.3367242e-38
-3.0879369 0.37899381 0.21462204 2.3275766e-38
-3.0874178 0.36634669 0.21460322 2.3274327e-38
-3.0868108 0.349534 0.21676452 2.3457648e-38
-3.0890362 0.39373031 0.22769395 2.3360042e-38
-3.0885179 0.37778971 0.23125349 2.3356452e-38
-3.0908027 0.42465773 0.24086225 2.3443613e-38
-3.0897617 0.39688668 0.24343364 2.3257419e-38
-3.0913947 0.4246189 0.25653729 2.3158747e-38
-3.0908847 0.41238686 0.25630575 2.3066558e-38
-3.09027 0.39564341 0.25819522 2.3343508e-38
-3.091712 0.42008659 0.26981586 2.2971842e-38
-3.0925944 0.43067411 0.28165033 2.3152271e-38
-3.0920308 0.41554189 0.28314218 2.3060079e-38
-3.0936139 0.44177139 0.29655564 2.2965365e-38
-3.0930791 0.42979085 0.29540163 2.2872808e-38
-3.0926178 0.41505706 0.29916576 2.296357e-38
-3.0948994 0.46117803 0.30949968 2.277954e-38
-3.0943553 0.44596198 0.31158912 2.2778816e-38
-3.0960515 0.47626799 0.32358149 2.2869213e-38
-3.0955005 0.46232858 0.32411483 2.2777738e-38
-3.0977483 0.50335133 0.33907023 2.1867649e-38
-3.0972102 0.49295163 0.3361164 2.1770413e-38
-3.0966511 0.47879604 0.33667028 2.1953011e-38
-3.0961256 0.4642238 0.33857235 2.2785284e-38
-3.0972455 0.48013324 0.35091496 2.2530318e-38
-3.0969286 0.47166467 0.35171694 2.2435245e-38
-3.0976465 0.47664481 0.36527985 2.3292363e-38
-3.0975299 0.46884748 0.37063462 2.33136e-38
-3.0978258 0.46974328 0.37747684 2.3126682e-38
-3.0798008 0.2780498 0.10906445 2.3416949e-38
-3.078553 0.2492549 0.1072695 2.3416582e-38
-3.0783875 0.24267161 0.11002719 2.3416954e-38
-3.0792634 0.25289258 0.12209716 2.3414786e-38
-3.080972 0.28038257 0.13745143 2.3413343e-38
-3.0801654 0.26624468 0.13145986 2.3501575e-38
-3.08164 0.2827957 0.15247573 2.3409012e-38
-3.0824456 0.29091063 0.16496222 2.3497239e-38
-3.0839016 0.31536743 0.17692785 2.3397831e-38
-3.0826957 0.28645447 0.17638032 2.3120888e-38
-3.0839376 0.30283999 0.19144404 2.3388473e-38
-3.083391 0.28891799 0.19207197 2.3385955e-38
-3.0856466 0.3315253 0.20551591 2.3467718e-38
-3.0850952 0.31926236 0.20423254 2.3472754e-38
-3.0845113 0.30370405 0.20564494 2.3377682e-38
-3.0839739 0.2902171 0.20605285 2.3378036e-38
-3.0862706 0.33353746 0.21981502 2.3085264e-38
-3.0856831 0.31955096 0.21943617 2.3274332e-38
-3.0879533 0.36215463 0.23327141 2.3172778e-38
-3.0871732 0.34746358 0.22857025 2.2989108e-38
-3.0891106 0.37793979 0.2467397 2.3071952e-38
-3.090121 0.38902059 0.26142886 2.3252743e-38
-3.0914171 0.4095467 0.27342916 2.3246633e-38
-3.0907984 0.39384919 0.27407867 2.3063679e-38
-3.0914583 0.39729556 0.28777015 2.2782771e-38
-3.0927963 0.4124985 0.30664048 2.2777737e-38
-3.0920982 0.39912593 0.30268514 2.2872452e-38
-3.0937631 0.4272044 0.3162539 2.287029e-38
-3.0948203 0.4414337 0.32876819 2.2963205e-38
-3.0955369 0.44413698 0.3447651 2.2135966e-38
-3.0967026 0.46018425 0.35816684 2.1887822e-38
-3.0960987 0.4451074 0.3585408 2.1768981e-38
-3.0972638 0.46218693 0.37081221 2.2942655e-38
-3.0973852 0.45300996 0.38395765 2.3501216e-38
-3.0979257 0.45315528 0.39806336 2.1827281e-38
-3.0985065 0.45560125 0.41074163 2.1552497e-38
-3.0993814 0.46418527 0.42455557 1.8962732e-38
-3.0804431 0.26266107 0.14266568 2.3411187e-38
-3.0811188 0.26497519 0.15800332 2.3406848e-38
-3.0820518 0.27742916 0.16914934 2.3310677e-38
-3.0815964 0.26372629 0.17195253 2.3493981e-38
-3.0823042 0.2690579 0.18487491 2.3487497e-38
-3.0828176 0.27002904 0.19737025 2.3293392e-38
-3.0834568 0.27270338 0.21134652 2.3193282e-38
-3.0863423 0.32748732 0.22825623 2.3264609e-38
-3.0858686 0.31452015 0.22977917 2.3453325e-38
-3.0852358 0.30222189 0.22638132 2.3456563e-38
-3.0845473 0.28763103 0.22398901 2.3183572e-38
-3.0874026 0.34250817 0.23998936 2.3354294e-38
-3.0851383 0.28704798 0.24021468 2.3450447e-38
-3.0885231 0.35840181 0.25237128 2.3164149e-38
-3.0874016 0.32883954 0.25475135 2.2979395e-38
-3.0897131 0.37304541 0.26794845 2.306404e-38
-3.0891087 0.35712928 0.26920718 2.3249872e-38
-3.0901802 0.37347937 0.27980015 2.3061879e-38
-3.0908339 0.3776547 0.29253894 2.2782411e-38
-3.0922201 0.39342043 0.31206852 2.250186e-38
-3.0915654 0.38070884 0.3085379 2.305648e-38
-3.0932324 0.40967637 0.32121322 2.2961412e-38
-3.0920546 0.37876585 0.32356247 2.27781e-38
-3.0941982 0.42094323 0.33451101 2.2870648e-38
-3.0937684 0.40857449 0.33654398 2.2778095e-38
-3.0949447 0.42544153 0.34934646 2.2134527e-38
-3.0957165 0.43223411 0.36237636 2.1767543e-38
-3.0949593 0.41175082 0.36454627 2.1399477e-38
-3.0965555 0.44090047 0.37514642 2.0759152e-38
-3.0961142 0.4275699 0.37792015 2.1399473e-38
-3.0973177 0.44568452 0.3900955 2.0892386e-38
-3.0979087 0.44640392 0.40491453 2.0143649e-38
-3.0985274 0.44965264 0.41773307 1.9322164e-38
-3.099333 0.45778036 0.43020651 1.5707457e-38
-3.1001256 0.46336913 0.44508529 1.8569466e-38
-3.1006613 0.46516973 0.45727029 1.7092893e-38
-3.1013479 0.46849304 0.47180328 1.9590084e-38
-3.0812852 0.25271708 0.17565146 2.3494341e-38
-3.0819187 0.2556785 0.18916564 2.3392063e-38
-3.0822439 0.25128752 0.2025024 2.3292669e-38
-3.082927 0.2554405 0.21604541 2.3284038e-38
-3.0839658 0.26874796 0.22906515 2.3462309e-38
-3.0868027 0.32345957 0.24476619 2.3261019e-38
-3.0862551 0.31057346 0.24424751 2.3168103e-38
-3.0856323 0.29584572 0.24374323 2.3263537e-38
-3.0848055 0.2759662 0.24342619 2.3082027e-38
-3.086952 0.31355581 0.25942057 2.3162708e-38
-3.086354 0.30032629 0.25794461 2.3069434e-38
-3.0855854 0.28444016 0.25484318 2.3163787e-38
-3.0886855 0.34425896 0.2719596 2.3340267e-38
-3.0879383 0.32705224 0.27084979 2.3064397e-38
-3.0896792 0.355147 0.28641617 2.2876769e-38
-3.0891297 0.34087551 0.28734055 2.3152274e-38
-3.0904119 0.36030406 0.30017522 2.2781335e-38
-3.0897248 0.34240615 0.30139756 2.3057562e-38
-3.0920033 0.38640407 0.31395176 2.2687335e-38
-3.0910208 0.36265603 0.31370205 2.296357e-38
-3.0926073 0.39140925 0.32447645 2.2593704e-38
-3.0914941 0.36263537 0.32621267 2.2594067e-38
-3.0932043 0.39337358 0.33811247 2.2871014e-38
-3.0926065 0.37833905 0.33859721 2.2318558e-38
-3.0943484 0.40652347 0.35407779 2.2226358e-38
-3.0937312 0.3919194 0.35358217 2.1950856e-38
-3.0932286 0.3779276 0.35546184 2.2227081e-38
-3.095511 0.42417389 0.36567411 2.2044848e-38
-3.0944016 0.39520681 0.36773041 2.1491674e-38
-3.0969462 0.43824628 0.3883369 2.1123961e-38
-3.0955467 0.41175553 0.38005224 2.1860814e-38
-3.0949779 0.3949776 0.38318375 2.1032496e-38
-3.0975082 0.44544142 0.39538592 2.1123961e-38
-3.0966032 0.42497811 0.39363766 2.0297804e-38
-3.0955741 0.39677584 0.39698088 2.0481482e-38
-3.0975792 0.44048139 0.4026241 2.0518925e-38
-3.0973639 0.42857078 0.40983149 2.1230927e-38
-3.0987005 0.44444114 0.42793682 1.7633134e-38
-3.0980668 0.43446022 0.42200643 2.1522985e-38
-3.0995893 0.45740202 0.43738523 1.8098423e-38
-3.1004913 0.46802384 0.44970182 1.8661302e-38
-3.1008801 0.46622178 0.46191368 1.6917156e-38
-3.1016998 0.47255221 0.47669658 1.968264e-38
-3.1021652 0.47150502 0.49011406 2.3390248e-38
-3.1027281 0.47390684 0.50238353 2.3479545e-38
-3.0725448 0.075289585 0.13688503 2.3409389e-38
-3.073657 0.090348601 0.14995623 2.3414075e-38
-3.0731301 0.075241826 0.15239812 2.3411191e-38
-3.0824468 0.2508882 0.20829828 2.3384146e-38
-3.083164 0.25584501 0.22186059 2.3285113e-38
-3.0837975 0.25880721 0.23537485 2.3460509e-38
-3.0845068 0.26468664 0.24773458 2.3176364e-38
-3.0853038 0.2704514 0.26254132 2.3354636e-38
-3.0873752 0.30799207 0.27660593 2.3156953e-38
-3.0869923 0.29711494 0.2782644 2.3340627e-38
-3.0862997 0.28113917 0.27726877 2.324951e-38
-3.0884955 0.32254714 0.29043832 2.324591e-38
-3.0879917 0.30796561 0.29291236 2.3431025e-38
-3.0874395 0.29541939 0.29190397 2.2967526e-38
-3.0891454 0.32596332 0.30389535 2.3059358e-38
-3.0902936 0.34135461 0.31755707 2.2963568e-38
-3.0920134 0.36980096 0.33217874 2.2318191e-38
-3.0909431 0.34384337 0.33200979 2.2778457e-38
-3.0920556 0.35842195 0.34560001 2.2134527e-38
-3.0930164 0.36944675 0.35902938 2.2227081e-38
-3.0937207 0.37510481 0.37150076 2.1399838e-38
-3.0942855 0.37601072 0.38543323 2.0847385e-38
-3.0972314 0.43441963 0.40000117 2.0938852e-38
-3.0961268 0.40945938 0.39785615 2.0203812e-38
-3.0949087 0.37939173 0.39822426 2.0388206e-38
-3.0967145 0.40913585 0.41371444 2.0021221e-38
-3.0960822 0.39489549 0.41242665 1.9009951e-38
-3.0957394 0.38511625 0.41396007 1.9653161e-38
-3.095175 0.37235743 0.41287059 1.9744637e-38
-3.0977664 0.42323613 0.42622715 1.8827717e-38
-3.0995553 0.45313996 0.44108787 1.8184146e-38
-3.0989237 0.43867171 0.44008258 1.9939449e-38
-3.0982068 0.42565557 0.43523321 1.8739472e-38
-3.1004345 0.46141914 0.45534793 1.5981529e-38
-3.0996163 0.4431648 0.45349565 1.9764062e-38
-3.0992644 0.43348953 0.45467398 1.6899525e-38
-3.1011939 0.46738836 0.46893471 1.653111e-38
-3.1017575 0.46868536 0.48240873 1.6906711e-38
-3.1023271 0.47012189 0.49588618 1.977122e-38
-3.1026297 0.46519262 0.50920993 2.2826262e-38
-3.1033058 0.46775484 0.5242849 2.2453169e-38
-3.1025987 0.45060116 0.52417815 1.9671866e-38
-3.0723052 0.10040112 0.10339731 2.3507673e-38
-3.0717385 0.089927755 0.099769607 2.3509116e-38
-3.071373 0.077785015 0.10325792 2.3507679e-38
-3.0696011 0.03375265 0.10412692 2.3505526e-38
-3.0735364 0.11659871 0.11837297 2.3321866e-38
-3.0724523 0.091429539 0.11698507 2.3322234e-38
-3.0715044 0.053400546 0.13310277 2.3409387e-38
-3.0702479 0.026280571 0.12927866 2.3502306e-38
-3.0730641 0.084263325 0.14088559 2.3501582e-38
-3.0723755 0.068916693 0.13932084 2.3408307e-38
-3.0719717 0.058524244 0.13989621 2.3408666e-38
-3.0714278 0.043056291 0.14228038 2.3503749e-38
-3.0742106 0.09830571 0.1559678 2.3409745e-38
-3.0726435 0.059461869 0.15662092 2.3409386e-38
-3.0745814 0.097006753 0.1671555 2.3408296e-38
-3.0737205 0.074138865 0.16917326 2.3407938e-38
-3.0731487 0.058483671 0.17102127 2.3499779e-38
-3.0748312 0.088883787 0.18254307 2.3491487e-38
-3.0838866 0.2446419 0.25306678 2.3085607e-38
-3.0851262 0.26298705 0.26592666 2.3441794e-38
-3.0845804 0.24754547 0.2682294 2.3263165e-38
-3.0857303 0.26273748 0.28215694 2.3347094e-38
-3.0868726 0.27789316 0.29590696 2.3246266e-38
-3.0884926 0.30527622 0.30905145 2.3056123e-38
-3.0879087 0.29211816 0.30786604 2.3148677e-38
-3.0897341 0.32337886 0.32222325 2.2686261e-38
-3.0891681 0.3100535 0.3217085 2.2963205e-38
-3.0864444 0.24415046 0.32111087 2.2263739e-38
-3.0857699 0.22878097 0.31993157 2.1834111e-38
-3.0902786 0.32480207 0.33506754 2.2410396e-38
-3.0897677 0.31022799 0.33734441 2.2961761e-38
-3.0892134 0.29726306 0.33674264 2.2592992e-38
-3.0869982 0.24483906 0.33498505 2.1802793e-38
-3.0864437 0.23269661 0.33348224 2.3417312e-38
-3.0919943 0.35210538 0.3508158 2.2319277e-38
-3.0914731 0.33931434 0.35089564 2.204305e-38
-3.0909197 0.32537508 0.35137093 2.1306927e-38
-3.0903616 0.31143025 0.35172021 2.2319637e-38
-3.0881362 0.25753573 0.35128766 2.1592499e-38
-3.0875831 0.2448047 0.35045865 2.3498332e-38
-3.0926671 0.35547173 0.36492833 2.195085e-38
-3.0932515 0.35725963 0.37842545 2.1306923e-38
-3.0938597 0.35925138 0.39232859 2.0848105e-38
-3.0955708 0.3887004 0.40562987 2.0296005e-38
-3.0943844 0.36115456 0.40411988 2.0204534e-38
-3.0951793 0.36720812 0.41855171 2.0020864e-38
-3.0973549 0.4064624 0.43351141 1.882664e-38
-3.0967896 0.39373285 0.43235779 1.8826281e-38
-3.0961659 0.37872708 0.43212938 1.9101785e-38
-3.0984392 0.42075434 0.44667196 1.8367099e-38
-3.0973194 0.39176241 0.44847593 1.8091594e-38
-3.0967624 0.37817034 0.44848278 1.8458935e-38
-3.1002469 0.45053324 0.46217379 1.7357268e-38
-3.0996251 0.43762565 0.45972356 1.7724254e-38
-3.0990355 0.4222022 0.46084464 1.735691e-38
-3.1012797 0.46476275 0.47403961 1.7457005e-38
-3.1001856 0.43680245 0.47540188 1.6897741e-38
-3.1019161 0.46700716 0.488408 2.0791493e-38
-3.1007774 0.43756187 0.49020746 1.6530392e-38
-3.1023788 0.46611124 0.50159484 1.6348872e-38
-3.1028605 0.46545276 0.51502168 1.5154293e-38
-3.1021066 0.44405273 0.51827174 1.8009114e-38
-3.1031311 0.45904225 0.52909666 2.0221069e-38
-3.1023736 0.4416748 0.52789056 1.7175037e-38
-3.1021194 0.43239561 0.5312258 1.8834191e-38
-3.1017315 0.42106152 0.53324813 1.8277062e-38
-3.0709729 0.069507979 0.10165295 2.3506956e-38
-3.0706649 0.056182839 0.10793839 2.3413682e-38
-3.0701635 0.044281218 0.10758221 2.3413332e-38
-3.0696185 0.0308425 0.1077323 2.341334e-38
-3.0691314 0.01899137 0.10769562 2.3411886e-38
-3.0718763 0.073810533 0.12084179 2.3411185e-38
-3.0713596 0.058983821 0.12324371 2.3501583e-38
-3.0708697 0.045610212 0.12477589 2.2945168e-38
-3.0702803 0.032412536 0.12350576 2.3130281e-38
-3.0697656 0.019664347 0.12371057 2.3503023e-38
-3.0690825 0.0066028768 0.11980786 2.3504827e-38
-3.0735586 0.1006929 0.13616866 2.3502302e-38
-3.0731161 0.090396732 0.13562641 2.3501583e-38
-3.0724604 0.077198803 0.13260034 2.3501589e-38
-3.0718997 0.062709443 0.13347809 2.3499061e-38
-3.0707958 0.037819657 0.13126458 2.3501946e-38
-3.0696487 0.0083353482 0.13287324 2.3411554e-38
-3.0741501 0.10129131 0.15113048 2.33161e-38
-3.0734231 0.085796379 0.14871162 2.3412271e-38
-3.0702312 0.010966908 0.14541636 2.3410832e-38
-3.0739954 0.08729393 0.1621905 2.350627e-38
-3.0714233 0.025935574 0.16068186 2.3410105e-38
-3.0742748 0.081341587 0.17601062 2.348787e-38
-3.0739655 0.068783112 0.18143445 2.3484636e-38
-3.0725653 0.041671731 0.17379671 2.3406862e-38
-3.0720146 0.026406543 0.17578462 2.3312506e-38
-3.0734665 0.055725824 0.18238093 2.3390283e-38
-3.0731659 0.04128816 0.1900688 2.340361e-38
-3.0765517 0.11190531 0.20304538 2.3384876e-38
-3.0761285 0.10174498 0.20286742 2.3385959e-38
-3.0768497 0.11285034 0.20988479 2.3195806e-38
-3.0839763 0.22786295 0.27357963 2.3360029e-38
-3.0851345 0.24371852 0.28699544 2.3171328e-38
-3.0870082 0.27296233 0.30482414 2.3333427e-38
-3.0862615 0.25896162 0.30025738 2.2978665e-38
-3.0875473 0.27629742 0.31544438 2.2966798e-38
-3.0868795 0.26110861 0.31424251 2.2524895e-38
-3.0863221 0.24618325 0.31567952 2.321849e-38
-3.085762 0.23186587 0.31639045 2.2842523e-38
-3.0854013 0.22211094 0.31741941 2.3231137e-38
-3.0885794 0.28966793 0.32822758 2.3146879e-38
-3.0880291 0.27454802 0.33006263 2.3330175e-38
-3.0875967 0.26665184 0.32717705 2.278204e-38
-3.0870061 0.25064251 0.32891434 2.2458585e-38
-3.0861685 0.2361141 0.32251915 2.2028178e-38
-3.085618 0.21884382 0.32667783 2.341731e-38
-3.0886931 0.27975273 0.34194919 2.3146874e-38
-3.0879405 0.26347044 0.33969906 2.2142787e-38
-3.087533 0.2541306 0.33905032 2.2152863e-38
-3.086015 0.2161622 0.34005582 2.3508807e-38
-3.0897982 0.29625812 0.35326093 2.2779536e-38
-3.0893261 0.28248042 0.35570905 2.2318195e-38
-3.0885687 0.26410586 0.35559762 2.1129363e-38
-3.0866485 0.21912597 0.35357007 1.9812693e-38
-3.0858946 0.19971383 0.35466748 2.1935692e-38
-3.0920613 0.3379699 0.36787507 2.2044127e-38
-3.091397 0.32098734 0.3687163 2.1675705e-38
-3.0907922 0.30774224 0.36708188 2.139948e-38
-3.0902708 0.29512855 0.36695814 2.2043407e-38
-3.0892658 0.26726201 0.37057638 2.1493826e-38
-3.0885763 0.25521499 0.36541829 2.2351677e-38
-3.0881343 0.24224798 0.36777717 2.2945176e-38
-3.0926571 0.33964109 0.38179559 2.1307284e-38
-3.0921013 0.32614973 0.38172519 2.1123252e-38
-3.0892246 0.25557992 0.38213131 2.1728285e-38
-3.0932436 0.3397263 0.39719358 2.1031053e-38
-3.0926824 0.32448474 0.39886349 2.0848464e-38
-3.0943925 0.3558861 0.41003171 2.048076e-38
-3.0950625 0.35828516 0.42512298 1.9561325e-38
-3.09547 0.35882333 0.43529537 1.8918114e-38
-3.0978677 0.4033137 0.45045015 1.8276708e-38
-3.0961399 0.36117685 0.45043537 1.8550773e-38
-3.0984688 0.40629062 0.46310315 1.7541297e-38
-3.0979121 0.39269963 0.46310893 1.7999757e-38
-3.0973487 0.37759495 0.46458417 1.7816448e-38
-3.0968118 0.36394492 0.46517232 1.8091594e-38
-3.0996137 0.41965607 0.47885898 1.754058e-38
-3.099153 0.40688437 0.48052159 1.7081402e-38
-3.0985348 0.39419323 0.47793168 1.7448744e-38
-3.0979502 0.37947085 0.47843131 1.7632415e-38
-3.1013303 0.45024478 0.49108315 1.7827246e-38
-3.1002076 0.42108732 0.49299219 1.6622584e-38
-3.1024737 0.46258399 0.50790977 1.7921586e-38
-3.102051 0.45093721 0.50935274 1.7454865e-38
-3.1012585 0.43485397 0.50583786 1.6347078e-38
-3.1007957 0.42076206 0.50887102 1.634744e-38
-3.1028266 0.45939144 0.52068084 1.6714422e-38
-3.1025076 0.45015964 0.52225149 1.7362667e-38
-3.1022315 0.44519323 0.52033824 1.634672e-38
-3.1014185 0.42559949 0.52006799 1.7357629e-38
-3.1028628 0.45319021 0.52835143 1.8278506e-38
-3.1025503 0.44112653 0.53314978 1.9290132e-38
-3.1012907 0.41304693 0.53027999 1.8001919e-38
-3.1010082 0.40023145 0.53668451 1.9105023e-38
-3.0684366 0.020997643 0.087183766 2.3417305e-38
-3.0695286 0.037688859 0.097950533 2.3508411e-38
-3.0689471 0.022464247 0.09907081 2.3415853e-38
-3.0687327 0.0079573514 0.10910378 2.3410441e-38
-3.068563 -0.0023604913 0.11578823 2.3409733e-38
-3.0678902 -0.016659614 0.11350138 2.3499033e-38
-3.0718384 0.069272898 0.12475134 2.340974e-38
-3.0690403 -0.0020222478 0.12802264 2.3319352e-38
-3.0686178 -0.011687453 0.12732649 2.3411552e-38
-3.0680411 -0.026644774 0.12828609 2.3411191e-38
-3.069098 -0.0094650853 0.13760318 2.340975e-38
-3.068547 -0.021676198 0.13626947 2.3412275e-38
-3.07359 0.086992599 0.15182313 2.3316101e-38
-3.0731084 0.071301885 0.15608743 2.3308878e-38
-3.0713365 0.031274885 0.15260966 2.3407944e-38
-3.0697098 -0.0084720068 0.15267543 2.3405785e-38
-3.0741084 0.0853412 0.16728818 2.3311037e-38
-3.0735157 0.071459614 0.1666643 2.3309964e-38
-3.070595 0.00089069485 0.16591087 2.3405786e-38
-3.0747657 0.086488537 0.18339805 2.3486785e-38
-3.0738044 0.065332867 0.18090877 2.3303488e-38
-3.0748391 0.077775165 0.19477046 2.3387038e-38
-3.0742168 0.063237578 0.19406833 2.3391362e-38
-3.0737083 0.051480234 0.19336241 2.3481399e-38
-3.0720153 0.011482553 0.19194633 2.3306734e-38
-3.0770779 0.11863708 0.2096508 2.347239e-38
-3.0748353 0.065537438 0.20790505 2.3297722e-38
-3.0737553 0.039726719 0.20732102 2.3393515e-38
-3.0731244 0.025137119 0.20644704 2.3211642e-38
-3.0753961 0.067679606 0.22039264 2.3196523e-38
-3.0765967 0.083192907 0.23530269 2.3364722e-38
-3.0758598 0.065777235 0.23469038 2.3367239e-38
-3.0766537 0.07297878 0.24785598 2.3277201e-38
-3.0772395 0.072340094 0.2640143 2.327001e-38
-3.0853539 0.22748843 0.31034786 2.2842523e-38
-3.0861301 0.24152395 0.31565431 2.321849e-38
-3.08535 0.21935202 0.31905282 2.2482016e-38
-3.0857358 0.21717218 0.33159456 2.3325478e-38
-3.085716 0.20515037 0.34407598 2.2770146e-38
-3.0853846 0.19317758 0.34828407 2.2674345e-38
-3.084723 0.18000405 0.34507018 2.2475203e-38
-3.0864403 0.2107162 0.35717455 2.0554568e-38
-3.0853329 0.18223669 0.3587544 2.1829468e-38
-3.0898175 0.27969563 0.37169397 2.1950857e-38
-3.0864806 0.1991023 0.37080395 2.2859799e-38
-3.0914426 0.30451512 0.3877362 2.1215449e-38
-3.0908804 0.29164773 0.38682494 2.1215447e-38
-3.0905223 0.28152081 0.38832566 2.1399845e-38
-3.089869 0.26621836 0.38763872 2.1306198e-38
-3.0921116 0.30768928 0.40196475 2.05726e-38
-3.0903323 0.26438907 0.40184301 1.9665402e-38
-3.0899014 0.25719932 0.39824244 2.2430192e-38
-3.093827 0.33784965 0.41461998 2.0480762e-38
-3.0932834 0.32369819 0.41557774 2.0755188e-38
-3.0905607 0.25803679 0.41474891 1.9011754e-38
-3.0944457 0.33893362 0.42977837 1.9561324e-38
-3.0938549 0.32325044 0.43114722 1.9469492e-38
-3.0909858 0.25555551 0.4286491 2.0249906e-38
-3.0950735 0.34058854 0.4445619 1.9377651e-38
-3.0958366 0.34809217 0.45658681 1.8826635e-38
-3.0967772 0.35843697 0.47022137 1.8275265e-38
-3.0981545 0.37434381 0.4893741 1.754058e-38
-3.0973132 0.35975936 0.4829388 1.8275265e-38
-3.0996411 0.4050093 0.49543244 1.7173238e-38
-3.0990858 0.38921928 0.49785665 1.7356909e-38
-3.098515 0.37482998 0.4983536 1.7724252e-38
-3.0980256 0.36416405 0.49697652 1.7724252e-38
-3.1002488 0.40448102 0.51204365 1.6989927e-38
-3.0983014 0.3635675 0.5049023 1.7632419e-38
-3.1007156 0.40447086 0.5243848 1.7908998e-38
-3.1003599 0.39229712 0.52815664 1.8001915e-38
-3.0998199 0.37941539 0.52784443 1.7636012e-38
-3.0993161 0.36715114 0.52781039 1.7548494e-38
-3.0997636 0.3705416 0.53595734 1.7548494e-38
-3.0994699 0.36188197 0.53757596 1.8659873e-38
-3.0644474 -0.079997011 0.091149755 2.3323653e-38
-3.0682731 0.0029114613 0.1024282 2.3413324e-38
-3.0667269 -0.036088619 0.10381326 2.3502995e-38
-3.0684173 -0.0074847857 0.11749227 2.3409013e-38
-3.067646 -0.023794524 0.11477206 2.3498312e-38
-3.0694671 0.0051917671 0.13149203 2.3319352e-38
-3.0681887 -0.019586133 0.12455101 2.3318994e-38
-3.0679412 -0.029101672 0.12830594 2.3410466e-38
-3.0673892 -0.044858545 0.13078097 2.3410829e-38
-3.0693948 -0.0040329127 0.13955773 2.350014e-38
-3.0691292 -0.016263854 0.14578815 2.3402538e-38
-3.0685081 -0.029772932 0.14400151 2.3406861e-38
-3.0675173 -0.053502411 0.14351836 2.3503391e-38
-3.071337 0.025423096 0.15895408 2.349725e-38
-3.069808 -0.012865048 0.16001619 2.3313949e-38
-3.0690756 -0.027644832 0.15667932 2.3408668e-38
-3.0683451 -0.045898043 0.15714458 2.3500863e-38
-3.0735989 0.067331672 0.17332371 2.3402159e-38
-3.0702736 -0.0099368533 0.16914652 2.3406866e-38
-3.0697563 -0.024738543 0.17150474 2.3404701e-38
-3.0691206 -0.038882732 0.17002824 2.3405056e-38
-3.0748098 0.081123464 0.19036898 2.3389912e-38
-3.0737152 0.05709542 0.18747002 2.3387755e-38
-3.0708785 -0.0094602033 0.18459697 2.3402175e-38
-3.0758433 0.096808575 0.2006807 2.3385952e-38
-3.0738826 0.049803287 0.19978222 2.338812e-38
-3.0726094 0.01878415 0.19972785 2.3295926e-38
-3.0716462 -0.0035796363 0.198494 2.3304569e-38
-3.0764742 0.099710964 0.21419577 2.3191127e-38
-3.0748448 0.060651831 0.21343833 2.3284764e-38
-3.0722392 -0.0015762436 0.21198508 2.3391716e-38
-3.0774584 0.11479664 0.22384679 2.3367606e-38
-3.0768132 0.10122543 0.22150883 2.3276488e-38
-3.0750771 0.054000475 0.22676893 2.3471671e-38
-3.072912 0.0083883042 0.21895917 2.3198321e-38
-3.0755916 0.054123923 0.24021466 2.337803e-38
-3.0749724 0.038595591 0.24067304 2.3374793e-38
-3.0782967 0.10690404 0.25451717 2.3172772e-38
-3.0777018 0.094379865 0.25236961 2.3451879e-38
-3.0771918 0.080163866 0.25428584 2.3271445e-38
-3.0765464 0.065695666 0.25290197 2.3267129e-38
-3.0763371 0.05436752 0.25963265 2.3362923e-38
-3.0755272 0.03994086 0.2538636 2.3276843e-38
-3.0794113 0.12098028 0.2687135 2.3360762e-38
-3.0789547 0.11018009 0.26834729 2.3349971e-38
-3.0783594 0.094575234 0.26951292 2.3258134e-38
-3.0777731 0.08038608 0.26939121 2.3362927e-38
-3.0774901 0.075126775 0.267607 2.327001e-38
-3.0769436 0.062089603 0.26729238 2.3362923e-38
-3.0784376 0.083250888 0.28383055 2.3347454e-38
-3.0778449 0.071634755 0.28075209 2.3262456e-38
-3.0790222 0.088088989 0.29402339 2.3351053e-38
-3.0794499 0.08683531 0.30667168 2.325166e-38
-3.0851681 0.20971382 0.32467493 2.3318976e-38
-3.0844853 0.19559601 0.32192865 2.3310677e-38
-3.085223 0.20126861 0.33526015 2.2766874e-38
-3.0847421 0.1861755 0.33890006 2.3226439e-38
-3.0841272 0.17192785 0.33807978 2.2012415e-38
-3.084424 0.16769665 0.35049722 2.1912666e-38
-3.0835757 0.14746349 0.34999228 2.2077568e-38
-3.0847142 0.1628612 0.36338416 2.1616614e-38
-3.0854726 0.16520977 0.38086253 1.601212e-38
-3.086457 0.18098749 0.38977695 2.1654436e-38
-3.091538 0.29001176 0.40595263 2.1216889e-38
-3.090981 0.27630547 0.40607035 2.1033945e-38
-3.0876267 0.1957242 0.40471187 1.7967694e-38
-3.0926971 0.30675197 0.41843262 2.0021226e-38
-3.0920491 0.28883392 0.420719 2.002087e-38
-3.0914834 0.27671555 0.41889736 1.9561689e-38
-3.0911243 0.26540005 0.42165405 1.9469487e-38
-3.0932648 0.30613717 0.4340837 2.0112701e-38
-3.0915074 0.26287463 0.43450004 1.7930249e-38
-3.0944467 0.32138535 0.44879356 1.9010675e-38
-3.0922055 0.26625496 0.44926757 2.0479683e-38
-3.0915678 0.25379461 0.44591957 1.7759903e-38
-3.0956297 0.33741629 0.46267006 1.8918475e-38
-3.092257 0.2574077 0.46020594 2.0165992e-38
-3.096101 0.33808154 0.47439843 1.8551133e-38
-3.0968366 0.34098339 0.49067199 1.8091596e-38
-3.0956647 0.31238818 0.4906753 1.8000482e-38
-3.097918 0.35497695 0.50408202 1.7724252e-38
-3.0973725 0.3408857 0.50492936 1.799976e-38
-3.0996568 0.38754836 0.51473767 1.7081404e-38
-3.098973 0.36989507 0.51578426 1.7448747e-38
-3.0991366 0.36078674 0.52996385 1.8014505e-38
-3.099277 0.3520273 0.54314363 1.7467801e-38
-3.0998042 0.35245314 0.5565967 1.9321047e-38
-3.0992067 0.33581027 0.55884004 1.8773267e-38
-3.1005769 0.3568885 0.57219964 2.0326933e-38
-3.0662198 -0.04459874 0.099637493 2.3318604e-38
-3.06564 -0.055953961 0.096615605 2.3228931e-38
-3.0649984 -0.067769401 0.09246739 2.3415847e-38
-3.0644403 -0.085074887 0.096451074 2.3411163e-38
-3.0672374 -0.028525393 0.10910679 2.3316085e-38
-3.0661972 -0.054314476 0.10955571 2.3226064e-38
-3.0655565 -0.068915159 0.10843927 2.3410095e-38
-3.06778 -0.027319901 0.12213016 2.3319351e-38
-3.0672073 -0.041510161 0.12236309 2.32286e-38
-3.0689809 -0.010979027 0.13615042 2.3498695e-38
-3.0684586 -0.021512419 0.13375488 2.3410109e-38
-3.0673425 -0.050846726 0.13602507 2.3409027e-38
-3.0656576 -0.093461238 0.13766086 2.3411555e-38
-3.0650804 -0.10441349 0.13427207 2.3409026e-38
-3.0701296 0.0024741832 0.15191181 2.3492926e-38
-3.0696776 -0.0076210839 0.15090637 2.3406502e-38
-3.0690176 -0.022619817 0.14970551 2.3406495e-38
-3.0679779 -0.048174832 0.14991345 2.3408303e-38
-3.0671244 -0.068127036 0.14897086 2.3412271e-38
-3.0665665 -0.07624092 0.1430164 2.3412271e-38
-3.066283 -0.088563025 0.14886637 2.3320434e-38
-3.0656803 -0.10203258 0.14753178 2.3415877e-38
-3.0710666 0.01380296 0.16439068 2.3487519e-38
-3.0706553 0.0051968144 0.16285221 2.3400737e-38
-3.0686831 -0.046175893 0.16637531 2.3403982e-38
-3.0680189 -0.059072595 0.16278777 2.3408666e-38
-3.0673013 -0.074774079 0.16083233 2.3406865e-38
-3.0713513 0.008430778 0.17771779 2.3301329e-38
-3.0694106 -0.037872504 0.17658639 2.3403982e-38
-3.07358 0.050384525 0.1911657 2.3388836e-38
-3.0701826 -0.030843366 0.18936075 2.3399292e-38
-3.0741746 0.051061492 0.20612627 2.3381639e-38
-3.0714755 -0.014376578 0.20567247 2.3393159e-38
-3.0707562 -0.028835816 0.20232914 2.3393522e-38
-3.0759039 0.080387346 0.22004482 2.3278645e-38
-3.0746062 0.049668405 0.21902713 2.3390276e-38
-3.072041 -0.012554999 0.21863148 2.3390632e-38
-3.0748949 0.043928057 0.23285584 2.3364365e-38
-3.0731924 0.0050023529 0.2300221 2.3378393e-38
-3.0757542 0.052760717 0.24598719 2.3189323e-38
-3.0743432 0.019485053 0.2447432 2.3279003e-38
-3.0781779 0.097298354 0.26177844 2.3169537e-38
-3.0776422 0.08586771 0.26000372 2.3350691e-38
-3.0761595 0.050279301 0.25937009 2.3275401e-38
-3.0749066 0.020795234 0.25819549 2.3273606e-38
-3.0788753 0.10480723 0.27205968 2.3346737e-38
-3.0780783 0.083912186 0.27362439 2.3362927e-38
-3.0774689 0.075203896 0.26696572 2.3362927e-38
-3.0769978 0.062245689 0.26854667 2.3169534e-38
-3.0767016 0.050037757 0.27394211 2.3357888e-38
-3.076108 0.035994601 0.27346256 2.3358606e-38
-3.0783792 0.078451559 0.2874797 2.3340617e-38
-3.0772979 0.053135462 0.28632444 2.3353931e-38
-3.0766754 0.035764139 0.28868768 2.3352132e-38
-3.0789633 0.080604672 0.30057526 2.3155866e-38
-3.0784218 0.068009786 0.29990503 2.3349248e-38
-3.0797963 0.088461339 0.31406245 2.325094e-38
-3.0791233 0.071315661 0.314843 2.3248422e-38
-3.0839436 0.17611021 0.32871073 2.3215256e-38
-3.0807197 0.098615631 0.32744858 2.2873874e-38
-3.080173 0.084935404 0.32782218 2.2968592e-38
-3.0797203 0.071025871 0.33091736 2.3151185e-38
-3.0838397 0.16546765 0.33747959 2.1641463e-38
-3.0835125 0.15261106 0.34275284 2.2515153e-38
-3.080781 0.087926172 0.34062895 2.2596207e-38
-3.0840657 0.15497109 0.35480058 2.2800016e-38
-3.0847306 0.15878606 0.36822769 2.0136457e-38
-3.0857699 0.1694002 0.38417259 1.5362799e-38
-3.0844429 0.13371585 0.38775307 2.0858883e-38
-3.0864594 0.17288502 0.39860904 1.546831e-38
-3.0876207 0.190148 0.41058749 2.2304475e-38
-3.0927038 0.28718302 0.43978423 2.0206337e-38
-3.0921581 0.27621052 0.43724811 1.9286183e-38
-3.0938652 0.30455944 0.45164648 1.9377658e-38
-3.0933022 0.2895045 0.45307338 1.8643693e-38
-3.0927529 0.27771682 0.45132849 1.9102868e-38
-3.095017 0.31953955 0.46583495 1.9010313e-38
-3.0944619 0.3064585 0.4653458 1.8918479e-38
-3.0940304 0.29189172 0.4697037 1.8183797e-38
-3.0934656 0.27914438 0.46858859 1.8367822e-38
-3.0928948 0.2661556 0.46757513 1.8642974e-38
-3.0956132 0.32132739 0.47964224 1.8827e-38
-3.0950978 0.30804363 0.4804078 1.8183437e-38
-3.0944958 0.29324421 0.48052874 1.8275628e-38
-3.0939338 0.27846974 0.48168328 1.827635e-38
-3.0932946 0.26409221 0.48036057 1.5707494e-38
-3.0962608 0.3224968 0.49547365 1.8092316e-38
-3.0951197 0.29586864 0.49415714 1.7541308e-38
-3.0945308 0.28040242 0.49534994 1.8000846e-38
-3.0939746 0.2669729 0.49519897 1.5887572e-38
-3.0935431 0.25918922 0.49222609 1.478555e-38
-3.0969307 0.32637134 0.50896847 1.7816451e-38
-3.0961683 0.30959347 0.50698876 1.7908648e-38
-3.0941472 0.25935578 0.50799108 1.4326707e-38
-3.0985205 0.35500139 0.51995713 1.6898452e-38
-3.0978332 0.33753619 0.52071041 1.6898452e-38
-3.0945449 0.25728026 0.52073634 2.0520326e-38
-3.0985785 0.34193027 0.53562951 1.8016658e-38
-3.0990405 0.34231067 0.5474174 1.8759969e-38
-3.0985858 0.32815829 0.5507251 1.9685529e-38
-3.0997505 0.34622407 0.5619185 2.1912568e-38
-3.0991261 0.33239537 0.56040156 2.0250199e-38
-3.0986426 0.31927505 0.56183171 1.9512273e-38
-3.100271 0.34703743 0.57478583 2.1540939e-38
-3.1000013 0.33548635 0.58016074 2.1634576e-38
-3.0992286 0.31982967 0.57670838 2.1456665e-38
-3.0626981 -0.11832429 0.086437516 2.3506968e-38
-3.0610237 -0.16002735 0.087357618 2.3138542e-38
-3.0640755 -0.097525731 0.10029598 2.3043465e-38
-3.0653272 -0.079809815 0.11416621 2.3412628e-38
-3.064765 -0.088350877 0.10857167 2.3412628e-38
-3.066587 -0.06089472 0.12695485 2.3411551e-38
-3.0661676 -0.072441429 0.12838367 2.3410109e-38
-3.0655906 -0.088179983 0.1301787 2.3412637e-38
-3.065026 -0.097550347 0.12540707 2.3501947e-38
-3.0644634 -0.1128792 0.12714361 2.3316836e-38
-3.0639355 -0.12538612 0.12674367 2.3409393e-38
-3.0667605 -0.068833284 0.14012843 2.3408668e-38
-3.0661669 -0.083008319 0.13979827 2.340831e-38
-3.0646162 -0.12201362 0.14105956 2.3411912e-38
-3.0673418 -0.068165183 0.1547486 2.3405778e-38
-3.0665607 -0.086834185 0.15432489 2.3503738e-38
-3.0661168 -0.096045583 0.15257584 2.3412987e-38
-3.0657132 -0.10776085 0.15459564 2.3410108e-38
-3.0707397 0.0032770145 0.16715123 2.3402159e-38
-3.0700016 -0.013387341 0.16569582 2.3401082e-38
-3.0667326 -0.093527749 0.16610575 2.3219225e-38
-3.069108 -0.049452379 0.1811305 2.3402541e-38
-3.0686851 -0.062227223 0.18378656 2.339785e-38
-3.0679598 -0.077639222 0.18131296 2.3309623e-38
-3.0674341 -0.090471104 0.18132085 2.3399295e-38
-3.0697138 -0.045446403 0.19278465 2.3489682e-38
-3.0692697 -0.059297025 0.19604845 2.3395322e-38
-3.0710509 -0.032268759 0.21382751 2.3483188e-38
-3.0703378 -0.043707639 0.20737365 2.3299164e-38
-3.0697322 -0.062232908 0.21143524 2.3387037e-38
-3.0720513 -0.018670952 0.22552291 2.3384511e-38
-3.0758502 0.062666133 0.23780107 2.3360048e-38
-3.0745561 0.036579851 0.2318621 2.3451523e-38
-3.0745063 0.029884793 0.23779793 2.3375158e-38
-3.0730703 -0.0037828961 0.23631066 2.3285477e-38
-3.0725937 -0.018279819 0.23941626 2.3468067e-38
-3.0720429 -0.030393077 0.23798768 2.3381991e-38
-3.0765247 0.0656517 0.2523807 2.3168098e-38
-3.075973 0.051172066 0.25347701 2.3445405e-38
-3.0754247 0.039269265 0.25188732 2.3273967e-38
-3.0737689 0.0022972838 0.24817182 2.336976e-38
-3.0733042 -0.011684381 0.25103766 2.3370836e-38
-3.0726397 -0.028505303 0.25169799 2.3372277e-38
-3.0777526 0.08292526 0.26610371 2.3349612e-38
-3.0763037 0.048465043 0.26513177 2.3274685e-38
-3.0742521 0.00017297783 0.2632229 2.3365443e-38
-3.0789433 0.098521985 0.28066236 2.3340982e-38
-3.0784099 0.085657783 0.28049737 2.3434615e-38
-3.0777404 0.072641373 0.2769092 2.3436053e-38
-3.0771859 0.057627149 0.27850798 2.3076268e-38
-3.0755186 0.019530773 0.27571562 2.3174212e-38
-3.0749633 0.0039721429 0.27789566 2.316702e-38
-3.0783186 0.070129611 0.29489011 2.298083e-38
-3.0776908 0.05727395 0.2922298 2.3346735e-38
-3.0771143 0.043849446 0.29153052 2.325454e-38
-3.076658 0.031675652 0.29265636 2.3423823e-38
-3.0760875 0.019822221 0.29041609 2.3347811e-38
-3.0783725 0.062158927 0.30492947 2.3341696e-38
-3.0771151 0.033416606 0.30283538 2.3161982e-38
-3.0800948 0.09061376 0.31960806 2.3152625e-38
-3.0794628 0.076496705 0.31819722 2.333558e-38
-3.0784914 0.051216293 0.3199091 2.3156226e-38
-3.0800762 0.07842242 0.33231339 2.3244464e-38
-3.0795603 0.064142436 0.33414301 2.3142915e-38
-3.0790334 0.05284996 0.33245131 2.3247705e-38
-3.0835299 0.14732888 0.34893346 2.2887891e-38
-3.0800767 0.065592863 0.34620154 2.2966084e-38
-3.0841124 0.14782275 0.36376956 1.9020369e-38
-3.0808318 0.070362046 0.3609716 2.2415781e-38
-3.0854855 0.16553135 0.38085476 1.4170023e-38
-3.0848846 0.15603694 0.3752695 1.8658075e-38
-3.0824921 0.099683493 0.37307826 2.1684331e-38
-3.0819638 0.085299015 0.374695 2.2052045e-38
-3.0862715 0.17698221 0.38921767 1.4170023e-38
-3.0844204 0.12788804 0.39346719 2.2353816e-38
-3.0828018 0.099583901 0.38136512 2.0315444e-38
-3.0875416 0.19261298 0.40583339 2.3507013e-38
-3.0867844 0.1770681 0.40266252 1.546831e-38
-3.0847685 0.1272735 0.40332344 1.8845686e-38
-3.0833817 0.10163198 0.39445731 2.114735e-38
-3.0955739 0.28993297 0.51256937 1.6623314e-38
-3.0949914 0.27648744 0.51174229 1.6349246e-38
-3.0945628 0.26680592 0.51090389 1.5524529e-38
-3.0973849 0.32261238 0.52502322 1.6903123e-38
-3.0967722 0.30639732 0.52639276 1.6167718e-38
-3.0963013 0.29429379 0.52706385 1.7091113e-38
-3.0956562 0.28075522 0.52467358 1.6446468e-38
-3.0952749 0.2685391 0.52782232 2.0053959e-38
-3.0979042 0.3213934 0.54004413 1.8477639e-38
-3.0974061 0.3064512 0.54306674 1.7650762e-38
-3.0957425 0.26728734 0.54152226 1.9874926e-38
-3.0952606 0.25732851 0.53957498 1.9317093e-38
-3.0978768 0.30995438 0.55170119 1.9230669e-38
-3.0975988 0.29788381 0.55742037 1.9048074e-38
-3.0956671 0.2547892 0.5530591 2.118654e-38
-3.0980651 0.30193925 0.56534481 1.8588528e-38
-3.0973804 0.28516003 0.56542593 1.7665864e-38
-3.0968075 0.2704334 0.56622845 2.3290469e-38
-3.0997744 0.33069775 0.5793457 2.2374999e-38
-3.0998192 0.3202225 0.59186971 2.1731443e-38
-3.0614879 -0.14022197 0.078185663 2.3507334e-38
-3.0609608 -0.15376891 0.078927062 2.3509846e-38
-3.0623796 -0.12511259 0.085373312 2.3506968e-38
-3.0621579 -0.13782382 0.093268745 2.3504084e-38
-3.0614388 -0.15400212 0.091797128 2.3321494e-38
-3.0608711 -0.16709203 0.090979949 2.295415e-38
-3.0638316 -0.10766375 0.1048191 2.3500839e-38
-3.0634115 -0.12082817 0.10797677 2.3409738e-38
-3.0628002 -0.1338831 0.10596867 2.3313568e-38
-3.0617299 -0.15803684 0.10384366 2.3499397e-38
-3.0610511 -0.17501226 0.10428808 2.3402881e-38
-3.0649912 -0.090694755 0.11707706 2.341191e-38
-3.0643566 -0.10763092 0.11864728 2.340541e-38
-3.0639873 -0.1199476 0.1222263 2.3409749e-38
-3.0634203 -0.133617 0.12204475 2.340903e-38
-3.0621853 -0.15999466 0.11798367 2.3221744e-38
-3.0616374 -0.17528209 0.12006401 2.3317912e-38
-3.0632911 -0.14351828 0.12934332 2.3500145e-38
-3.0628092 -0.15758823 0.13184954 2.3411554e-38
-3.0622368 -0.17276661 0.13316494 2.3411194e-38
-3.0639012 -0.14348112 0.14541128 2.3501946e-38
-3.0633945 -0.1563091 0.14591943 2.3409749e-38
-3.062834 -0.1707878 0.146787 2.3409389e-38
-3.0650988 -0.12670702 0.15887639 2.3406865e-38
-3.0645401 -0.14271013 0.16144872 2.3405786e-38
-3.0639889 -0.15502748 0.16021807 2.3313949e-38
-3.0663145 -0.11135364 0.17436224 2.3403982e-38
-3.0651395 -0.1402369 0.17459057 2.3305666e-38
-3.0676031 -0.095370688 0.19108097 2.3303125e-38
-3.0669794 -0.10706225 0.18726718 2.3398569e-38
-3.0662916 -0.12510455 0.18863124 2.3490045e-38
-3.0696836 -0.053551864 0.20075886 2.3291965e-38
-3.0684505 -0.082632728 0.19966611 2.3304926e-38
-3.0708716 -0.039780814 0.21721889 2.3192567e-38
-3.0702665 -0.054011546 0.21664175 2.3387757e-38
-3.0699122 -0.060702246 0.2145319 2.3387037e-38
-3.0691321 -0.077898435 0.21253726 2.338452e-38
-3.0719759 -0.023605216 0.22886983 2.3378755e-38
-3.0717037 -0.035711963 0.23478469 2.3381991e-38
-3.0708642 -0.051920295 0.23015441 2.317709e-38
-3.0703037 -0.063842848 0.22826226 2.3368318e-38
-3.069762 -0.075524554 0.22660148 2.3369401e-38
-3.0714715 -0.047824468 0.241753 2.3376231e-38
-3.070924 -0.058883402 0.23926927 2.3375151e-38
-3.0703392 -0.074337706 0.24055438 2.3362563e-38
-3.0719395 -0.047783531 0.25406849 2.3370835e-38
-3.0713043 -0.059710074 0.2502082 2.3374073e-38
-3.0764401 0.047577329 0.26969802 2.3160545e-38
-3.0759232 0.03631917 0.26822972 2.3347095e-38
-3.075403 0.021948678 0.27005351 2.3163064e-38
-3.0744998 -0.0032489267 0.2734718 2.3158027e-38
-3.0737798 -0.017109878 0.2694594 2.317673e-38
-3.0732298 -0.028271427 0.26701373 2.336472e-38
-3.0726664 -0.043635514 0.26876953 2.3263172e-38
-3.0777647 0.065192088 0.28560066 2.3065831e-38
-3.0774107 0.052207083 0.29031047 2.3348174e-38
-3.0767291 0.039491087 0.28607604 2.3250584e-38
-3.0760405 0.024835048 0.28375387 2.3342058e-38
-3.0754862 0.011553366 0.28348923 2.3158028e-38
-3.0749185 -0.0043256395 0.28568637 2.3260653e-38
-3.0744383 -0.012871983 0.2822535 2.3355369e-38
-3.0737698 -0.029020736 0.28207693 2.3353928e-38
-3.0726981 -0.057109382 0.28417549 2.3261015e-38
-3.0789759 0.080978356 0.30050519 2.3148311e-38
-3.0771232 0.037284713 0.29886591 2.3423465e-38
-3.0761588 0.015456243 0.29702613 2.334889e-38
-3.0754678 -0.00050536433 0.29605034 2.3256339e-38
-3.0748315 -0.013869805 0.29371792 2.3255977e-38
-3.074338 -0.026658913 0.29452649 2.32549e-38
-3.0791996 0.075873256 0.31192678 2.3067267e-38
-3.0789082 0.070298694 0.31026867 2.3067267e-38
-3.0777943 0.043039002 0.31035584 2.333702e-38
-3.0770569 0.028369594 0.30676126 2.3161622e-38
-3.0766418 0.015958605 0.30923429 2.3160182e-38
-3.076102 0.0023886482 0.30966097 2.3159463e-38
-3.0755622 -0.012464151 0.31148475 2.3342775e-38
-3.0750034 -0.026524957 0.31194675 2.3343132e-38
-3.0796263 0.072035395 0.3273463 2.3240863e-38
-3.0789695 0.057712659 0.32550433 2.3142915e-38
-3.0778232 0.030194683 0.32500985 2.3246621e-38
-3.0771863 0.016663754 0.32284483 2.3155503e-38
-3.0761638 -0.0094505623 0.32410225 2.2968958e-38
-3.0788362 0.045069255 0.33565715 2.2966433e-38
-3.0784426 0.033860359 0.33739692 2.3059713e-38
-3.0829163 0.12812424 0.35350883 2.2425115e-38
-3.080061 0.06036485 0.35144126 2.3245552e-38
-3.0794778 0.049331538 0.34798869 2.3338835e-38
-3.0790796 0.035391908 0.35255578 2.2414705e-38
-3.0842767 0.14843594 0.36744878 2.0123823e-38
-3.080605 0.05955366 0.36668181 2.2144955e-38
-3.0796599 0.037978243 0.36507621 2.1313394e-38
-3.0852149 0.15912209 0.38064736 2.0235128e-38
-3.0808604 0.053352308 0.38013464 2.1874469e-38
-3.0863445 0.1730617 0.39538616 1.4079272e-38
-3.0837851 0.10860173 0.39756316 2.0964393e-38
-3.0823634 0.077765256 0.39339048 2.1054082e-38
-3.0816739 0.067263223 0.38655555 2.095612e-38
-3.0861514 0.15084089 0.41432887 2.3456171e-38
-3.0853639 0.13676623 0.40877274 2.0875798e-38
-3.0848422 0.12257233 0.41035396 2.0131013e-38
-3.0844469 0.11603285 0.40699512 2.0964393e-38
-3.0836751 0.097855754 0.40628943 2.105013e-38
-3.0830786 0.081856549 0.40784869 1.9505469e-38
-3.0840545 0.098258771 0.41586167 2.1628176e-38
-3.0834892 0.084968701 0.41532061 2.2648046e-38
-3.0959435 0.2757754 0.53764349 1.8950866e-38
-3.0968764 0.2909002 0.54591036 1.8577758e-38
-3.0961771 0.27325127 0.54653686 1.8952622e-38
-3.0967209 0.27773288 0.55605322 1.9788879e-38
-3.0961342 0.26381853 0.55561686 2.0809124e-38
-3.0974665 0.28091401 0.57228673 1.9331857e-38
-3.0969791 0.26729578 0.5741564 2.1727477e-38
-3.0963669 0.25471792 0.57159942 2.2466098e-38
-2.9976742 -1.0019916 -0.67397529 3.3064366e-39
-2.9990962 -0.97658974 -0.66392446 3.8570908e-39
-2.9986575 -0.98895478 -0.66211885 3.7656155e-39
-3.0018899 -0.94307554 -0.62642807 6.7969043e-39
-3.0016046 -0.95689207 -0.61901069 5.234982e-39
-3.0603869 -0.17244533 0.083982527 2.3322934e-38
-3.0604358 -0.18103708 0.094564952 2.3503724e-38
-3.0599058 -0.19651186 0.097320139 2.3500119e-38
-3.0593107 -0.21091558 0.097194247 2.3128456e-38
-3.058784 -0.22181039 0.095073372 2.340684e-38
-3.0621474 -0.15169609 0.10800044 2.3494352e-38
-3.0605869 -0.19213986 0.11056616 2.3400357e-38
-3.0599127 -0.20777889 0.10969215 2.3489669e-38
-3.0627425 -0.15016662 0.12205853 2.350014e-38
-3.061029 -0.19217895 0.12228405 2.3225355e-38
-3.0599675 -0.21833944 0.12256554 2.3408671e-38
-3.0615654 -0.19149153 0.13570026 2.3410473e-38
-3.0610983 -0.20590334 0.13895693 2.350123e-38
-3.0622799 -0.18788727 0.150657 2.3406866e-38
-3.0632977 -0.17429668 0.16282701 2.3406503e-38
-3.0656877 -0.12870637 0.17658493 2.331647e-38
-3.0645494 -0.15795815 0.1781936 2.3307461e-38
-3.0637698 -0.17112677 0.17185819 2.3309259e-38
-3.0656552 -0.14278759 0.19096224 2.339677e-38
-3.0690916 -0.074582703 0.20788065 2.3277926e-38
-3.0685217 -0.086823277 0.20608699 2.3386321e-38
-3.067992 -0.098423317 0.20464873 2.3397841e-38
-3.0674372 -0.11149646 0.20415176 2.3393881e-38
-3.0668185 -0.12750471 0.20514014 2.3299883e-38
-3.0663233 -0.13964443 0.20519988 2.3390278e-38
-3.0657527 -0.15555023 0.2073538 2.3024732e-38
-3.0696175 -0.07172928 0.21868207 2.3280087e-38
-3.0685563 -0.098061122 0.21914969 2.3192927e-38
-3.0679007 -0.11371493 0.21878333 2.328872e-38
-3.0674689 -0.12512152 0.21973345 2.3465194e-38
-3.0714011 -0.042699978 0.23435432 2.327828e-38
-3.0700057 -0.070045665 0.22710612 2.3363642e-38
-3.0691898 -0.09362223 0.23107368 2.3362563e-38
-3.0686197 -0.10875329 0.23239222 2.3280443e-38
-3.0725534 -0.02790235 0.24875703 2.3440007e-38
-3.0718887 -0.043525565 0.24812138 2.3267848e-38
-3.0712981 -0.054981861 0.24492884 2.3275759e-38
-3.0710549 -0.062989563 0.24716766 2.3173491e-38
-3.0697541 -0.092804246 0.24509312 2.3277922e-38
-3.073698 -0.014472834 0.26445082 2.3346015e-38
-3.0725908 -0.040145885 0.26299772 2.3437855e-38
-3.0719938 -0.052791037 0.2609151 2.335177e-38
-3.0715234 -0.06394463 0.26056245 2.3348895e-38
-3.0705059 -0.089256831 0.26109326 2.3173497e-38
-3.0760829 0.031697556 0.2774443 2.3338824e-38
-3.0742879 -0.010135629 0.27532861 2.3161982e-38
-3.0736148 -0.024778558 0.27339667 2.3256337e-38
-3.0731118 -0.038540076 0.27501264 2.3248426e-38
-3.0726295 -0.052186165 0.27704078 2.3434616e-38
