# .PCD v0.7 - Point Cloud Data file format
VERSION 0.7
FIELDS x y z rgb
SIZE 4 4 4 4
TYPE F F F F
COUNT 1 1 1 1
WIDTH 1029
HEIGHT 1
VIEWPOINT 0 0 0 1 0 0 0
POINTS 1029
DATA ascii
-0.46597469 2.5737934 0.70962465 1.0785075e-38
-0.46271625 2.5742929 0.72251618 1.0877271e-38
-0.44839522 2.5742724 0.73586625 1.0508486e-38
-0.44637349 2.5748739 0.74956316 9.8634736e-39
-0.43902507 2.5751805 0.7626037 9.6787223e-39
-0.43416905 2.5756433 0.77631462 9.494331e-39
-0.42803878 2.576041 0.78997326 9.1255499e-39
-0.42219231 2.5764532 0.80364352 8.848963e-39
-0.41597447 2.5768466 0.81729859 8.6642116e-39
-0.40310147 2.5783224 0.85850048 7.9273682e-39
-0.39736816 2.5787406 0.8721754 7.5582228e-39
-0.39224145 2.5792146 0.88636297 7.4663915e-39
-0.38238496 2.5794778 0.9009704 6.3600425e-39
-0.3726044 2.5796075 0.91289055 6.7306201e-39
-0.37235203 2.58041 0.92881799 1.3830412e-38
-0.37764096 2.5813904 0.94290638 1.5858715e-38
-0.37253764 2.5809083 0.93838322 1.5121151e-38
-0.36235362 2.5811694 0.9532581 1.3182874e-38
-1.2067451 2.5222657 -1.0085686 2.2773027e-38
-1.2005903 2.5219572 -1.0086892 2.249644e-38
-1.1935225 2.5215292 -1.0102714 2.1851073e-38
-1.1846226 2.521457 -1.0031415 2.046814e-38
-0.64819002 2.5632043 0.32775074 1.558072e-38
-0.63952392 2.5633159 0.33824995 1.4288522e-38
-0.63317108 2.5632932 0.34390467 1.4380357e-38
-0.62452883 2.5635066 0.35636955 1.3457677e-38
-0.62054187 2.5640337 0.37050411 1.3642431e-38
-0.61750782 2.5645154 0.38282868 1.3273285e-38
-0.61092436 2.5650008 0.39863244 1.3181088e-38
-0.60857999 2.5656164 0.41291642 1.3181088e-38
-0.59786266 2.5657551 0.42591697 1.3089251e-38
-0.59181029 2.5661569 0.43957883 1.3181088e-38
-0.58629662 2.5665953 0.45344275 1.3181447e-38
-0.58403599 2.5672326 0.46806839 1.2904862e-38
-0.57352716 2.5673556 0.48055932 1.3458037e-38
-0.57058722 2.5679166 0.49434856 1.29045e-38
-0.56994665 2.5686417 0.5091334 1.2720109e-38
-0.5607487 2.5688362 0.52176493 1.3457678e-38
-0.55406362 2.5692055 0.53540093 1.2811943e-38
-0.54838556 2.5696399 0.54934061 1.2627553e-38
-0.5444839 2.5701382 0.56282806 1.2719747e-38
-0.53622395 2.5703735 0.57535428 1.2352042e-38
-0.53269893 2.5709922 0.59083366 1.2351681e-38
-0.52528113 2.57129 0.60377085 1.216765e-38
-0.51974201 2.5717182 0.61745375 1.2260205e-38
-0.51667416 2.5722725 0.63123775 1.2352045e-38
-0.50766784 2.5724969 0.64426619 1.198326e-38
-0.50378692 2.5730369 0.65854931 1.152264e-38
-0.50109577 2.5736098 0.67232877 1.1430804e-38
-0.49717852 2.5741208 0.68607819 1.1153857e-38
-0.4908767 2.5745032 0.69959736 1.1061661e-38
-0.48637199 2.5750446 0.71450591 1.069288e-38
-0.47623107 2.5751832 0.72694951 1.1245696e-38
-0.47256821 2.5757074 0.74070919 1.0324096e-38
-0.46406287 2.5751789 0.73854142 1.0324096e-38
-0.46558169 2.5759828 0.75279826 1.0047868e-38
-0.45244598 2.5761395 0.76846933 9.4946925e-39
-0.44955796 2.5766964 0.78212994 9.2177455e-39
-0.43935689 2.5768535 0.7949881 8.9415159e-39
-0.43758231 2.5774741 0.80882514 8.6649291e-39
-0.42089194 2.5787544 0.84987074 7.8348139e-39
-0.4169682 2.5792651 0.86361969 7.6504212e-39
-0.40825206 2.5795171 0.87690997 8.2961535e-39
-0.4049592 2.580153 0.89249694 8.3887065e-39
-0.39697298 2.5798256 0.89376682 6.5447925e-39
-0.38708824 2.5808098 0.92249233 1.1710637e-38
-0.38578892 2.5812271 0.93189144 1.1710637e-38
-0.39034298 2.5823958 0.95037091 1.3091041e-38
-1.2231069 2.5225666 -1.0183945 2.1943269e-38
-1.2144957 2.5224741 -1.0119312 2.2588637e-38
-1.2098261 2.5219841 -1.01703 2.2588277e-38
-0.662193 2.5640953 0.331727 1.5580001e-38
-0.65501273 2.5640473 0.33768111 1.4657674e-38
-0.64468324 2.5641153 0.34892753 1.4104128e-38
-0.6416899 2.5646737 0.36271459 1.3089254e-38
-0.63712716 2.5651517 0.37643743 1.3181091e-38
-0.62871331 2.5654213 0.38978034 1.3088535e-38
-0.62245727 2.565774 0.40267804 1.2904863e-38
-0.62144339 2.5664835 0.41752425 1.2996696e-38
-0.61520594 2.5668752 0.43116501 1.2997416e-38
-0.60607278 2.5671198 0.44471425 1.3274006e-38
-0.60223788 2.5676353 0.45846686 1.3089253e-38
-0.5945403 2.5681105 0.47514263 1.2720112e-38
-0.59202123 2.5685909 0.486954 1.253572e-38
-0.58522177 2.5689685 0.50086153 1.272047e-38
-0.58218342 2.5694549 0.51328439 1.2628272e-38
-0.57446426 2.5697968 0.52737755 1.2536075e-38
-0.56647122 2.5700736 0.54046053 1.3365841e-38
-0.56205684 2.5705593 0.55418938 1.2443881e-38
-0.55867296 2.5710976 0.56796044 1.3181449e-38
-0.55334222 2.5715363 0.58165181 1.2351324e-38
-0.54858428 2.5720043 0.59536666 1.2812304e-38
-0.54232204 2.572335 0.60784084 1.2351684e-38
-0.53332222 2.5726461 0.62256116 1.1891064e-38
-0.53334206 2.5734041 0.63735962 1.1798869e-38
-0.52318352 2.5735505 0.64996535 1.1521922e-38
-0.5164324 2.5739162 0.66359866 1.1522282e-38
-0.5136984 2.5744879 0.67739636 1.1338607e-38
-0.5104531 2.5750334 0.69117308 1.1430806e-38
-0.50293326 2.5753601 0.7047748 1.087727e-38
-0.49986631 2.5759146 0.71855891 1.0692878e-38
-0.49259061 2.5761197 0.72955197 1.0324457e-38
-0.48659244 2.5766399 0.74547857 9.9560322e-39
-0.48130158 2.5770988 0.7595278 1.023226e-38
-0.47166428 2.5773211 0.77311999 9.5865266e-39
-0.46352354 2.5776119 0.78661937 9.2177441e-39
-0.45519233 2.5778606 0.79947704 9.0333542e-39
-0.44924045 2.578254 0.81287962 8.6649305e-39
-0.43789479 2.5798998 0.85593736 7.6507827e-39
-0.42917281 2.5801227 0.86867076 7.4663887e-39
-0.42435011 2.5805876 0.88238305 8.5734593e-39
-0.41643405 2.5808723 0.89554262 9.8641981e-39
-0.40240422 2.582274 0.9364087 1.2816983e-38
-0.40292177 2.5831208 0.95246685 1.3275071e-38
-0.4036929 2.5839231 0.96740663 1.3551655e-38
-1.2372808 2.5234425 -1.0148743 2.2404602e-38
-1.2274981 2.5228505 -1.017059 2.2496443e-38
-1.2244095 2.5229371 -1.0123975 2.1574848e-38
-0.68945789 2.564595 0.31532583 1.4475094e-38
-0.67799318 2.5647278 0.32892528 1.4658037e-38
-0.66801441 2.5648313 0.34052449 1.410306e-38
-0.66129637 2.5651681 0.35355958 1.2904503e-38
-0.65678251 2.5657187 0.36865073 1.2996697e-38
-0.65340257 2.5662451 0.38218603 1.2996699e-38
-0.64373523 2.5664346 0.39516908 1.2904862e-38
-0.6391198 2.5669098 0.40888971 1.2812666e-38
-0.6338765 2.567353 0.42258474 1.290486e-38
-0.62835836 2.5677822 0.43626848 1.2813025e-38
-0.62162489 2.5681074 0.44908836 1.2812665e-38
-0.61733919 2.5686216 0.46325231 1.2720831e-38
-0.61504251 2.5691562 0.47590703 1.2535719e-38
-0.60476571 2.5694206 0.49094117 1.253572e-38
-0.60023904 2.5699005 0.50466549 1.2443883e-38
-0.59686643 2.5704396 0.51843703 1.2535359e-38
-0.59068716 2.5708346 0.53209364 1.2443882e-38
-0.58369827 2.5711699 0.54535508 1.2627912e-38
-0.57867241 2.5716462 0.55948591 1.2627552e-38
-0.57374066 2.5721021 0.57312888 1.2259488e-38
-0.56791002 2.572515 0.58679974 1.2259129e-38
-0.56441718 2.5730474 0.60055739 1.2074737e-38
-0.55954826 2.5735168 0.61440873 1.1707035e-38
-0.54815799 2.5736256 0.62746626 1.1799227e-38
-0.54563755 2.5742211 0.64152652 1.1707032e-38
-0.53834873 2.5745327 0.6546104 1.1891786e-38
-0.53559172 2.575026 0.66690534 1.1430446e-38
-0.53067786 2.5756121 0.68306953 1.1061665e-38
-0.52475488 2.5759985 0.6963101 1.1061301e-38
-0.52302718 2.5766768 0.7112298 1.0969465e-38
-0.51342678 2.5768416 0.7236656 1.0415933e-38
-0.50240046 2.5769322 0.73601496 1.0231902e-38
-0.5002017 2.5775878 0.75094348 1.0139344e-38
-0.49366587 2.5779769 0.7648232 9.8634736e-39
-0.48725501 2.5783482 0.77823275 9.4024955e-39
-0.47962555 2.5786505 0.7914626 9.2177469e-39
-0.47483367 2.5791464 0.80575979 8.9415215e-39
-0.47115836 2.5797012 0.82012802 8.7571289e-39
-0.4605827 2.5805435 0.84674776 8.2961507e-39
-0.45521405 2.5810099 0.86101288 7.9277298e-39
-0.44532076 2.5811541 0.87332833 7.3749147e-39
-0.43760982 2.5814993 0.8874774 1.0324818e-38
-0.41768456 2.5827663 0.93136865 1.4752004e-38
-0.4168855 2.5832849 0.94226736 1.7333119e-38
-0.41424665 2.5841789 0.96227723 1.4103748e-38
-0.41092902 2.5836914 0.95593327 1.3274343e-38
-1.2574399 2.5242715 -1.0180206 2.3048896e-38
-1.2536521 2.5239642 -1.0203911 2.2404246e-38
-1.2430109 2.523798 -1.0134262 2.028375e-38
-0.70758271 2.564955 0.30496693 1.1250044e-38
-0.70120287 2.5654786 0.32132602 1.5304493e-38
-0.69164872 2.5655625 0.33213392 1.5211937e-38
-0.68689227 2.5659611 0.34449175 1.2812309e-38
-0.67811531 2.5662928 0.35939914 1.3180011e-38
-0.67054987 2.566617 0.37299907 1.2996699e-38
-0.66804582 2.5672004 0.38680622 1.2904862e-38
-0.65876049 2.5675044 0.4016611 1.2627916e-38
-0.65250218 2.5678279 0.41398913 1.2719753e-38
-0.64850312 2.5683348 0.42773509 1.2720469e-38
-0.64423811 2.5688281 0.44147006 1.2720109e-38
-0.63868868 2.5692556 0.45515251 1.272047e-38
-0.63240677 2.5696454 0.46880496 1.272011e-38
-0.62717736 2.5700893 0.48250052 1.2443522e-38
-0.6197449 2.5703869 0.49544832 1.2259132e-38
-0.61538398 2.5708821 0.50931257 1.2628275e-38
-0.60937834 2.571264 0.52254379 1.2351328e-38
-0.60662305 2.5718827 0.53728426 1.2259132e-38
-0.60346961 2.5724821 0.55202574 1.2166934e-38
-0.59580302 2.5727527 0.56467396 1.2812303e-38
-0.58680332 2.5729821 0.57779634 1.2259489e-38
-0.58255661 2.5735288 0.59255737 1.1982541e-38
-0.57474864 2.5738096 0.60554081 1.1890704e-38
-0.57225651 2.574398 0.61943299 1.1614839e-38
-0.56508356 2.574738 0.63296443 1.1614837e-38
-0.56192249 2.5752878 0.64674461 1.1430448e-38
-0.55432874 2.5756106 0.66034341 1.1522645e-38
-0.54984254 2.5760925 0.6740694 1.1246055e-38
-0.54402047 2.5765061 0.68774068 1.096983e-38
-0.53483135 2.5766966 0.70028484 1.0969467e-38
-0.53315133 2.5773728 0.71511495 1.1061661e-38
-0.52684689 2.5777812 0.72914684 1.0416291e-38
-0.52059996 2.5781534 0.74242049 1.0139706e-38
-0.5144605 2.5785506 0.75607872 9.6787279e-39
-0.5082761 2.5789456 0.76973516 9.5865308e-39
-0.50124258 2.5792499 0.7824353 9.402857e-39
-0.50001091 2.5798926 0.79617828 9.0337144e-39
-0.49321592 2.5803096 0.8108539 8.665292e-39
-0.47726142 2.5816274 0.85192323 8.1110406e-39
-0.47436592 2.5821676 0.86525911 7.7433371e-39
-0.46307614 2.5822942 0.87856907 8.0202855e-39
-0.45867375 2.5827918 0.8925243 9.4943394e-39
-0.45373464 2.582535 0.89224273 9.6790922e-39
-0.45395455 2.5833185 0.90734464 7.6507855e-39
-0.44355014 2.5827479 0.90618181 6.2689315e-39
-0.43823057 2.5838172 0.93218803 2.1574468e-38
-0.42981249 2.5834315 0.93273073 1.8624222e-38
-1.2774323 2.5253174 -1.0167655 2.1758513e-38
-1.2690802 2.5247614 -1.0196127 2.258792e-38
-1.2667809 2.5244677 -1.0231484 2.258828e-38
-0.72606331 2.5661917 0.31140098 1.3739326e-38
-0.71840703 2.5664537 0.32387123 1.5212659e-38
-0.71066386 2.5664685 0.33159438 1.3827192e-38
-0.70179653 2.5663207 0.33721074 1.3550601e-38
-0.70016325 2.5669427 0.35094365 1.2812307e-38
-0.6914441 2.5672703 0.36571392 1.2904144e-38
-0.6891675 2.567836 0.37895894 1.2812309e-38
-0.68350768 2.5681343 0.39021826 1.2627916e-38
-0.68010473 2.568691 0.40436739 1.2627916e-38
-0.66683543 2.5687602 0.41845593 1.2995982e-38
-0.66135955 2.5691826 0.43196779 1.253572e-38
-0.65808624 2.569766 0.44651198 1.2536079e-38
-0.65344739 2.5702453 0.46033478 1.2627915e-38
-0.64577872 2.5705631 0.47390392 1.2351686e-38
-0.64247906 2.5711057 0.48767844 1.2443522e-38
-0.63797855 2.5715866 0.50140387 1.2167297e-38
-0.63172323 2.5719783 0.51505744 1.2259132e-38
-0.62708175 2.5724521 0.528777 1.2167295e-38
-0.62096041 2.5728502 0.54243606 1.2167294e-38
-0.61628598 2.5733228 0.55615437 1.2074738e-38
-0.60805613 2.5736246 0.5699541 1.2351685e-38
-0.60166097 2.5739973 0.58337486 1.2075098e-38
-0.59711856 2.574476 0.59709847 1.1982541e-38
-0.58743942 2.5746515 0.60981661 1.179851e-38
-0.58387208 2.5753891 0.62766045 1.1799232e-38
-0.58067685 2.5758073 0.638901 1.1799232e-38
-0.57537097 2.5762236 0.65213025 1.1614482e-38
-0.57101911 2.5768163 0.6678887 1.1614842e-38
-0.56420386 2.5770147 0.67831379 1.1061665e-38
-0.5590747 2.5775807 0.69429266 1.1062024e-38
-0.55387807 2.5779552 0.70660532 1.0877272e-38
-0.55004025 2.5784705 0.72035778 1.0693239e-38
-0.5399878 2.5787787 0.73603308 1.0417012e-38
-0.53378838 2.5790615 0.7475118 9.9560322e-39
-0.53241646 2.5797377 0.76204389 9.7709207e-39
-0.52596939 2.5800848 0.77501565 9.4024969e-39
-0.51997614 2.5804892 0.78867519 9.3103013e-39
-0.51206172 2.5807955 0.80226088 9.0340745e-39
-0.50835317 2.5813174 0.81601876 8.6652906e-39
-0.49848378 2.582973 0.85785568 8.8493301e-39
-0.4854275 2.5821669 0.85462719 7.8358929e-39
-0.48569626 2.5829504 0.86968666 7.742621e-39
-0.48238313 2.5835578 0.88473809 8.0195667e-39
-0.47233224 2.5835135 0.89351803 1.1799945e-38
-0.46714979 2.5834775 0.89778978 9.9560364e-39
-0.45860654 2.5837011 0.91035926 6.6387832e-39
-0.45417774 2.5843065 0.92644316 1.5028224e-38
-0.44429049 2.5843277 0.93634611 2.3141456e-38
-1.287274 2.5254638 -1.0233485 2.2035466e-38
-1.2918297 2.5259655 -1.0179188 2.2220939e-38
-1.2772694 2.5255051 -1.012943 2.0561421e-38
-0.73990601 2.5670755 0.31539321 1.5213017e-38
-0.73200423 2.5673509 0.32835636 1.493607e-38
-0.72054243 2.5674815 0.34190977 1.3642798e-38
-0.71546799 2.5679257 0.35546824 1.2904507e-38
-0.71144199 2.5684702 0.36997363 1.2628276e-38
-0.70747209 2.5690026 0.38419348 1.2443885e-38
-0.69783568 2.5691912 0.39712879 1.2905226e-38
-0.69276917 2.5696435 0.41083094 1.2627916e-38
-0.68508613 2.5699227 0.42365792 1.2443526e-38
-0.68136775 2.5704978 0.43846938 1.2351691e-38
-0.67417014 2.5708261 0.45179847 1.2536079e-38
-0.66526896 2.5712192 0.46802396 1.2259132e-38
-0.66230118 2.5716727 0.4797343 1.2166939e-38
-0.65571201 2.5719991 0.49243769 1.2258772e-38
-0.65060639 2.5724661 0.50647235 1.2259131e-38
-0.64620924 2.5729527 0.52020192 1.2166935e-38
-0.64001471 2.5733471 0.533858 1.2166935e-38
-0.63525039 2.5738149 0.54757255 1.1983621e-38
-0.63061798 2.5742893 0.56129259 1.1982901e-38
-0.62450087 2.5746877 0.57495177 1.1982541e-38
-0.61599481 2.5749323 0.58789605 1.1798511e-38
-0.61268723 2.5755115 0.60239226 1.1983264e-38
-0.60661662 2.5758755 0.61533743 1.1706316e-38
-0.60403013 2.5764096 0.62825596 1.1522286e-38
-0.59515738 2.5767434 0.64329863 1.1522643e-38
-0.58898962 2.5771391 0.65695578 1.1429729e-38
-0.58383662 2.5775871 0.67065442 1.1890711e-38
-0.5807184 2.5781391 0.68443644 1.0877274e-38
-0.57617062 2.5786178 0.69815987 1.0785436e-38
-0.56612951 2.578758 0.71053535 1.0508491e-38
-0.56381202 2.5794325 0.72594637 1.0601046e-38
-0.55757856 2.5797703 0.73853183 1.050849e-38
-0.55308723 2.5802455 0.75212836 1.0969472e-38
-0.54673874 2.5799401 0.75225109 1.0047872e-38
-0.54881412 2.5807421 0.76593965 1.0692524e-38
-0.54424214 2.5810914 0.77715933 9.4946911e-39
-0.53456956 2.5814373 0.79320312 9.033357e-39
-0.52648938 2.5817673 0.80740315 8.8493273e-39
-0.50819445 2.5829797 0.84866434 8.5734593e-39
-0.50841129 2.583688 0.86230147 8.4819797e-39
-0.50518596 2.5841255 0.87394744 8.7567758e-39
-0.50180542 2.5846879 0.888188 9.3099509e-39
-0.49191779 2.5845997 0.8959558 1.0602127e-38
-0.48220369 2.5844393 0.90214276 7.3749147e-39
-0.47821227 2.5849946 0.91682708 1.2445681e-38
-0.46947402 2.5852525 0.93025559 7.1933667e-39
-1.3110616 2.527087 -1.0144533 2.2588641e-38
-1.3049177 2.5267437 -1.0152671 2.2312049e-38
-1.2978486 2.5264924 -1.0133928 2.1574845e-38
-0.7600714 2.5677202 0.30863851 1.3647129e-38
-0.75924009 2.568373 0.32219711 1.4936789e-38
-0.74917096 2.5679548 0.32368216 1.4289615e-38
-0.74146146 2.5680997 0.33391809 1.3458767e-38
-0.73613924 2.5685389 0.34760985 1.2628279e-38
-0.732584 2.5690684 0.36137393 1.2536082e-38
-0.72900164 2.5695965 0.37513688 1.2535722e-38
-0.72416359 2.5700605 0.38884842 1.2443885e-38
-0.71266562 2.5701344 0.40133184 1.2443885e-38
-0.7105695 2.5707405 0.41518894 1.2351331e-38
-0.70214009 2.5710678 0.42967576 1.2443167e-38
-0.69494945 2.5714114 0.44329104 1.2443525e-38
-0.68810976 2.5717466 0.45640674 1.2351329e-38
-0.68512309 2.5721707 0.46756494 1.2075463e-38
-0.67686689 2.5726204 0.4842796 1.2166941e-38
-0.6713571 2.57305 0.4979637 1.2167297e-38
-0.66438228 2.5733826 0.51116318 1.1982904e-38
-0.65951121 2.5738745 0.52544796 1.1982904e-38
-0.65467566 2.5742855 0.53812575 1.1891067e-38
-0.64660007 2.5746288 0.5525887 1.1982903e-38
-0.64265978 2.5751386 0.56633705 1.2074019e-38
-0.63740051 2.5755811 0.58003139 1.179851e-38
-0.63215941 2.5760243 0.5937264 1.2075458e-38
-0.62567616 2.5764039 0.60737073 1.2075461e-38
-0.6251651 2.5770895 0.62125933 1.1521923e-38
-0.61885977 2.5774784 0.63491094 1.1153142e-38
-0.60895175 2.5776355 0.64749354 1.1245339e-38
-0.60506982 2.5782208 0.66266435 1.1245336e-38
-0.59803861 2.5785472 0.67578739 1.0969109e-38
-0.59382653 2.5790429 0.68952459 1.0785078e-38
-0.59344494 2.5797892 0.70447338 1.0692162e-38
-0.58410311 2.5799682 0.71694577 1.0692527e-38
-0.57872051 2.5804493 0.7315135 1.0139707e-38
-0.57315683 2.5808313 0.74431688 1.050885e-38
-0.56611258 2.5811324 0.75696486 1.0600325e-38
-0.55786061 2.5814209 0.77052289 1.0139703e-38
-0.55669105 2.5821984 0.78684461 9.0344501e-39
-0.55206996 2.5825851 0.79884189 1.0232626e-38
-0.54790044 2.5831285 0.81346351 9.1270016e-39
-0.54139709 2.5827353 0.81201977 8.3890694e-39
-0.52863014 2.5842774 0.85441965 7.6518701e-39
-0.52226156 2.5838306 0.85179532 8.5723845e-39
-0.51809919 2.5844336 0.86757451 7.3738357e-39
-0.51730871 2.5850904 0.88117361 1.3643144e-38
-0.51301396 2.5856469 0.89617348 1.2445683e-38
-0.50115728 2.5857131 0.90884596 1.02337e-38
-0.49539143 2.585387 0.9080106 9.9563909e-39
-0.4972021 2.5862193 0.92253906 1.7424606e-38
-0.48634759 2.5862808 0.93416041 2.2955285e-38
-1.3267099 2.5279422 -1.0127574 2.2034747e-38
-1.3210417 2.5277238 -1.0115882 2.2311334e-38
-1.3126999 2.5271671 -1.0144638 2.0930202e-38
-0.77781719 2.5687401 0.31153896 1.235783e-38
-0.77414513 2.5693157 0.32631138 1.4013746e-38
-0.76511675 2.5692012 0.33274624 1.355204e-38
-0.75738591 2.5691581 0.33931938 1.3182536e-38
-0.75140727 2.5695534 0.35278636 1.2443528e-38
-0.7457357 2.5701351 0.36959937 1.2351691e-38
-0.74049646 2.5703745 0.37930828 1.2259495e-38
-0.73796678 2.5709996 0.39395604 1.2259136e-38
-0.73488981 2.5715327 0.40732712 1.2351332e-38
-0.72481036 2.5717499 0.42124569 1.2259494e-38
-0.71581966 2.5720868 0.43646345 1.2259133e-38
-0.71451223 2.5727015 0.44973111 1.2351692e-38
-0.70450497 2.572845 0.46214339 1.2074742e-38
-0.69669765 2.5731533 0.47566196 1.1890711e-38
-0.6928761 2.5737045 0.4901039 1.1982547e-38
-0.68409634 2.5739348 0.50303674 1.189071e-38
-0.67955846 2.5744143 0.51676065 1.1982904e-38
-0.67345202 2.5748131 0.53042024 1.1982904e-38
-0.66610402 2.5752685 0.54637265 1.1798513e-38
-0.66397458 2.575798 0.55876321 1.1705957e-38
-0.6549356 2.576 0.57139117 1.1798153e-38
-0.65481818 2.576757 0.5862959 1.1614479e-38
-0.64560592 2.5769458 0.59882843 1.1522283e-38
-0.64268076 2.5775075 0.61261833 1.1522282e-38
-0.6356867 2.5778611 0.62624162 1.1336817e-38
-0.62948531 2.5782552 0.63989741 1.1430092e-38
-0.62384278 2.5786779 0.65357608 1.1060948e-38
-0.62076008 2.5792315 0.66735941 1.1337174e-38
-0.61197716 2.5794594 0.68024057 1.0784715e-38
-0.60813844 2.5799999 0.69449186 1.0692883e-38
-0.60357296 2.5806301 0.71119428 1.0323383e-38
-0.59293556 2.5808012 0.72474742 1.0047515e-38
-0.58619475 2.5810201 0.73549253 1.0048228e-38
-0.58045608 2.581491 0.75020647 1.0231906e-38
-0.5826807 2.5822632 0.76316798 1.1523005e-38
-0.57365036 2.5825174 0.77680117 9.3121286e-39
-0.57074738 2.5831621 0.79218942 9.7713004e-39
-0.5601728 2.5832458 0.8039754 1.2817025e-38
-0.55337 2.5835757 0.81695169 9.8631261e-39
-0.54172105 2.584759 0.85126531 7.6518701e-39
-0.54429072 2.5853114 0.85959536 7.7437028e-39
-0.53684103 2.5850506 0.86164647 7.8351754e-39
-0.5303154 2.5858948 0.8844105 2.3507362e-38
-0.52523059 2.5854461 0.88051915 2.3508801e-38
-0.53109264 2.5867386 0.90016001 1.871427e-38
-0.52356702 2.5865667 0.90402168 7.6518519e-39
-0.5128572 2.5865231 0.9134472 1.5304819e-38
-0.51254922 2.5872121 0.92721254 2.1113152e-38
-1.3475399 2.528573 -1.0204206 2.2587565e-38
-1.3399686 2.5283718 -1.017087 2.1573768e-38
-1.3328199 2.5281284 -1.0149808 2.1943633e-38
-0.7991401 2.5693836 0.30365342 1.1527708e-38
-0.79150075 2.5698383 0.31987059 1.3829717e-38
-0.78063595 2.5698433 0.33039635 1.4290695e-38
-0.77033663 2.570044 0.34420323 1.2536082e-38
-0.76288301 2.5704589 0.35947222 1.2720836e-38
-0.75928861 2.5709167 0.37187156 1.2351692e-38
-0.75703573 2.5714977 0.38538757 1.2259136e-38
-0.75157422 2.571856 0.39763394 1.2535726e-38
-0.74562967 2.5722971 0.41195878 1.2443169e-38
-0.73611265 2.5725613 0.42625991 1.2166941e-38
-0.73143405 2.5730333 0.43997803 1.2536086e-38
-0.72666663 2.5735009 0.45369253 1.2535727e-38
-0.718243 2.573735 0.46635309 1.1982907e-38
-0.71468186 2.5743577 0.48194417 1.1890352e-38
-0.70807672 2.5746841 0.49466032 1.1982905e-38
-0.69858944 2.5748858 0.50771081 1.2167297e-38
-0.69566566 2.5753672 0.51992595 1.17056e-38
-0.6908707 2.5759609 0.53613418 1.1798153e-38
-0.68235213 2.5762134 0.54924577 1.1706316e-38
-0.67598403 2.5765991 0.5628947 1.1614121e-38
-0.66799545 2.5768604 0.57567436 1.1521926e-38
-0.66592538 2.5775073 0.59030211 1.1614479e-38
-0.65843517 2.5777912 0.60304385 1.1430087e-38
-0.65533161 2.5783942 0.61780632 1.1337174e-38
-0.6501506 2.5788219 0.63114184 1.142937e-38
-0.64567906 2.5793324 0.64541173 1.1337536e-38
-0.63878191 2.5796754 0.65873915 1.0876917e-38
-0.63413692 2.5801494 0.67245859 1.2627916e-38
-0.63782978 2.5811651 0.68876898 1.0693976e-38
-0.62834835 2.5805647 0.68613124 1.115458e-38
-0.6217941 2.5809407 0.6997726 1.0508857e-38
-0.61842895 2.5814798 0.71354443 1.1246779e-38
-0.6112982 2.5818276 0.72718418 9.7716494e-39
-0.60297298 2.5816967 0.73261893 1.0140802e-38
-0.59324008 2.582459 0.75685751 9.5886986e-39
-0.59045637 2.5830712 0.77149582 1.004752e-38
-0.56804293 2.583895 0.80911011 8.3869156e-39
-0.55880147 2.5854902 0.84916508 9.7745571e-39
-0.55052298 2.5850132 0.84778094 1.2540789e-38
-1.3584213 2.5293484 -1.0157077 2.1942191e-38
-1.3543935 2.5290027 -1.0185988 2.1297902e-38
-1.3436557 2.5291309 -1.0057842 2.0928756e-38
-0.81329352 2.5703857 0.30965242 1.2174517e-38
-0.80368227 2.5706599 0.32424006 1.3644606e-38
-0.7935577 2.5707541 0.3357957 1.3551681e-38
-0.78677285 2.5711732 0.35050681 1.262792e-38
-0.78109878 2.5715392 0.36310497 1.2720476e-38
-0.77869052 2.5721607 0.37756538 1.2259498e-38
-0.77434516 2.5726478 0.39125386 1.2075104e-38
-0.76462537 2.5728307 0.40415943 1.3089263e-38
-0.7582407 2.5732155 0.4178077 1.2075104e-38
-0.7536549 2.5735931 0.42959353 1.2075107e-38
-0.74951923 2.5742373 0.4461551 1.1706323e-38
-0.74325031 2.5744805 0.4569248 1.1890715e-38
-0.73988342 2.5750639 0.47156206 1.198291e-38
-0.7318511 2.5754225 0.48627549 1.1982908e-38
-0.72356737 2.5756605 0.49887589 1.2351332e-38
-0.71832556 2.5760355 0.51124251 1.1798155e-38
-0.71184868 2.5766191 0.52886498 1.1705958e-38
-0.7052995 2.5769095 0.54082704 1.1798153e-38
-0.6985665 2.5772157 0.55327535 1.1798154e-38
-0.69283909 2.5776958 0.56815743 1.1521927e-38
-0.68801641 2.5781546 0.58175355 1.1337535e-38
-0.6827001 2.5785687 0.59494823 1.1521924e-38
-0.68036121 2.5791161 0.60789454 1.1429367e-38
-0.6722151 2.5794852 0.62293041 1.1429008e-38
-0.67110521 2.5801833 0.63763654 1.1060946e-38
-0.65759063 2.5803318 0.65351045 1.12457e-38
-0.65378404 2.5807493 0.66532481 1.0785085e-38
-0.64721942 2.5809972 0.67647767 1.1430099e-38
-0.64580941 2.5816913 0.69139755 1.0693976e-38
-0.6393764 2.5819271 0.70217705 1.0325192e-38
-0.63205773 2.5824683 0.71978205 1.0047154e-38
-0.62355381 2.5825577 0.72969019 8.9419041e-39
-0.61849588 2.5831394 0.74591798 7.7466217e-39
-0.61325794 2.5837095 0.76208448 1.1251856e-38
-0.60862786 2.5840197 0.77259272 1.1251856e-38
-1.3774298 2.530715 -1.0072424 2.1295376e-38
-1.3654088 2.5300016 -1.0096452 2.2126581e-38
-0.82613057 2.5713797 0.3167631 1.4107031e-38
-0.81674969 2.5715404 0.32890567 1.2906315e-38
-0.80765045 2.5717082 0.34092417 1.2075464e-38
-0.80381936 2.5722239 0.35467696 1.2167298e-38
-0.79250437 2.5723002 0.36702979 1.2075101e-38
-0.79358095 2.5731227 0.3820771 1.1982907e-38
-0.78822255 2.57356 0.39576736 1.2075105e-38
-0.77981907 2.5738113 0.40874386 1.1982907e-38
-0.77655643 2.5743618 0.42263597 1.1982907e-38
-0.7695778 2.5747402 0.43673295 1.2352056e-38
-0.76443291 2.5751886 0.45043197 1.1521931e-38
-0.76296145 2.5758607 0.46498471 1.179816e-38
-0.75255132 2.5760033 0.47776482 1.1706681e-38
-0.74538451 2.5763304 0.4910337 1.2352054e-38
-0.74095136 2.5768075 0.50461549 1.1798517e-38
-0.73646003 2.5773273 0.51908594 1.2075464e-38
-0.72767413 2.5775764 0.53238499 1.1706318e-38
-0.72213328 2.5779471 0.54495591 1.1798154e-38
-0.71726221 2.5784974 0.56038469 1.1798155e-38
-0.71193939 2.5787873 0.57115734 1.1429732e-38
-0.70598727 2.5792923 0.58674437 1.1429729e-38
-0.70306212 2.5797927 0.59933144 1.1429729e-38
-0.69427329 2.5801358 0.61447537 1.1521206e-38
-0.68496168 2.5803359 0.62732184 1.1245339e-38
-0.6811384 2.5810468 0.64488751 1.1245699e-38
-0.67446768 2.5812569 0.65539342 1.1614842e-38
-0.66875386 2.5816758 0.66906917 1.041702e-38
-0.66598707 2.5822458 0.68286556 1.336765e-38
-0.65863514 2.5825808 0.69647419 8.5742006e-39
-0.65173912 2.5827894 0.70716655 1.0879077e-38
-1.3894246 2.531167 -1.0099173 2.341805e-38
-1.3854561 2.5310333 -1.0087233 2.3050348e-38
-1.3772136 2.5309076 -1.0032648 2.341805e-38
-0.84621644 2.5723176 0.31581575 1.3830805e-38
-0.83962584 2.5721951 0.31974781 1.3276185e-38
-0.82684368 2.5721076 0.33030611 1.2997792e-38
-0.82175446 2.5726633 0.34605309 1.1983267e-38
-0.81668496 2.5731153 0.35975519 1.2074026e-38
-0.81057662 2.5735142 0.37341475 1.1890354e-38
-0.80758834 2.5740728 0.38720205 1.2074385e-38
-0.80395389 2.5745974 0.40094543 1.1890354e-38
-0.80089056 2.5751951 0.41556728 1.1798518e-38
-0.79028946 2.5753222 0.42822278 1.1890713e-38
-0.78458393 2.5756752 0.44060418 1.1705963e-38
-0.77951145 2.5762768 0.45722738 1.1613767e-38
-0.77705312 2.5767791 0.46940976 1.1705961e-38
-0.76889712 2.5771065 0.48363736 1.1614126e-38
-0.76272571 2.5774689 0.4966425 1.1430096e-38
-0.75922728 2.5780013 0.51040888 1.1430094e-38
-0.75142127 2.5783134 0.52399892 1.1890717e-38
-0.74495578 2.5786595 0.53697056 1.1614123e-38
-0.73591042 2.5789423 0.55118328 1.2075102e-38
-0.73126996 2.5794165 0.5649029 1.1521567e-38
-0.72518802 2.5798168 0.57856351 1.1521567e-38
-0.72047365 2.5802867 0.59228027 1.1244979e-38
-0.71760803 2.5808518 0.60607249 1.1521566e-38
-0.70807028 2.5810256 0.61862355 1.142937e-38
-0.70586711 2.5815828 0.63162923 1.1337177e-38
-0.69777483 2.5819712 0.64698946 1.1060948e-38
-0.68820965 2.5822313 0.66125536 1.0601054e-38
-0.68314457 2.5826454 0.67420983 1.0416304e-38
-0.6763733 2.5830102 0.68784219 1.0970927e-38
-0.66833907 2.5834196 0.70355397 9.8645723e-39
-0.66252089 2.5837245 0.71509451 9.40395e-39
-1.4140782 2.5320327 -1.0166578 2.1389735e-38
-1.4040442 2.5322452 -1.0028737 2.3418047e-38
-1.3934448 2.5323281 -0.99107897 2.341769e-38
-1.3882148 2.5318937 -0.99454886 2.341769e-38
-0.86630452 2.5731232 0.3122834 1.3645696e-38
-0.85940152 2.5730863 0.31818533 1.3922277e-38
-0.85156196 2.5730553 0.32510856 1.2722286e-38
-0.83912653 2.5730476 0.33689183 1.1799239e-38
-0.83626825 2.5735438 0.34933165 1.1889995e-38
-0.83159387 2.5741382 0.36543781 1.1706323e-38
-0.82591474 2.5744047 0.37610185 1.1798518e-38
-0.81951267 2.5748806 0.39154366 1.1981832e-38
-0.81954163 2.5756292 0.40615252 1.1890355e-38
-0.81404227 2.5760593 0.419837 1.179816e-38
-0.80703896 2.57635 0.43223971 1.1614486e-38
-0.80006963 2.5767672 0.44708422 1.1705964e-38
-0.79370189 2.577153 0.46073318 1.1613767e-38
-0.78757483 2.5775506 0.47439203 1.1613767e-38
-0.78284669 2.5780203 0.48810807 1.1429733e-38
-0.77536535 2.5783086 0.50092489 1.1429734e-38
-0.7728402 2.5789039 0.51498336 1.133754e-38
-0.7643382 2.5792077 0.52907926 1.1890713e-38
-0.75982249 2.5796878 0.54280412 1.1614123e-38
-0.7506333 2.5798905 0.55558532 1.1337174e-38
-0.7459029 2.5803602 0.56930518 1.1982548e-38
-0.74318385 2.5808921 0.58231151 1.124462e-38
-0.73812395 2.5814469 0.59800959 1.1521567e-38
-0.73357731 2.5819216 0.61165696 1.1613763e-38
-0.72794974 2.582444 0.6272676 1.1060946e-38
-0.72398353 2.582907 0.64012206 1.0969111e-38
-0.7118898 2.5828986 0.65156513 1.0969469e-38
-0.70873576 2.58342 0.6647861 1.0323741e-38
-0.69418156 2.5833862 0.6780985 1.0231906e-38
-0.69251347 2.5840516 0.6927042 9.3106768e-39
-0.6870209 2.5845001 0.70673925 5.6239558e-39
-0.67132211 2.5851252 0.73403066 1.2080531e-38
-1.4226893 2.5335534 -0.99520379 1.8529866e-38
-1.4059509 2.5331645 -0.98673677 2.341805e-38
-0.88253731 2.5738192 0.31030548 1.355386e-38
-0.87411714 2.5735826 0.31376332 1.3645696e-38
-0.86706251 2.5740254 0.32919165 1.2536815e-38
-0.85897839 2.5743132 0.34257442 1.161377e-38
-0.851955 2.5746751 0.35639247 1.179816e-38
-0.84573919 2.5750685 0.37004766 1.1706323e-38
-0.83947521 2.5754595 0.38370085 1.1705965e-38
-0.83731431 2.5760605 0.397522 1.1889995e-38
-0.8301304 2.5764043 0.41113752 1.179816e-38
-0.82638997 2.5769243 0.42489406 1.1705964e-38
-0.8188526 2.5772479 0.43844813 1.1521933e-38
-0.81149775 2.5775852 0.45210364 1.1705965e-38
-0.80662966 2.5780478 0.46581396 1.1521931e-38
-0.80362141 2.5786052 0.47960046 1.1429376e-38
-0.79735541 2.5789959 0.49325359 1.1429374e-38
-0.79120129 2.5793924 0.50691128 1.152121e-38
-0.78641182 2.579859 0.52062482 1.133718e-38
-0.77811992 2.5800977 0.53324974 1.1337177e-38
-0.77424186 2.5806375 0.54752052 1.1337536e-38
-0.77187461 2.5811598 0.560009 1.1153143e-38
-0.76180422 2.5814455 0.57525593 1.1798155e-38
-0.76221591 2.5822086 0.58977997 1.1152785e-38
-0.75410295 2.5824745 0.6027599 1.1153143e-38
-0.74945635 2.582948 0.6164794 1.1982549e-38
-0.74339443 2.5833492 0.63014078 1.1060946e-38
-0.73741722 2.5837026 0.64278454 1.060069e-38
-0.72723007 2.583945 0.65729833 1.0784719e-38
-0.72167003 2.584372 0.67098033 9.9545973e-39
-0.71511853 2.5847614 0.68487859 1.0968395e-38
-0.70562035 2.5849736 0.69814259 8.8486113e-39
-0.69853169 2.5853074 0.71147543 8.4809077e-39
-1.4354556 2.534359 -0.9917047 2.0190835e-38
-1.4196262 2.5338843 -0.98579168 1.5393762e-38
-0.89426869 2.5747325 0.31689939 1.3369109e-38
-0.88560146 2.5745344 0.32134554 1.2999239e-38
-0.87724596 2.5747797 0.33416009 1.2259499e-38
-0.87283182 2.5752652 0.34788904 1.161377e-38
-0.86485791 2.5756345 0.36276045 1.161413e-38
-0.86341101 2.5762579 0.37633336 1.1522292e-38
-0.85392886 2.5764325 0.38884404 1.1614127e-38
-0.84616035 2.5767462 0.40243569 1.1797798e-38
-0.84151602 2.5772202 0.41615516 1.1705965e-38
-0.8391856 2.5778124 0.4299694 1.1521573e-38
-0.83447629 2.5782831 0.44368622 1.1429736e-38
-0.82593274 2.5785329 0.45677477 1.1428658e-38
-0.82110685 2.5789981 0.47049856 1.133718e-38
-0.81550318 2.5794837 0.48536924 1.1337179e-38
-0.81081098 2.5799179 0.49835595 1.133754e-38
-0.80408031 2.5802848 0.51199007 1.133682e-38
-0.79906243 2.5807395 0.52569425 1.1244621e-38
-0.79501534 2.5812438 0.53943819 1.1337177e-38
-0.7886622 2.5816302 0.55308777 1.124534e-38
-0.78411639 2.5821092 0.56681132 1.1060949e-38
-0.77685755 2.5824153 0.57976633 1.1153145e-38
-0.77479362 2.583055 0.59424889 1.1060949e-38
-0.76810527 2.583431 0.60802114 1.1153503e-38
-0.76073438 2.5837586 0.62149256 1.1153508e-38
-0.75456309 2.5841541 0.63514954 1.0416301e-38
-0.75007713 2.584636 0.64887553 1.004788e-38
-0.74413472 2.5849845 0.66139179 9.7720165e-39
-0.73589152 2.5853329 0.67611414 1.2168383e-38
-0.73036665 2.5853214 0.68119556 1.3181813e-38
-1.4574521 2.5348711 -1.0028114 2.3509524e-38
-1.4532197 2.5349483 -0.99723607 2.2956712e-38
-1.439871 2.5346904 -0.98946834 2.2680122e-38
-0.91651255 2.5755544 0.31161234 1.3184359e-38
-0.90951008 2.5752218 0.31183246 1.3276195e-38
-0.8988204 2.5754538 0.32662746 1.1706687e-38
-0.89008206 2.5756698 0.33923709 1.1520855e-38
-0.88554639 2.576149 0.35296106 1.1613768e-38
-0.88268864 2.5767143 0.36675367 1.1521933e-38
-0.87602329 2.577085 0.38039047 1.1521933e-38
-0.86949229 2.5774162 0.39313468 1.1429378e-38
-0.86030257 2.5777032 0.40756616 1.161341e-38
-0.85496467 2.5781417 0.42125723 1.1337183e-38
-0.85124743 2.5786629 0.43501475 1.1429378e-38
-0.84500223 2.5790546 0.44866869 1.1337543e-38
-0.84071654 2.5795469 0.46240282 1.1429736e-38
-0.83734846 2.580086 0.47617459 1.1429376e-38
-0.8291074 2.5805466 0.49308795 1.1153508e-38
-0.82352263 2.5808012 0.50342786 1.1153506e-38
-0.81882167 2.5812724 0.51714504 1.1153147e-38
-0.81516629 2.5818062 0.53108853 1.1153145e-38
-0.81165057 2.5823605 0.54529482 1.1060589e-38
-0.80322272 2.5826085 0.55823535 1.1244621e-38
-0.79993051 2.5831516 0.57201016 1.1060949e-38
-0.79385102 2.5835521 0.58567089 1.1060949e-38
-0.78777581 2.5839527 0.5993318 1.0968752e-38
-0.78069609 2.584353 0.61395413 1.0876558e-38
-0.77203518 2.5845699 0.62650669 1.0691808e-38
-0.76834518 2.5850925 0.64026535 1.1060949e-38
-0.76252121 2.585506 0.65393651 1.1985075e-38
-0.7596454 2.5860703 0.66772836 9.4025165e-39
-0.75073928 2.5863047 0.68085957 1.0326279e-38
-0.74304026 2.5861411 0.6850515 1.4656591e-38
-1.4784458 2.5360112 -1.0006793 2.2956712e-38
-1.4721574 2.535682 -1.0010728 2.2679405e-38
-1.4660521 2.5353348 -1.0019989 2.3509527e-38
-1.4587624 2.535337 -0.99496275 2.2679762e-38
-0.92991108 2.5763016 0.31336129 1.0787249e-38
-0.91981685 2.5760465 0.31806135 1.1155312e-38
-0.91592968 2.5765142 0.33093715 1.1337902e-38
-0.90536892 2.5766506 0.34373462 1.1613051e-38
-0.90032303 2.5771029 0.35742238 1.1521217e-38
-0.89895308 2.5776963 0.37033388 1.1245349e-38
-0.89082479 2.5780756 0.38554794 1.1337544e-38
-0.88447213 2.5784619 0.39919749 1.1429378e-38
-0.87606663 2.5787513 0.41292292 1.1245346e-38
-0.87323064 2.5793569 0.42748272 1.115315e-38
-0.86782587 2.5797729 0.44079897 1.115279e-38
-0.862095 2.5801628 0.45391992 1.1244986e-38
-0.85635221 2.5805802 0.46759441 1.1336821e-38
-0.85212708 2.5810754 0.48133108 1.1244984e-38
-0.84466106 2.5814049 0.49493515 1.115279e-38
-0.83574259 2.5817223 0.50969887 1.1060952e-38
-0.83279914 2.5822835 0.52349234 1.0876559e-38
-0.83169013 2.5828757 0.53613293 1.0968753e-38
-0.82548153 2.5832694 0.54978848 1.106023e-38
-0.81624925 2.5834527 0.56223387 1.1152424e-38
-0.81150126 2.5839314 0.57614464 1.0968753e-38
-0.80975711 2.5845416 0.58974719 1.0692527e-38
-0.80599564 2.5851741 0.60572094 1.0508137e-38
-0.79592437 2.585314 0.61812663 1.1429015e-38
-0.79055369 2.585402 0.62499779 1.1059867e-38
-0.78503209 2.5854683 0.63159037 1.0137912e-38
-0.78538132 2.5862544 0.64662379 1.1337181e-38
-0.77551556 2.5864041 0.65902001 9.3092475e-39
-0.76840717 2.5868337 0.6742397 8.6682011e-39
-1.4890325 2.5356841 -1.0172317 2.1205349e-38
-1.4915966 2.5364444 -1.0048288 2.0558541e-38
-1.486838 2.5362306 -1.0044386 2.3049265e-38
-1.4812509 2.5359559 -1.0044494 2.1020238e-38
-0.95066196 2.5772722 0.31241244 1.133718e-38
-0.9425596 2.5771239 0.31729007 1.115279e-38
-0.93492824 2.5770082 0.32235685 1.1244986e-38
-0.9276641 2.5774379 0.33772352 1.1152793e-38
-0.92412418 2.5778785 0.34973377 1.1336824e-38
-0.91776514 2.5782645 0.36338308 1.1614133e-38
-0.91146797 2.5786536 0.3770349 1.1153513e-38
-0.90257406 2.5788686 0.3897723 1.170669e-38
-0.90160304 2.5794799 0.40265378 1.1153153e-38
-0.89127856 2.5797548 0.41793731 1.0969119e-38
-0.89126486 2.5805056 0.43262458 1.115243e-38
-0.88247395 2.5807273 0.4453961 1.1244626e-38
-0.87773472 2.5811963 0.45911172 1.1244626e-38
-0.8703776 2.5815148 0.47239962 1.1521933e-38
-0.86762989 2.5821517 0.48748884 1.1060593e-38
-0.85846907 2.5823448 0.50005192 1.0968399e-38
-0.8537997 2.5828173 0.5137704 1.0968399e-38
-0.84757715 2.5832102 0.52742523 1.0968756e-38
-0.84629971 2.5838602 0.54135686 1.0876559e-38
-0.84022546 2.5842571 0.5549435 1.0876918e-38
-0.83689582 2.5847576 0.5679177 1.0968393e-38
-0.83304626 2.5853443 0.583085 1.0784361e-38
-0.8227452 2.5854969 0.59595686 1.0600331e-38
-0.81899935 2.5860169 0.60971308 1.0231911e-38
-0.81093395 2.5863297 0.62357181 1.0415944e-38
-0.80079883 2.5865412 0.6374321 1.0784005e-38
-0.79840696 2.5870974 0.65059894 1.1614491e-38
-0.79041946 2.5874681 0.66551727 1.3366951e-38
-0.96355557 2.5779889 0.31404394 1.1615205e-38
-0.95683604 2.5777838 0.31648776 1.0875843e-38
-0.94898224 2.5779607 0.32748368 1.0875843e-38
-0.94493639 2.5784652 0.34122765 1.1060596e-38
-0.93724298 2.5787807 0.35477686 1.1060595e-38
-0.93335897 2.5793157 0.3689658 1.1060959e-38
-0.92972386 2.5798752 0.38339311 1.0876568e-38
-0.92515731 2.5803525 0.39710346 1.1152794e-38
-0.91355407 2.5804167 0.40949106 1.142974e-38
-0.91141999 2.5810187 0.42331332 1.0784368e-38
-0.90154439 2.5804043 0.42077756 1.0784368e-38
-0.90730757 2.5815201 0.43705463 1.1152071e-38
-0.89693123 2.5816689 0.44992679 1.1060234e-38
-0.89312917 2.582217 0.46428737 1.0784009e-38
-0.88863862 2.5827215 0.4784615 1.115279e-38
-0.87708896 2.5828838 0.4927173 1.1245345e-38
-0.87335986 2.5833645 0.50569516 1.0692169e-38
-0.86748612 2.5837436 0.51874059 1.0969118e-38
-0.86443657 2.5843377 0.53328282 1.1244986e-38
-0.86031669 2.5848494 0.5472337 1.0784365e-38
-0.85234624 2.5852625 0.56296021 1.0876558e-38
-0.84991258 2.5856974 0.57380134 1.0876558e-38
-0.84419286 2.5861065 0.58728749 1.0784361e-38
-0.8384732 2.5866117 0.60264933 1.0691809e-38
-0.83288413 2.5869606 0.61483312 1.0507778e-38
-0.82668364 2.5873547 0.6284889 1.1152423e-38
-0.81910133 2.5876567 0.64166677 1.0876556e-38
-0.81344932 2.5881004 0.65576637 1.7516819e-38
-0.9853338 2.578938 0.31169483 1.2536816e-38
-0.97587824 2.5787575 0.31724021 1.1705965e-38
-0.96616328 2.5790555 0.33239287 1.0876206e-38
-0.96131539 2.5795581 0.34686735 1.0784371e-38
-0.95598215 2.5799356 0.35936341 1.1061316e-38
-0.95696503 2.5808487 0.37626898 1.0968762e-38
-0.9467814 2.5802159 0.37367398 1.1060959e-38
-0.9421792 2.5806916 0.3873952 1.0876568e-38
-0.93754661 2.5811663 0.40111518 1.1152794e-38
-0.93017364 2.5814855 0.41443649 1.0876565e-38
-0.92457324 2.5818958 0.42782983 1.1337546e-38
-0.91934597 2.5823262 0.4412601 1.09684e-38
-0.91556734 2.5828476 0.45507935 1.0784369e-38
-0.91049474 2.5832956 0.46870497 1.0876205e-38
-0.90772444 2.5838766 0.48272166 1.0784009e-38
-0.8962934 2.584023 0.49655098 1.1060953e-38
-0.89255023 2.5846012 0.5114485 1.0692171e-38
-0.88113201 2.5846825 0.52399236 1.1429739e-38
-0.87834674 2.5852513 0.53778797 1.1613771e-38
-0.87036455 2.58571 0.55441403 1.0968758e-38
-0.86589104 2.5861344 0.56700748 1.0876202e-38
-0.86397713 2.5866506 0.57892853 1.0784005e-38
-0.85724819 2.5870574 0.59333962 1.08762e-38
-0.8537901 2.5875521 0.60633075 1.069145e-38
-0.84543604 2.5878546 0.6202634 1.0968756e-38
-0.83691823 2.5881116 0.63345939 1.0968393e-38
-0.83060127 2.5884871 0.64686233 1.1431178e-38
-1.0083103 2.5796869 0.30427799 1.3276195e-38
-0.99753064 2.5793445 0.30793446 1.3460227e-38
-0.99592292 2.5794065 0.31068909 1.3644257e-38
-0.98930746 2.5797596 0.32393855 1.1152075e-38
-0.97976565 2.5800025 0.33784693 1.1153159e-38
-0.97721136 2.5805833 0.35165197 1.0876207e-38
-0.97082281 2.5809679 0.36530003 1.0691815e-38
-0.96799576 2.5815349 0.37909395 1.0968762e-38
-0.95721459 2.5816424 0.39154941 1.0876566e-38
-0.95386422 2.5822361 0.40636396 1.1060957e-38
-0.94420475 2.5824516 0.41984886 1.1245707e-38
-0.93956411 2.5829256 0.4335686 1.0784368e-38
-0.9349522 2.583401 0.44728935 1.0784368e-38
-0.93191665 2.5839572 0.46107471 1.0784008e-38
-0.92895895 2.5845172 0.47486323 1.0784726e-38
-0.92380852 2.5849652 0.48856202 1.0691456e-38
-0.91454929 2.5851066 0.50021017 1.0692172e-38
-0.90805894 2.5855823 0.51573658 1.0784369e-38
-0.9035694 2.5860641 0.52946246 1.0969479e-38
-0.89383423 2.5854716 0.52723181 1.0969479e-38
-0.89367819 2.5862572 0.54273289 1.1153149e-38
-0.88830841 2.5867987 0.55847198 1.0691811e-38
-0.88515258 2.5872746 0.57080233 1.0599615e-38
-0.87767589 2.5875845 0.58404094 1.1061312e-38
-0.8713029 2.58797 0.59768963 1.0968758e-38
-0.86740941 2.5884824 0.61143988 1.023119e-38
-0.86338145 2.5889876 0.6251846 1.0969116e-38
-0.85368979 2.589272 0.64004546 1.2075465e-38
-1.0197207 2.5806322 0.3118051 1.4381813e-38
-1.0115001 2.5804551 0.31623697 1.2629373e-38
-1.0131446 2.581346 0.33207312 1.078365e-38
-1.0035045 2.580739 0.32946059 1.1059878e-38
-0.99581665 2.5810893 0.34368381 1.133791e-38
-0.98907679 2.5814238 0.35668924 1.0691818e-38
-0.98636383 2.5818591 0.36780688 1.0784369e-38
-0.98055631 2.5823777 0.38351402 1.0692174e-38
-0.9761489 2.582999 0.39988768 1.0691815e-38
-0.97166395 2.5833786 0.41161489 1.0691815e-38
-0.96109462 2.583513 0.4243857 1.0876563e-38
-0.95624709 2.5840299 0.43914217 1.0784368e-38
-0.94738227 2.5842702 0.45234975 1.0599976e-38
-0.94334805 2.5847752 0.46609426 1.0507781e-38
-0.9400413 2.5853179 0.47986847 1.0599976e-38
-0.93712097 2.5858798 0.49365848 1.0599618e-38
-0.92454255 2.5858943 0.50601673 1.0599616e-38
-0.91971707 2.5863552 0.51965791 1.0507779e-38
-0.9176048 2.5869989 0.53426725 1.0415943e-38
-0.91115469 2.5873499 0.54732031 1.0507779e-38
-0.9078328 2.5879226 0.56169915 1.0507418e-38
-0.90254354 2.588429 0.57667458 1.0599614e-38
-0.89200014 2.5885472 0.58910531 1.0415222e-38
-0.88741422 2.5890272 0.60289133 1.0415224e-38
-0.88324142 2.589447 0.61509705 9.5861805e-39
-0.875772 2.5898547 0.63024336 1.0877277e-38
-0.86695242 2.5901186 0.64386553 1.0508865e-38
-0.85775459 2.5909801 0.66952944 2.0468908e-38
-1.0306818 2.5816493 0.32116893 1.1799973e-38
-1.0273699 2.5822487 0.33606133 1.0599619e-38
-1.0135577 2.5822368 0.34908348 1.1521941e-38
-1.0148264 2.5830667 0.36408973 1.0692895e-38
-1.0020373 2.5822628 0.36065319 1.1521581e-38
-1.0020102 2.5830305 0.37567985 1.0692174e-38
-0.99565357 2.5834165 0.38932925 1.0692539e-38
-1.000192 2.5844433 0.40504336 1.0324108e-38
-0.9926222 2.5839729 0.40311474 1.0599976e-38
-0.98493701 2.5842774 0.41644052 1.0415587e-38
-0.97661519 2.5845766 0.43027875 1.032411e-38
-0.97040474 2.5849705 0.44393414 1.0231195e-38
-0.96370977 2.5853131 0.45706096 1.0415947e-38
-0.95859683 2.5857546 0.47060174 1.0415945e-38
-0.95461655 2.5863147 0.48536667 1.0508142e-38
-0.94857556 2.586699 0.49867901 1.0507779e-38
-0.94082838 2.5870142 0.51227152 1.032339e-38
-0.9371475 2.5875373 0.52603048 1.0323029e-38
-0.93478805 2.5881281 0.5398435 1.0415224e-38
-0.92747337 2.588465 0.55345362 1.0415222e-38
-0.92182499 2.5888875 0.56713206 1.0415222e-38
-0.91852397 2.5894301 0.58090657 1.0414862e-38
-0.91041672 2.5897126 0.59420741 1.0230472e-38
-0.90550613 2.5901551 0.60756773 1.0599614e-38
-0.90207648 2.5906839 0.62119776 9.6780188e-39
-0.88954735 2.5908349 0.63617831 1.1891434e-38
-0.88556749 2.5913181 0.64944381 7.7422721e-39
-0.88529253 2.5920835 0.66466671 8.3883996e-39
-0.86444849 2.591542 0.67408925 2.0008297e-38
-1.0540218 2.5823531 0.31252038 1.170923e-38
-1.0515615 2.5830119 0.32775781 1.09684e-38
-1.0408833 2.5831184 0.34009382 1.0507424e-38
-1.0343807 2.5834482 0.35278001 1.0599259e-38
-1.0303643 2.5840449 0.36829841 1.0508144e-38
-1.0174 2.584084 0.38150617 1.0600339e-38
-1.0119668 2.5844467 0.39380431 1.0415945e-38
-1.0137141 2.5852854 0.40852967 1.0324108e-38
-1.0024838 2.5854895 0.4232969 1.0324113e-38
-0.99107248 2.5855048 0.43454412 1.0600704e-38
-0.98828363 2.5860569 0.44801202 1.0415591e-38
-0.98333323 2.5865929 0.46324253 1.0507784e-38
-0.97598642 2.5869122 0.47653341 1.0047523e-38
-0.97324324 2.5874414 0.48951292 1.0323391e-38
-0.96240449 2.5876601 0.50418806 1.0231195e-38
-0.95626897 2.5881057 0.51878709 1.0415585e-38
-0.95722014 2.5888791 0.53299123 9.8620541e-39
-0.94918382 2.5883863 0.5310747 1.0692531e-38
-0.94789076 2.5891027 0.54631734 1.0323028e-38
-0.94188976 2.5895061 0.55996495 1.0230831e-38
-0.94010395 2.5900958 0.5732041 1.0231191e-38
-0.93494678 2.5905216 0.58647794 1.0231191e-38
-0.92972541 2.5908833 0.59855849 1.0138994e-38
-0.92129934 2.5912285 0.61339086 1.0047159e-38
-0.91674566 2.5917068 0.62711412 9.9546085e-39
-0.90816522 2.591959 0.64027792 9.4010704e-39
-0.90333796 2.5925243 0.65595978 1.0785824e-38
-0.90126985 2.5931027 0.66925061 1.3367691e-38
-1.0770916 2.583111 0.30519605 1.1524839e-38
-1.0686641 2.5833504 0.31796336 1.1801066e-38
-1.062551 2.5837491 0.33162275 1.0876205e-38
-1.0553169 2.584132 0.34604752 1.0507424e-38
-1.0485687 2.5844567 0.35886961 1.0507065e-38
-1.0423172 2.5848482 0.37252331 1.0323392e-38
-1.0351506 2.585294 0.38811454 1.0323394e-38
-1.0296195 2.5856211 0.39982274 1.0876568e-38
-1.0235022 2.5860195 0.41348195 1.032339e-38
-1.0204527 2.586575 0.42726675 1.0047163e-38
-1.0099382 2.5867145 0.44008127 1.0139001e-38
-1.0052361 2.5872943 0.45593071 1.0231195e-38
-1.0027802 2.5878527 0.46919769 1.0323751e-38
-0.9885217 2.5877345 0.48057687 1.0784731e-38
-0.98839706 2.5884919 0.49550259 1.0323029e-38
-0.98033273 2.5887616 0.50850898 9.9542484e-39
-0.97556007 2.5892251 0.52215475 1.0138638e-38
-0.97094381 2.5898035 0.53789061 9.9542484e-39
-0.96746445 2.5902863 0.55066973 1.0046443e-38
-0.96219498 2.5906732 0.56328702 1.0415582e-38
-0.95875013 2.5912948 0.5787431 1.004716e-38
-0.94724673 2.5913665 0.59118539 1.0139354e-38
-0.94094592 2.5919106 0.60786718 9.7705746e-39
-0.93556875 2.5921917 0.61852658 9.3092377e-39
-0.93052053 2.5926449 0.63222957 1.0322668e-38
-0.92227232 2.5929344 0.6458016 1.2627922e-38
-0.92423701 2.5937793 0.66043603 1.3278704e-38
-0.91383958 2.5939257 0.67327559 1.8346984e-38
-1.0899373 2.5840378 0.31098166 1.1616306e-38
-1.0778773 2.5840256 0.32231471 1.0784009e-38
-1.0742942 2.5845029 0.33508676 1.0323029e-38
-1.0704681 2.585099 0.35040802 1.0414869e-38
-1.0644625 2.5853758 0.36158216 1.0231197e-38
-1.0567487 2.5858197 0.37766564 1.0230837e-38
-1.0515709 2.5862663 0.39136326 1.0323392e-38
-1.0443864 2.5865798 0.40438631 1.013864e-38
-1.0405136 2.5871778 0.41979101 1.0046804e-38
-1.0334722 2.5873959 0.43081394 1.0047161e-38
-1.0288501 2.5879297 0.44568571 1.0138641e-38
-1.0253683 2.5883539 0.45731741 1.0046444e-38
-1.0220103 2.5890777 0.47469011 1.0139358e-38
-1.0100363 2.5891094 0.4868007 1.0507784e-38
-1.0036882 2.5895076 0.50068015 1.0230834e-38
-0.99439842 2.5897436 0.51420939 1.0323753e-38
-0.99680239 2.5906334 0.52929372 9.8624115e-39
-0.9902184 2.5909557 0.54191279 9.7698571e-39
-0.98281491 2.5912855 0.55546409 9.6776601e-39
-0.97755516 2.5917277 0.56915838 9.5861833e-39
-0.97299594 2.592206 0.58288139 9.586542e-39
-0.96831155 2.5926776 0.59659922 9.9549602e-39
-0.95935148 2.5921133 0.59416479 9.9549602e-39
-0.96248972 2.5927463 0.60352719 9.9549602e-39
-0.95696318 2.5928085 0.6100443 1.0323031e-38
-0.95007104 2.5931015 0.62239069 1.0046444e-38
-0.94562674 2.5936999 0.63835287 1.0231907e-38
-0.93475825 2.5944636 0.66371143 1.2818458e-38
-1.1075932 2.5849202 0.31127712 1.2907768e-38
-1.0969739 2.5850906 0.32480365 1.0323395e-38
-1.094136 2.5858874 0.3431012 1.0139001e-38
-1.0809666 2.5858533 0.35507685 1.0138641e-38
-1.0785023 2.586513 0.37033597 9.9546085e-39
-1.0675979 2.5866082 0.38266131 1.0046804e-38
-1.0651109 2.5871925 0.39646912 9.9546099e-39
-1.0604486 2.5876653 0.41018787 1.0046803e-38
-1.0542117 2.5880575 0.42384216 1.0046445e-38
-1.0476048 2.5884311 0.43748134 9.9542484e-39
-1.0433834 2.5889263 0.45121813 9.9542484e-39
-1.0363287 2.5892622 0.46455586 9.954247e-39
-1.0344294 2.5898912 0.47867084 1.0323391e-38
-1.0293885 2.5902948 0.49139896 9.9546085e-39
-1.0151284 2.5903437 0.50603706 1.0046803e-38
-1.0116314 2.5909612 0.52146685 1.0046804e-38
-1.009323 2.5914524 0.53328151 9.8624115e-39
-1.006187 2.5920033 0.54706287 9.954247e-39
-0.99632323 2.5921607 0.55960655 9.9542484e-39
-0.99201238 2.5926735 0.5737704 1.0231195e-38
-0.986839 2.5932114 0.5892427 9.7702144e-39
-0.98141974 2.5935817 0.60168743 9.5854658e-39
-0.97334462 2.5938559 0.61479414 9.3099565e-39
-0.96601659 2.5942163 0.62887621 1.1061669e-38
-0.96037269 2.5946391 0.6425547 9.3095922e-39
-0.95164752 2.5948815 0.65567082 7.744077e-39
-0.95337802 2.5957232 0.67045808 1.1246831e-38
-1.1227306 2.5857296 0.31257382 1.3182917e-38
-1.1139605 2.5856566 0.31956267 1.2352425e-38
-1.1088444 2.5860982 0.33310664 9.8616968e-39
-1.1044984 2.5867555 0.35012576 9.9546085e-39
-1.0971072 2.5869286 0.3606016 9.8624129e-39
-1.0887144 2.5873501 0.37689686 9.8620541e-39
-1.0845207 2.5877459 0.38865849 9.8620527e-39
-1.0785334 2.5881333 0.40197763 9.8624129e-39
-1.0768294 2.588788 0.41641283 9.7702172e-39
-1.0683285 2.589185 0.43233243 9.9538882e-39
-1.0643818 2.5895793 0.44382757 9.7698571e-39
-1.0572144 2.5898676 0.45633587 9.4936331e-39
-1.0513309 2.5902779 0.47000468 9.9546085e-39
-1.0490057 2.5908706 0.4838191 9.401792e-39
-1.039564 2.5912399 0.50010437 1.0046444e-38
-1.0358065 2.5916493 0.51171321 9.7698585e-39
-1.0308189 2.5920854 0.52502018 9.7698571e-39
