# .PCD v0.7 - Point Cloud Data file format
VERSION 0.7
FIELDS x y z rgb
SIZE 4 4 4 4
TYPE F F F F
COUNT 1 1 1 1
WIDTH 1051
HEIGHT 1
VIEWPOINT 0 0 0 1 0 0 0
POINTS 1051
DATA ascii
1.1147436 2.2397861 -0.034101851 3.3179693e-39
1.1239974 2.2394407 -0.033165194 5.2529915e-39
1.1287532 2.239146 -0.035621028 5.9905579e-39
1.1241261 2.2400115 -0.018709738 3.1332151e-39
1.1299416 2.2397714 -0.018695157 6.1749478e-39
1.127992 2.240412 -0.0046443152 4.8849321e-39
1.157637 2.2407169 0.033783596 1.6315395e-38
1.1641673 2.2410061 0.047819868 1.9911755e-38
1.1649913 2.2420843 0.075725406 1.6039533e-38
1.1698329 2.2424488 0.089903347 1.27212e-38
1.0409131 2.2373641 -0.1715259 2.0283179e-39
1.0493839 2.237134 -0.16850705 4.056263e-39
1.0580425 2.2368641 -0.16628781 2.1205121e-39
1.0666434 2.237057 -0.15251507 1.7513708e-39
1.0747535 2.2378228 -0.12488862 2.2130707e-39
1.0782037 2.2382321 -0.1110262 2.4896548e-39
1.0830636 2.2385793 -0.097278327 2.7658801e-39
1.0853754 2.2391176 -0.081368826 2.5814874e-39
1.0860152 2.2395749 -0.069232859 2.7655186e-39
1.0943812 2.2391396 -0.071468271 2.7655186e-39
1.0898664 2.2405665 -0.040355287 2.4892932e-39
1.1308042 2.240346 -0.0033816225 7.0936643e-39
1.1283368 2.2410169 0.010884317 5.0693205e-39
1.1319468 2.2409124 0.012012724 1.2627929e-38
1.1282878 2.2416022 0.025516158 5.438103e-39
1.1309208 2.2415886 0.027913766 6.9125142e-39
1.1294886 2.2421994 0.041749615 4.7931008e-39
1.1361438 2.2419107 0.041415252 6.0816746e-39
1.139769 2.2423253 0.055580772 5.2501146e-39
1.1522034 2.2422583 0.066817388 1.7790545e-38
1.1559849 2.2419293 0.062486641 1.7790545e-38
1.1593395 2.2425232 0.080866531 1.2536449e-38
1.1636277 2.2429023 0.094831273 2.3416974e-38
1.1673892 2.2438221 0.12181496 1.5672896e-38
1.1718276 2.2442155 0.13629037 4.0558917e-39
1.0303404 2.2381513 -0.16275847 3.0424698e-39
1.0381957 2.2378726 -0.1615923 1.4751441e-39
1.0468396 2.237514 -0.16160905 2.1201506e-39
1.0514402 2.2378702 -0.14790156 2.9509916e-39
1.0549845 2.2382939 -0.13359295 2.0279549e-39
1.0601352 2.2386224 -0.11999642 2.1205135e-39
1.0646673 2.2389846 -0.10620834 1.8439224e-39
1.0700328 2.2392859 -0.093076795 2.3974563e-39
1.0683812 2.2399559 -0.077981681 2.2134238e-39
1.0735402 2.2402894 -0.064258106 2.76552e-39
1.0747863 2.2408834 -0.048065647 2.2130665e-39
1.1313323 2.242717 0.056655392 7.9274004e-39
1.129325 2.243372 0.070997261 6.7274069e-39
1.13827 2.2430596 0.072450191 1.3180026e-38
1.1309878 2.2439103 0.086230993 5.3444711e-39
1.1320956 2.2439225 0.087682083 6.4490166e-39
1.1396885 2.2435791 0.086958051 4.6069214e-39
1.1341414 2.2444284 0.10250388 6.1742261e-39
1.1432478 2.2439976 0.10115093 1.3458775e-38
1.155979 2.2438915 0.1117113 1.6594496e-38
1.1607817 2.2443159 0.12734297 1.3368009e-38
1.1677564 2.245369 0.16100439 2.3418045e-38
1.1661425 2.2457402 0.16864507 2.3418045e-38
1.1706275 2.246104 0.18242335 2.3418047e-38
1.0092554 2.2386873 -0.17119718 2.4889373e-39
1.0141865 2.2386596 -0.16677351 2.9502714e-39
1.0273749 2.2385199 -0.15658814 2.4889359e-39
1.0260333 2.2392552 -0.13952903 2.1205135e-39
1.0406247 2.2390976 -0.12833612 2.5811273e-39
1.0439545 2.2395127 -0.11446396 2.1205107e-39
1.0440497 2.2400999 -0.099633768 2.212349e-39
1.049628 2.2403605 -0.08730673 2.397099e-39
1.0555325 2.2406597 -0.073667474 2.121231e-39
1.0599668 2.2410243 -0.059920598 2.4903736e-39
1.0608764 2.241576 -0.045125332 2.121231e-39
1.0645875 2.2419744 -0.031284157 2.1219456e-39
1.0673277 2.2424157 -0.017364066 1.8446427e-39
1.1343549 2.2451229 0.12015144 6.0820305e-39
1.1400054 2.2448092 0.11814401 1.7515731e-38
1.1307832 2.2458088 0.13364948 5.0675156e-39
1.132877 2.2457509 0.1343732 6.0813102e-39
1.1566105 2.2457597 0.15923825 2.3418045e-38
1.159294 2.2454257 0.15364222 2.3418045e-38
1.1592124 2.2461998 0.17298254 1.8991935e-38
1.1654987 2.2464638 0.18612745 2.037523e-38
1.1696583 2.2468505 0.20014697 2.1758163e-38
1.1700313 2.2474046 0.21443425 1.8254726e-38
1.1704465 2.247961 0.22882754 2.323402e-38
0.98580343 2.2396786 -0.17067978 1.5662579e-39
0.99451727 2.2394676 -0.16692926 4.4243252e-39
1.0036938 2.2392015 -0.16407266 3.0417495e-39
1.0197729 2.2397497 -0.13362654 2.0283151e-39
1.0111016 2.2406483 -0.12008348 1.6591696e-39
1.0257714 2.2399182 -0.12316819 2.1205079e-39
1.0286084 2.2403448 -0.10952683 1.6598941e-39
1.0291429 2.2408953 -0.095156848 1.9361222e-39
1.030489 2.2413886 -0.081382446 1.7520883e-39
1.0355257 2.2417254 -0.067701407 2.0293969e-39
1.0396948 2.2420964 -0.054067407 1.7524555e-39
1.0451474 2.2424822 -0.038727097 1.8453657e-39
1.0508435 2.2427456 -0.026206328 2.2145028e-39
1.0522686 2.2432907 -0.011045668 1.8442867e-39
1.1378111 2.2455621 0.13475402 4.05157e-39
1.1238341 2.2468302 0.15206037 4.2381193e-39
1.1352897 2.2462358 0.14904247 6.4497242e-39
1.1370398 2.2462139 0.15030976 6.4493739e-39
1.1326305 2.2467401 0.1589324 5.52597e-39
1.1431661 2.2465179 0.16429175 2.3509527e-38
1.1499469 2.2467787 0.17788364 1.2906652e-38
1.153734 2.2471735 0.19171862 2.0006443e-38
1.1581304 2.2475412 0.20550415 2.0467423e-38
1.161244 2.2479661 0.21939382 2.3417691e-38
1.1637329 2.2483263 0.23101984 1.3459853e-38
1.1632754 2.2490027 0.24751407 1.7058015e-38
1.1688145 2.249301 0.26075047 1.3092525e-38
1.1732332 2.2497303 0.27610984 1.2723738e-38
0.97391748 2.2400565 -0.17354056 2.9499154e-39
0.98215014 2.2401135 -0.16356391 2.0275962e-39
0.99158168 2.2398617 -0.16008829 2.8569967e-39
0.99469483 2.2403591 -0.14437917 2.3045404e-39
1.0002266 2.2406368 -0.13166437 1.6588109e-39
0.99792594 2.2413344 -0.11655152 1.5669726e-39
1.0180892 2.2403405 -0.12055597 2.1201478e-39
1.0092282 2.2413657 -0.10403375 1.2911074e-39
1.0147803 2.2416754 -0.090498917 1.1989131e-39
1.0150582 2.2422454 -0.075908601 1.1989159e-39
1.0155045 2.2427993 -0.061550248 1.1067245e-39
1.0232244 2.2430084 -0.048286702 1.4758658e-39
1.0303212 2.2432554 -0.034720547 1.3836645e-39
1.0366424 2.2434268 -0.023857631 1.475863e-39
1.0401465 2.2438214 -0.010318688 1.7524526e-39
1.1131459 2.2477226 0.16335323 3.6834966e-39
1.1227225 2.2475901 0.16996565 3.5905877e-39
1.1329677 2.2471168 0.16873012 5.3422906e-39
1.1433866 2.2483664 0.21089996 1.1430103e-38
1.1523364 2.2485211 0.22407889 2.000609e-38
1.1503837 2.2490356 0.23495705 1.8623523e-38
1.1578059 2.2493315 0.25008702 1.3460213e-38
1.1597701 2.2498662 0.2655389 8.9404636e-39
1.1662762 2.2501581 0.27961609 1.1061678e-38
1.168107 2.2506027 0.29267222 1.2721922e-38
1.1717567 2.2510071 0.30660403 1.2170553e-38
1.1751313 2.2515666 0.32415491 1.2540422e-38
0.95096093 2.2410722 -0.17189774 1.6580948e-39
0.95875627 2.2407887 -0.17091225 2.948828e-39
0.96852225 2.2404954 -0.16813102 2.3038272e-39
0.97566438 2.2413797 -0.13852938 1.751724e-39
0.98124456 2.2416234 -0.12662418 1.6584493e-39
0.98399055 2.2420986 -0.11185163 1.5666124e-39
0.99052364 2.2423487 -0.098793335 7.3829231e-40
0.98731154 2.2430866 -0.083615899 4.6098796e-40
0.99461603 2.242754 -0.084376946 6.4573935e-40
0.99932671 2.2430871 -0.07113041 4.613523e-40
1.0010068 2.2435939 -0.056663271 9.2197452e-40
1.0078168 2.2438333 -0.043592282 1.3825883e-39
1.0163498 2.2440367 -0.029624233 1.2911102e-39
1.0261382 2.2442112 -0.015088029 1.1985586e-39
1.0315096 2.2444916 -0.0024767842 1.3825883e-39
1.0270051 2.2452526 0.011938187 1.0141659e-39
1.0343438 2.2454886 0.025484752 1.9368397e-39
1.0388359 2.245852 0.039262477 2.120868e-39
1.0912226 2.2486012 0.16262777 3.2243345e-39
1.0973916 2.2483804 0.16350004 3.4079929e-39
1.111408 2.2482035 0.17361319 3.9590059e-39
1.1444463 2.2495661 0.24209511 6.3615097e-39
1.1445051 2.2501147 0.25592855 8.9400824e-39
1.1495779 2.2503884 0.268062 1.0323031e-38
1.1566867 2.2507401 0.28425753 1.3648567e-38
1.1607095 2.2511103 0.29772907 1.078689e-38
1.1646955 2.2515376 0.31258631 1.0879446e-38
1.1643901 2.2520874 0.3260597 1.0878727e-38
1.1688988 2.2524228 0.33916393 1.106384e-38
1.1730416 2.2528825 0.35499224 1.1710294e-38
0.93554282 2.2416878 -0.17245674 2.4878527e-39
0.94894385 2.2416081 -0.160547 2.3960214e-39
0.95994729 2.2410173 -0.16394527 2.5807658e-39
0.95984 2.2416263 -0.14877474 2.0283165e-39
0.96159792 2.2421281 -0.1343565 1.6598885e-39
0.96088058 2.2427549 -0.11937895 1.6588123e-39
0.96520323 2.2431202 -0.10572412 1.2903871e-39
0.97159219 2.2433529 -0.093257621 3.6878953e-40
0.9755007 2.2437756 -0.078591451 4.6098656e-40
0.98072952 2.2439923 -0.067724824 3.6878953e-40
0.9845401 2.2444782 -0.051573575 3.6879373e-40
0.99374336 2.2446399 -0.037969127 1.2903913e-39
1.0009867 2.2448742 -0.024562195 1.3822268e-39
1.0116953 2.2449663 -0.01114199 1.4740623e-39
1.0182375 2.2452321 0.0023202216 1.4740693e-39
1.0193959 2.24575 0.01651779 1.106363e-39
1.022898 2.2461574 0.03037595 1.8446441e-39
1.0260329 2.2465811 0.044263963 1.8450042e-39
1.0298923 2.247045 0.059909061 3.4112495e-39
1.1443832 2.2514122 0.28835115 6.7266558e-39
1.1475015 2.2518954 0.30370942 8.3869072e-39
1.1537684 2.2521281 0.31605959 9.6780062e-39
1.1566464 2.2525828 0.33045658 1.0602139e-38
1.1580135 2.2530935 0.3446818 1.0509937e-38
1.1621692 2.2534719 0.35848692 1.0326625e-38
1.166832 2.2537935 0.37139866 1.1892885e-38
1.1649547 2.2544148 0.38504183 1.1797445e-38
1.1724687 2.2546928 0.39981472 1.152374e-38
0.91592717 2.2424505 -0.17369178 8.2725094e-40
0.92284608 2.2423244 -0.16967532 2.3956542e-39
0.92897928 2.2426417 -0.15534687 1.7502904e-39
0.94216442 2.2425606 -0.1436853 2.5804084e-39
0.93272769 2.2436502 -0.12615274 2.2130665e-39
0.94567961 2.2429881 -0.12930916 1.6588095e-39
0.94806278 2.2434537 -0.115153 1.6591724e-39
0.95315635 2.2437904 -0.1014241 1.3825841e-39
0.9558509 2.2442338 -0.087500364 7.3757485e-40
0.95863658 2.2446733 -0.07358402 5.5282345e-40
0.96415406 2.2449906 -0.059889518 3.6879093e-40
0.97267026 2.2452345 -0.044930693 8.2868727e-40
0.98056096 2.2453859 -0.032936931 1.2896626e-39
0.98709702 2.2456582 -0.019325186 1.9350348e-39
0.99393964 2.2458508 -0.0073809163 2.7648011e-39
1.0026647 2.2460909 0.0076956875 1.5662635e-39
1.0015132 2.2467446 0.022906514 1.1067217e-39
1.0062944 2.2470872 0.036459487 1.38331e-39
1.0144871 2.2472544 0.049163219 1.8446441e-39
1.0185343 2.2477543 0.065912709 2.0283207e-39
1.0186788 2.2481947 0.077108048 1.0141729e-39
1.1282347 2.2528927 0.30872703 3.3139854e-39
1.144923 2.2533011 0.33630565 9.0315564e-39
1.136724 2.2542734 0.35218161 4.2341354e-39
1.1467785 2.2537527 0.34955585 1.1797079e-38
1.1543366 2.2538869 0.36077717 1.2537894e-38
1.1592822 2.2543559 0.37766841 1.0878005e-38
1.1608772 2.2548146 0.3908385 1.0785805e-38
1.1643676 2.2552228 0.40469772 1.1062039e-38
1.1642256 2.255779 0.41850677 1.2259499e-38
1.1652883 2.2563469 0.43386361 1.3090707e-38
0.90449697 2.24317 -0.16750632 1.3811478e-39
0.91357166 2.242877 -0.16543622 1.473342e-39
0.91554821 2.2434042 -0.15015745 1.7506506e-39
0.92191029 2.2436898 -0.13639091 2.0286738e-39
0.92417902 2.2441139 -0.12339418 2.2130665e-39
0.93160075 2.2443776 -0.10907394 1.3840261e-39
0.93434274 2.2448213 -0.095093593 1.3829429e-39
0.93847305 2.2452009 -0.081274979 7.3793498e-40
0.94485211 2.2454455 -0.068519548 1.1059972e-39
0.95079696 2.245717 -0.055533882 1.0141589e-39
0.95446986 2.2461491 -0.04088458 9.2159897e-40
0.96554476 2.2462106 -0.027836518 1.1056315e-39
0.97314119 2.2464387 -0.01423006 1.2893025e-39
0.98166746 2.2466042 -0.0012251531 2.9488322e-39
0.98670965 2.2469127 0.011754737 1.6584535e-39
0.98907495 2.2474189 0.026903648 1.0145275e-39
0.99356854 2.247782 0.040681276 1.19856e-39
1.0012275 2.247987 0.053778149 6.4682256e-40
1.0055315 2.2483642 0.067713827 9.2341365e-40
1.0027754 2.2490799 0.082807861 7.3829932e-40
1.0053591 2.2495384 0.096993066 1.1063602e-39
1.0389721 2.250741 0.16205791 1.936474e-39
1.1154885 2.2536159 0.31363106 2.0239809e-39
1.121158 2.253926 0.32730353 2.2083665e-39
1.1263911 2.2542315 0.34039944 3.221431e-39
1.1268356 2.2548006 0.3551372 4.2341354e-39
1.1338058 2.2550142 0.36773732 4.4196099e-39
1.1550233 2.2551956 0.39431614 1.1983277e-38
1.1531379 2.2558367 0.40844548 1.1429373e-38
1.1572729 2.2562609 0.42337817 1.1615219e-38
1.1622317 2.2566032 0.43711793 1.1154589e-38
1.1648377 2.2570283 0.45049176 1.0878719e-38
1.1654624 2.2575324 0.46378127 1.0874404e-38
1.1695764 2.2579668 0.47894928 1.0877285e-38
1.1716658 2.2584755 0.49388671 1.2907043e-38
0.88506311 2.2441566 -0.16293314 8.2869008e-40
0.89274842 2.2439401 -0.16038676 6.4502049e-40
0.903216 2.2440798 -0.14601524 1.3829471e-39
0.9060688 2.2445161 -0.13210434 1.9368383e-39
0.91018176 2.2448962 -0.11829582 2.2134266e-39
0.91681194 2.2451642 -0.10469171 1.2918262e-39
0.9199723 2.2455869 -0.090805747 1.291106e-39
0.92578536 2.2458911 -0.077135302 6.4609808e-40
0.92014354 2.2467811 -0.060666867 1.1067133e-39
0.92954016 2.2462873 -0.063297689 1.0145177e-39
0.93258119 2.2467153 -0.049402028 7.3757345e-40
0.93797696 2.2470381 -0.035697691 1.1989047e-39
0.94613403 2.2472157 -0.022773793 1.3825757e-39
0.95892352 2.2472563 -0.0084832981 2.3038174e-39
0.96265376 2.2476449 0.0051439977 3.4094516e-39
0.96757352 2.2479377 0.017601728 1.8432035e-39
0.973149 2.248348 0.033683438 1.0138058e-39
0.97627598 2.2487328 0.046582691 1.1974768e-39
0.98128325 2.2489746 0.057843879 5.5390666e-40
0.9874531 2.2493107 0.07268694 8.2869428e-40
0.98932707 2.2498202 0.087415084 1.6566585e-39
0.99242353 2.2502458 0.1013062 1.2896696e-39
0.99761671 2.2505779 0.11502698 8.3012921e-40
1.0029807 2.2509022 0.12873393 5.5318499e-40
1.0239825 2.2514927 0.16535547 2.3963633e-39
1.0321352 2.2513044 0.16909656 3.5012619e-39
1.1062244 2.2547507 0.33248761 1.3793331e-39
1.1087345 2.2552025 0.34642631 2.3002034e-39
1.1128123 2.2556958 0.36303937 2.3923976e-39
1.1168679 2.2559385 0.37333897 2.1172527e-39
1.1209129 2.2563286 0.3873294 2.4849576e-39
1.1302493 2.2560413 0.38981086 4.3266912e-39
1.1250219 2.2567446 0.40202761 3.7742405e-39
1.1299478 2.2565403 0.40201324 4.0501057e-39
1.1171658 2.2577116 0.41813433 1.103828e-39
1.1290679 2.2571189 0.41561973 2.3923976e-39
1.132846 2.2569969 0.4164809 4.3263282e-39
1.1255156 2.2578526 0.43033659 1.5640817e-39
1.1291866 2.2577367 0.43124235 3.6816861e-39
1.1360465 2.257436 0.43082285 5.2475601e-39
1.1463954 2.2568049 0.42573479 1.2996344e-38
1.1489697 2.2573528 0.44215661 1.0412703e-38
1.1546216 2.2576647 0.4558402 1.3089637e-38
1.1583091 2.2580636 0.46968335 1.0692175e-38
1.163771 2.2583458 0.48243609 1.2076195e-38
1.1658436 2.2588549 0.49735656 1.124896e-38
1.1695037 2.2593474 0.51351899 1.2356388e-38
1.1687282 2.2598536 0.52540755 1.2356388e-38
0.86490202 2.2450862 -0.16054888 2.3045404e-39
0.87323231 2.2450202 -0.15355003 1.3829429e-39
0.88707078 2.2449331 -0.1413721 1.2925493e-39
0.89158994 2.2453632 -0.12588958 1.3843834e-39
0.89508033 2.2457397 -0.11281705 1.6609689e-39
0.89946789 2.2461138 -0.098879099 1.4762175e-39
0.9046216 2.2464054 -0.086211838 1.1081524e-39
0.90900487 2.2467616 -0.072718516 9.230409e-40
0.91032124 2.2473028 -0.05777511 1.1067133e-39
0.90947509 2.2479398 -0.042668831 8.3084527e-40
0.92426234 2.2471671 -0.04670646 7.3900838e-40
0.92454737 2.2478244 -0.029920299 1.3825757e-39
0.93466896 2.2480397 -0.0140055 2.3045348e-39
0.94572926 2.2479777 -0.0040805335 4.5168754e-39
0.94654882 2.2485046 0.0099955034 3.4090929e-39
0.95161933 2.2488422 0.023726299 1.2885962e-39
0.95156938 2.2494423 0.038728729 2.2083903e-39
0.9561522 2.249794 0.052309018 1.4733392e-39
0.964477 2.2499595 0.065109767 1.2893109e-39
0.96648675 2.2504554 0.079634517 1.3811464e-39
0.97352272 2.2506833 0.092660353 2.0243592e-39
0.97973347 2.2515585 0.12106503 7.3793778e-40
0.98437268 2.2519195 0.13493434 3.6879373e-40
0.99739647 2.2524366 0.16143435 7.3757625e-40
1.0030934 2.2523649 0.16554777 2.4874785e-39
1.0120244 2.2521708 0.16995223 3.4090733e-39
1.0203366 2.2519832 0.17387991 3.9607967e-39
1.0964164 2.2559099 0.35138842 2.2076448e-39
1.1000152 2.2562339 0.3632488 2.1172457e-39
1.0992513 2.2569108 0.37944332 1.8413833e-39
1.1025612 2.2574346 0.39602005 1.0123513e-39
1.1074175 2.2576458 0.40636298 9.2051576e-40
1.1088744 2.2581725 0.42108962 1.103828e-39
1.1115584 2.2586164 0.43501428 1.5640817e-39
1.1198765 2.2587843 0.44786173 2.0228976e-39
1.1300132 2.2583134 0.44657075 4.4174463e-39
1.1340076 2.258178 0.44732273 5.7085396e-39
1.1299294 2.2588935 0.46103564 4.1408594e-39
1.1383709 2.258563 0.46150795 7.8308454e-39
1.124907 2.2597618 0.47760513 1.2874934e-39
1.1314316 2.2594805 0.47732517 2.9441225e-39
1.1476396 2.2586977 0.47451141 1.0966958e-38
1.1532078 2.2590129 0.48820192 1.1706338e-38
1.1592189 2.2593129 0.50196981 1.0967674e-38
1.1600436 2.2598355 0.51593179 1.0694329e-38
1.1643233 2.2602804 0.53153831 1.1615216e-38
1.1638629 2.2607923 0.54390699 1.2538254e-38
1.1647514 2.2613163 0.55797726 1.1154957e-38
0.83312559 2.2446768 -0.20381261 1.2885808e-39
0.83273393 2.2450716 -0.19431281 2.6697062e-39
0.83643037 2.2457087 -0.17448947 1.9325055e-39
0.85328525 2.2459552 -0.15081015 2.397092e-39
0.86093533 2.2457802 -0.14724746 2.0290325e-39
0.87078631 2.2458427 -0.13545816 1.3851051e-39
0.87564033 2.2461896 -0.1217098 1.6609703e-39
0.87885922 2.2466099 -0.10782864 1.6609689e-39
0.88009375 2.247149 -0.093020059 1.476579e-39
0.88563031 2.2473745 -0.081611328 1.2003509e-39
0.89080209 2.2477474 -0.066887476 1.1081552e-39
0.90024185 2.2478375 -0.054827977 1.0163169e-39
0.89930075 2.2485909 -0.036901943 1.1067105e-39
0.90749967 2.2487142 -0.025299205 1.4744126e-39
0.9132275 2.2487109 -0.019433362 2.5789623e-39
0.92226642 2.2486999 -0.010323171 3.3172476e-39
0.93286961 2.2487094 0.00092548592 3.1342969e-39
0.93439543 2.2492051 0.014944157 2.8541241e-39
0.936764 2.2496681 0.029023867 2.3913453e-39
0.93952465 2.2501035 0.042812794 3.2196654e-39
0.9439348 2.2504706 0.056597169 1.9335943e-39
0.95227593 2.250628 0.069211669 1.3840233e-39
0.95059252 2.2513008 0.08434166 1.1978355e-39
0.96128154 2.2513502 0.096679494 1.3815107e-39
0.9599188 2.2520123 0.11186935 1.01381e-39
0.96444154 2.2523739 0.12564465 6.4610369e-40
0.9810819 2.2531488 0.16236076 1.0145177e-39
0.98971009 2.2529387 0.16604799 2.118696e-39
0.9995119 2.2528052 0.17287955 3.5927373e-39
1.0838773 2.2565939 0.35552746 3.8671466e-39
1.0801438 2.2573593 0.37085581 3.0374013e-39
1.0839908 2.2577686 0.38512078 2.1168939e-39
1.0888816 2.2581043 0.3986173 1.9328642e-39
1.0927032 2.2583745 0.40936244 2.1168967e-39
1.0964123 2.2588866 0.4260633 2.0257773e-39
1.0986688 2.2593496 0.44002268 1.4722462e-39
1.1348766 2.2593777 0.47832468 5.6159825e-39
1.1296732 2.2602425 0.49461678 5.1568064e-39
1.1339035 2.2599297 0.49115911 5.4330331e-39
1.1229469 2.2610109 0.50690603 2.21017e-39
1.153862 2.2608325 0.53453815 9.6776545e-39
1.1556619 2.2613523 0.54944074 9.6769314e-39
1.1548811 2.2619505 0.56364173 8.660606e-39
1.1605605 2.2622492 0.57703006 8.3858296e-39
1.1644342 2.2626476 0.59104818 8.479463e-39
1.1698095 2.2629023 0.60301417 1.0508498e-38
1.1684591 2.2635403 0.617625 9.1244737e-39
0.82565969 2.2452393 -0.19745252 2.6704223e-39
0.82269192 2.2458959 -0.18406019 4.3284876e-39
0.83192509 2.2460434 -0.17076807 1.5640873e-39
0.83672082 2.2463934 -0.15701498 1.196381e-39
0.83513802 2.2470276 -0.14274508 2.9480937e-39
0.84401941 2.2466342 -0.14339182 2.4885645e-39
0.85114658 2.2462566 -0.14546473 2.028671e-39
0.85402179 2.2467825 -0.12928222 1.5673327e-39
0.85989332 2.2469645 -0.11862924 1.8449986e-39
0.86625671 2.2472959 -0.1037064 1.6602514e-39
0.86422747 2.2479844 -0.088536069 1.4762203e-39
0.86850506 2.2483571 -0.074740849 1.0163211e-39
0.87007737 2.2488675 -0.060306292 8.3156975e-40
0.87559944 2.2491689 -0.04701452 6.4681835e-40
0.88238317 2.2494292 -0.033440229 9.2268077e-40
0.89225578 2.2495222 -0.020850582 1.4740511e-39
0.90418905 2.2495174 -0.0085790586 2.4871282e-39
0.9160831 2.2495208 0.0038503951 3.5934786e-39
0.92033976 2.250035 0.02117238 2.4846171e-39
0.91606885 2.2507741 0.035281681 1.6559354e-39
0.92116743 2.2511086 0.048968367 2.1172709e-39
0.92695284 2.251399 0.062263843 1.4754958e-39
0.93084872 2.2517865 0.076022491 1.1059986e-39
0.93583715 2.2520857 0.088713467 5.5354793e-40
0.9426986 2.2523746 0.103087 1.1982013e-39
0.94763064 2.2527182 0.11682904 9.2269058e-40
0.9499383 2.2531168 0.12922321 1.6598899e-39
0.96968216 2.2538707 0.16863857 2.2116161e-39
0.97561455 2.2537603 0.17202601 3.5931002e-39
0.98672557 2.2534182 0.17498256 3.222517e-39
1.0598792 2.257278 0.34777215 4.7880239e-39
1.0644249 2.2576416 0.36161259 5.0638947e-39
1.0647006 2.2582047 0.37603009 3.0366838e-39
1.0688628 2.2585828 0.3898347 2.4849534e-39
1.0686575 2.2591901 0.40485939 3.1299585e-39
1.0759091 2.2593958 0.41754746 3.2221569e-39
1.0797899 2.2598891 0.43395647 3.4987396e-39
1.0846915 2.2601142 0.44469166 3.4069027e-39
1.109706 2.2618334 0.51380092 2.7647885e-39
1.1155807 2.2617555 0.51793796 3.040288e-39
1.124586 2.2612374 0.51429451 2.9459245e-39
1.1312861 2.2609675 0.51447773 5.3404746e-39
1.1436753 2.2620091 0.55346972 8.569858e-39
1.1498446 2.2622974 0.56711113 9.0326452e-39
1.1547601 2.2626417 0.58085465 8.6645787e-39
1.1593245 2.2630017 0.59462649 9.2184686e-39
1.1617408 2.263494 0.60948533 9.3106726e-39
1.1614569 2.2640698 0.62363368 8.5713041e-39
1.1684843 2.2642841 0.63631034 8.8486099e-39
1.1710907 2.2647314 0.6502412 8.9408055e-39
0.81024861 2.2459874 -0.19468497 6.7233978e-39
0.80974293 2.2472615 -0.16324478 5.1578798e-39
0.81292021 2.2469883 -0.16679768 4.6054347e-39
0.8210814 2.2466855 -0.1659258 2.8533744e-39
0.82658184 2.2470112 -0.15204282 2.6707852e-39
0.84142566 2.2474687 -0.12515038 1.7510023e-39
0.84290791 2.2479663 -0.11112812 1.936118e-39
0.84408271 2.2485068 -0.09634202 1.7517254e-39
0.85021365 2.2487369 -0.084211983 1.0156023e-39
0.85607821 2.2490346 -0.070648849 4.6314736e-40
0.85752171 2.2495689 -0.055744663 5.5462412e-40
0.86092907 2.2499804 -0.041878846 3.6987133e-40
0.86813545 2.2502224 -0.028328557 1.1052714e-39
0.88034523 2.2501764 -0.016808337 1.4733308e-39
0.89278901 2.2502556 -0.0018976757 3.8707815e-39
0.90112609 2.2510755 0.027328286 1.3807863e-39
0.90385514 2.2514474 0.039490413 1.1045623e-39
0.90696597 2.2518723 0.053380337 1.3815093e-39
0.9102543 2.2522891 0.067255847 1.1052798e-39
0.91525066 2.25263 0.080992647 1.1049224e-39
0.9110024 2.2534606 0.097419903 1.6570116e-39
0.92045766 2.2529614 0.094712347 1.0127282e-39
0.920322 2.2535667 0.10976209 1.2900312e-39
0.9330917 2.2529023 0.10634384 1.1981971e-39
0.93387949 2.2534678 0.12135226 1.2911088e-39
0.94621056 2.2547011 0.1651032 1.2907402e-39
0.95772445 2.254549 0.17323616 3.0402866e-39
0.96574646 2.2542834 0.17490397 3.2243135e-39
1.0376797 2.2578773 0.33975849 3.4040244e-39
1.0421882 2.2583659 0.35669976 3.1281606e-39
1.0452971 2.2586458 0.3669464 3.4973005e-39
1.0504024 2.2589672 0.38030747 4.3259737e-39
1.0538511 2.2594087 0.39496613 4.0501057e-39
1.054086 2.2599638 0.40913904 3.4983752e-39
1.064784 2.2600121 0.42145923 4.0515504e-39
1.059811 2.2608511 0.43734631 3.2210709e-39
1.0648087 2.2611775 0.45072246 2.5767861e-39
1.0693046 2.2615426 0.46455398 1.0109093e-39
1.0917889 2.2622275 0.50507921 2.0279479e-39
1.098544 2.2624896 0.51866895 4.516867e-39
1.1049603 2.2625387 0.52656198 4.3331834e-39
1.1140114 2.2623589 0.53144842 3.6849231e-39
1.118209 2.2627485 0.545578 3.49945e-39
1.1315477 2.2620695 0.54239583 4.5110712e-39
1.123014 2.2630978 0.55933458 4.0515462e-39
1.1355392 2.2624629 0.55640924 5.0646093e-39
1.1263319 2.2635241 0.57347602 3.5898492e-39
1.134486 2.2631052 0.57143056 4.695831e-39
1.1288691 2.2640016 0.58809364 3.5902051e-39
1.1515861 2.2640686 0.61335909 1.0048243e-38
1.1570847 2.2643871 0.62705511 8.7567744e-39
1.1605741 2.2648654 0.64268017 8.8482483e-39
1.1604534 2.2653837 0.65555888 8.1096001e-39
0.81096959 2.2478671 -0.1467745 4.9738556e-39
0.80811745 2.2485356 -0.13296671 5.2500824e-39
0.81026918 2.2484848 -0.13200575 5.5263092e-39
0.81986409 2.2480202 -0.13370201 2.7626235e-39
0.81046289 2.2490251 -0.11825178 5.433752e-39
0.81404585 2.2488906 -0.11790323 5.0656841e-39
0.82443893 2.2483752 -0.12004339 2.5793168e-39
0.82955271 2.2487111 -0.1063067 2.3949284e-39
0.83086926 2.2492249 -0.092046134 2.0279479e-39
0.83517128 2.2495968 -0.078252949 1.4751357e-39
0.84034139 2.2499297 -0.064530253 8.3120681e-40
0.84492105 2.2502892 -0.050759617 5.5462272e-40
0.84573603 2.2508163 -0.036683213 4.6170402e-40
0.85461313 2.2510359 -0.021961588 2.3009321e-39
0.86991113 2.2508767 -0.010072654 3.2228884e-39
0.88589352 2.2512546 0.016003529 3.5005655e-39
0.88536084 2.2518671 0.030811442 1.1056371e-39
0.8847242 2.2524958 0.045930877 8.2904881e-40
0.89113897 2.2526958 0.057610694 9.2088851e-40
0.89501053 2.2530482 0.070464224 1.0130799e-39
0.89987785 2.2533827 0.083916202 1.288948e-39
0.90125489 2.2539761 0.10023364 1.6570116e-39
0.90552098 2.2543495 0.1140297 1.4737008e-39
0.91460919 2.254488 0.12693714 1.0141631e-39
0.93678623 2.2554173 0.17328046 2.7636997e-39
0.94497508 2.2551649 0.17545033 3.592017e-39
1.0301973 2.2588966 0.35755938 2.8515793e-39
1.0289665 2.2595515 0.372713 2.9441267e-39
1.0330606 2.2599325 0.38652304 4.1430188e-39
1.0347092 2.2604089 0.40018195 4.2348585e-39
1.0406898 2.2606857 0.41334262 3.8664389e-39
1.0435847 2.2611365 0.42765632 3.1285151e-39
1.0443432 2.2616837 0.44217712 2.8522884e-39
1.0660841 2.2630844 0.4998869 2.0283053e-39
1.0742201 2.2631693 0.51046348 1.9364712e-39
1.0840409 2.2632172 0.5218659 4.5175845e-39
1.0924599 2.2631743 0.52952564 4.6086913e-39
1.0975298 2.2632565 0.53685552 3.5945366e-39
1.1053671 2.2634706 0.55036163 2.4878289e-39
1.1093756 2.2638552 0.56417865 3.1306773e-39
1.1114963 2.2643244 0.57814896 3.5898492e-39
1.1131557 2.2647276 0.58998972 2.0254144e-39
1.11568 2.2652047 0.60457516 2.1183275e-39
1.1249917 2.264832 0.60489571 3.8667934e-39
1.1371697 2.2649069 0.61941624 5.9869272e-39
1.1479309 2.2655172 0.64590275 8.7560513e-39
1.1651783 2.2675331 0.71438813 6.6362749e-39
1.1641707 2.2681165 0.72797871 7.9252214e-39
1.1682467 2.2685788 0.74380994 9.1241248e-39
1.1736473 2.2688792 0.75695497 1.069652e-38
0.81468058 2.2494786 -0.10249502 6.1709527e-39
0.81095123 2.2502224 -0.087704584 6.0801948e-39
0.81754774 2.2499371 -0.088014595 4.4206875e-39
0.81193209 2.2507966 -0.072281033 5.8943658e-39
0.82193124 2.2503078 -0.074164182 3.7753251e-39
0.81343138 2.251328 -0.057391331 4.973134e-39
0.82304859 2.2507935 -0.060815599 2.5789497e-39
0.82685429 2.2512877 -0.044466991 2.9477294e-39
0.83416408 2.2514908 -0.031781841 1.10527e-39
0.84308767 2.2516453 -0.018636495 1.932867e-39
0.85439569 2.2517359 -0.0046275435 3.7728238e-39
0.86094415 2.2518904 0.0060503297 4.6976611e-39
0.86600351 2.2523777 0.023532404 1.7499261e-39
0.87041533 2.2526689 0.035413083 1.1045609e-39
0.87060469 2.253247 0.050114166 6.4501908e-40
0.87141466 2.2537923 0.064634517 6.4429742e-40
0.87488896 2.2542171 0.078901634 1.0123583e-39
0.88104445 2.2544234 0.090471596 1.3807807e-39
0.88971436 2.2551823 0.11851098 1.288585e-39
0.89689618 2.255456 0.13283436 6.4466035e-40
0.91501647 2.2563863 0.17498745 2.1190561e-39
0.92530668 2.2561331 0.17931749 3.2228702e-39
0.93312472 2.2558515 0.18037115 4.9731452e-39
1.0039924 2.2597153 0.35089234 4.878416e-39
1.0097632 2.2600965 0.36644924 4.0504686e-39
1.0014172 2.2610054 0.38058043 3.7724454e-39
1.0134869 2.2603846 0.37754267 4.1430216e-39
1.0107198 2.2611067 0.39278656 4.1430328e-39
1.022863 2.260484 0.38977167 4.51253e-39
1.0155512 2.2614324 0.40597367 3.8664389e-39
1.01946 2.2618403 0.42027083 3.6813274e-39
1.0249535 2.2621806 0.43450385 2.9441253e-39
1.0296892 2.2624815 0.44697177 2.7600941e-39
1.058455 2.2639115 0.51271492 5.6242908e-39
1.0656908 2.2638059 0.51758265 5.0711142e-39
1.0741173 2.2638955 0.52857608 4.5183061e-39
1.0843021 2.2640312 0.54255575 4.7005338e-39
1.0922911 2.2642119 0.55538511 3.5941764e-39
1.0909809 2.2648666 0.57045346 3.5945394e-39
1.0971148 2.265074 0.58202374 3.7792893e-39
1.0987104 2.2656164 0.59729159 3.1328381e-39
1.1036603 2.2659595 0.61103207 2.2112434e-39
1.1116364 2.2661378 0.62379044 2.1179645e-39
1.1224148 2.2656252 0.62211949 3.4983724e-39
1.1156392 2.266614 0.63989168 2.3012726e-39
1.1258085 2.266053 0.63638127 3.590924e-39
1.1183742 2.2670116 0.65271115 2.0243298e-39
1.1268587 2.2665691 0.65041929 4.2352144e-39
1.1526695 2.2677228 0.70616311 6.1745723e-39
1.1533996 2.2682838 0.72099179 6.8185025e-39
1.1588731 2.2685955 0.73449695 9.1244877e-39
1.1631781 2.2689404 0.74762416 1.1157499e-38
0.81152165 2.2522128 -0.037176177 5.5252246e-39
0.81134284 2.2526984 -0.025179617 5.2500824e-39
0.81994182 2.2522328 -0.027935287 3.03776e-39
0.8323611 2.2523308 -0.012579106 3.0356174e-39
0.84830838 2.253412 0.031104583 1.3818625e-39
0.85322964 2.2535803 0.040442828 8.2940614e-40
0.85725427 2.2539737 0.054486327 7.3649445e-40
0.85790062 2.2545354 0.069250137 7.3613151e-40
0.86315376 2.2548647 0.082966112 1.0116394e-39
0.86490965 2.2553501 0.096966036 1.3793429e-39
0.86819059 2.2557673 0.11084224 1.5626566e-39
0.88419276 2.2561431 0.13688523 1.3825841e-39
0.90657437 2.2571747 0.18600295 1.8417546e-39
0.91319948 2.2570817 0.19054802 3.5920156e-39
0.98380005 2.2601917 0.34187669 5.3393928e-39
0.98784387 2.2605751 0.35569087 5.7081683e-39
0.98963928 2.2611651 0.37236422 4.2334179e-39
0.99231362 2.2615027 0.38361302 3.7724454e-39
0.99619055 2.2618935 0.39744079 3.7738957e-39
1.00019 2.2622788 0.41125846 4.0504714e-39
1.0010275 2.2628016 0.42524716 4.8798565e-39
1.0062983 2.2631197 0.43870029 3.9586219e-39
1.0093704 2.263494 0.45127931 3.0363195e-39
1.0342993 2.264745 0.50854766 4.0562434e-39
1.0480433 2.2646537 0.52052552 6.8217437e-39
1.0596991 2.2647057 0.53393197 6.0834626e-39
1.0635267 2.2651107 0.54807204 4.9771193e-39
1.0686926 2.2654333 0.56152856 4.793091e-39
1.0791065 2.2649148 0.5593254 4.5168642e-39
1.0664551 2.2660928 0.57574636 5.2533474e-39
1.0765618 2.2655897 0.5736236 4.7012541e-39
1.077733 2.2661362 0.58854723 4.7923665e-39
1.0824691 2.2664895 0.60232836 4.700524e-39
1.0880623 2.2667797 0.61541361 3.6852902e-39
1.0877134 2.2673926 0.63043159 3.868964e-39
1.0965205 2.266932 0.62801743 3.868964e-39
1.0966922 2.2675312 0.64322716 3.5012619e-39
1.1012721 2.267899 0.65721935 1.8421035e-39
1.1226152 2.2692647 0.71363658 2.3949186e-39
1.1302868 2.2689168 0.71287996 3.1303088e-39
1.1200855 2.2699389 0.72792858 2.0261389e-39
1.1252664 2.2697356 0.72820681 2.6700579e-39
1.1520931 2.2695644 0.75176162 6.6351847e-39
1.163721 2.2708139 0.79518706 8.5756355e-39
0.81097937 2.2533443 -0.00935663 6.1709569e-39
0.81519258 2.2532454 -0.0074610231 5.0638947e-39
0.82260215 2.253088 -0.0037179312 3.6795449e-39
0.80887401 2.2539878 0.0046033957 6.6312148e-39
0.83565694 2.2539501 0.031471647 1.5648132e-39
0.83664107 2.2545147 0.04665317 9.2052417e-40
0.83973086 2.2549405 0.060544863 9.208829e-40
0.84598321 2.2552252 0.074179649 1.0120009e-39
0.84927917 2.2556419 0.088054501 1.5626538e-39
0.85130435 2.2561152 0.10203263 2.1136682e-39
0.85257 2.256654 0.11686316 1.4704581e-39
0.86065865 2.2568252 0.12955807 1.2882277e-39
0.86420906 2.2571306 0.14090686 2.0265158e-39
0.89524686 2.2580247 0.19556755 1.1978341e-39
0.90250677 2.2577009 0.19498186 1.4736994e-39
0.89687002 2.2587111 0.21446972 1.3811366e-39
0.90321767 2.2583687 0.21247932 2.9462917e-39
0.907098 2.2580814 0.20929916 3.0384831e-39
0.89559412 2.259254 0.22676705 1.5651719e-39
0.90323555 2.258908 0.22602282 3.315077e-39
0.97473663 2.2612941 0.36012614 5.798573e-39
0.97544819 2.2618496 0.37480181 4.4163645e-39
0.97815126 2.2622929 0.38872489 4.2334306e-39
0.97947216 2.2628083 0.40303189 4.0501113e-39
0.98403805 2.2631679 0.41678873 4.7876665e-39
0.98801345 2.2634282 0.42745152 5.4323073e-39
0.98942941 2.2640443 0.44437927 4.6025536e-39
1.0169796 2.2655845 0.51162547 4.0551672e-39
1.025949 2.26577 0.52558881 6.6369951e-39
1.0348923 2.2654545 0.52696848 6.9132177e-39
1.039198 2.2658002 0.54010642 6.6362735e-39
1.0447998 2.2660713 0.55272132 6.6359147e-39
1.0507647 2.2663491 0.56588721 6.267498e-39
1.0494004 2.2670052 0.58093446 5.8058009e-39
1.0591618 2.267112 0.59374428 4.7923651e-39
1.0638785 2.2674599 0.60737294 5.6214027e-39
1.067917 2.2679045 0.62272161 3.6845728e-39
1.0729969 2.2682505 0.63667327 2.7637011e-39
1.0760849 2.2686548 0.65002781 2.4874771e-39
1.1290182 2.2696152 0.72907901 4.4203259e-39
1.1253161 2.2704825 0.74699473 3.5905709e-39
1.1312804 2.2701356 0.74448156 5.987646e-39
1.1309862 2.2707505 0.75960505 4.7876749e-39
1.1583593 2.2722886 0.82661372 7.4689194e-39
1.1651893 2.2725925 0.84133291 8.7604051e-39
1.1637037 2.2731791 0.85450292 1.0698332e-38
0.81029469 2.2541053 0.0090310872 5.7096256e-39
0.80920541 2.2546964 0.022724403 6.4468193e-39
0.81457371 2.2544823 0.022924805 4.3284904e-39
0.80988675 2.2553692 0.040311471 5.7107004e-39
0.815359 2.255054 0.038086519 4.4199714e-39
0.80964065 2.2559204 0.053887375 7.092909e-39
0.82032633 2.2554085 0.052141678 4.5121712e-39
0.82647932 2.2556896 0.065582752 1.0116408e-39
0.83210725 2.2560022 0.079268202 1.4708197e-39
0.83696783 2.2563488 0.093016043 2.2976979e-39
0.83915108 2.256896 0.10900676 1.8378015e-39
0.84209502 2.2572589 0.12116417 1.5633698e-39
0.85016614 2.2574122 0.13338846 1.2900284e-39
0.84891093 2.2580709 0.14861645 1.4737036e-39
0.90714967 2.2587781 0.22682755 3.6831294e-39
0.89640808 2.2598317 0.24210079 3.1317633e-39
0.90186709 2.2596121 0.24226351 3.5905695e-39
0.90842628 2.2593288 0.241969 4.8798608e-39
0.89522803 2.260498 0.25760299 4.4210574e-39
0.9030084 2.2601743 0.25755161 5.2472013e-39
0.90868568 2.2598145 0.2544255 5.3390382e-39
0.89692903 2.2610507 0.27322823 3.4983851e-39
0.90284956 2.2608044 0.27319902 3.9582688e-39
0.90682143 2.261199 0.28722045 4.6025578e-39
0.94709533 2.2615817 0.33863837 5.0599304e-39
0.94849211 2.2621219 0.35364449 5.0592171e-39
0.9542284 2.2624099 0.36683029 4.9684578e-39
0.95853996 2.2626536 0.37741691 5.245765e-39
0.96491426 2.2630064 0.39288777 4.5103594e-39
0.96461344 2.2636185 0.40792859 4.2344955e-39
0.96980327 2.2639506 0.42164972 4.8791433e-39
0.9735589 2.2643468 0.43548727 4.6943877e-39
0.97440696 2.264935 0.45112422 3.7720811e-39
1.0057318 2.2662914 0.51767975 5.0689562e-39
1.0148643 2.2664495 0.53113061 6.7288306e-39
1.0206536 2.2667108 0.54369491 6.5440792e-39
1.0250038 2.2671435 0.55906773 6.2674952e-39
1.028677 2.2675591 0.57330817 6.1742205e-39
1.0352283 2.2677102 0.58390605 5.805438e-39
1.0393512 2.2681694 0.59970814 4.9756759e-39
1.0494049 2.2688372 0.62689877 4.2377438e-39
1.1262965 2.2722583 0.79256707 3.9586331e-39
1.1535344 2.273227 0.84514779 1.0698332e-38
1.1609194 2.2733884 0.85686994 1.1524454e-38
1.1622785 2.2742391 0.87961924 1.180179e-38
1.1641169 2.2744458 0.88671607 1.180179e-38
1.1630915 2.2750554 0.90094209 4.335375e-39
0.80656505 2.2567608 0.071779154 5.986567e-39
0.81235069 2.2564721 0.070542283 4.6036424e-39
0.80370224 2.2574539 0.086197667 5.9872817e-39
0.82048494 2.2566788 0.084173746 2.6682699e-39
0.80331659 2.2580638 0.10109999 7.0925405e-39
0.8235392 2.2571063 0.09806826 2.5739246e-39
0.82785749 2.257477 0.1118601 2.0211166e-39
0.83236033 2.257925 0.12776989 1.6580892e-39
0.83360088 2.2583482 0.1396789 1.9353936e-39
0.83768934 2.2587297 0.1534894 8.2833275e-40
0.84193337 2.259104 0.16728726 6.4466035e-40
0.84444791 2.2595556 0.18122566 5.5246612e-40
0.87744612 2.2613373 0.26018846 4.3292261e-39
0.88034952 2.26193 0.27807391 3.5916611e-39
0.90718818 2.2606499 0.27382737 4.6947464e-39
0.89606547 2.2617254 0.28925899 4.1426685e-39
0.91045612 2.2610853 0.28814128 5.2464769e-39
0.89734173 2.2622554 0.30388534 4.0497512e-39
0.90807414 2.2617509 0.30237183 4.9698942e-39
0.91253746 2.2615886 0.30292895 5.5219862e-39
0.90565443 2.262419 0.3166182 4.2341396e-39
0.9085713 2.2622931 0.3164854 4.9706116e-39
0.91222656 2.2622318 0.31874946 5.4312241e-39
0.90853095 2.2629738 0.3335259 4.6951052e-39
0.90617108 2.2636385 0.34774736 2.8526471e-39
0.93474084 2.2628543 0.35774595 5.2436028e-39
0.93561256 2.2634668 0.37401032 5.153568e-39
0.94059783 2.2637043 0.38514718 5.3383208e-39
0.94370854 2.2640839 0.39789987 5.0631716e-39
0.94911093 2.2644434 0.41253158 4.9702613e-39
0.95382339 2.2648792 0.42835948 4.4170875e-39
0.95945221 2.2650986 0.43970487 4.3248891e-39
0.95533371 2.2659039 0.45563328 3.5876898e-39
0.99318868 2.2671065 0.52510738 7.1890857e-39
0.99983549 2.267278 0.53631282 6.7284705e-39
1.0015377 2.2677786 0.55064011 6.5437205e-39
1.0103937 2.2679341 0.56374055 6.2671336e-39
1.0106308 2.2685072 0.57836491 5.528128e-39
1.0148636 2.2688856 0.59224761 4.882037e-39
1.0204327 2.2691915 0.60570478 4.7884036e-39
1.1203271 2.2742989 0.83756328 4.5118041e-39
1.1289949 2.2739723 0.83836997 4.7887497e-39
1.1325816 2.2736511 0.83403379 4.9731424e-39
1.1230451 2.2747557 0.8518424 5.5255917e-39
1.128668 2.2745359 0.85216874 6.1705968e-39
1.135779 2.2742207 0.85164505 6.9060066e-39
1.126094 2.275213 0.86647922 6.447534e-39
1.1473979 2.2742224 0.86375034 1.087945e-38
1.1504287 2.2746508 0.87764674 1.180179e-38
1.1505113 2.2750909 0.88877517 8.6638515e-39
1.1589321 2.2765372 0.9338026 1.1152783e-38
0.80408663 2.2574916 0.087539248 6.4482585e-39
0.81127846 2.2571716 0.086981945 6.3535489e-39
0.80454737 2.2580895 0.10301973 6.4479011e-39
0.81178445 2.2579117 0.10607383 6.3528258e-39
0.80873221 2.2585502 0.11891958 5.893291e-39
0.81463021 2.2582471 0.11743975 4.2341382e-39
0.80911112 2.2590744 0.13246714 6.539731e-39
0.82103282 2.2585664 0.13210081 3.1288753e-39
0.80683565 2.2597342 0.14665346 7.1836529e-39
0.82584715 2.258831 0.14373751 1.74848e-39
0.82716846 2.2592418 0.15541576 1.6566417e-39
0.83117986 2.2597418 0.17212233 1.4733322e-39
0.83189368 2.2602737 0.18620689 6.4429882e-40
0.83751678 2.2605865 0.19989286 8.2904601e-40
0.84109139 2.2609906 0.21374513 1.3818625e-39
0.85629606 2.2620034 0.25493804 4.5154209e-39
0.86641067 2.262078 0.26732033 4.1451992e-39
0.91112769 2.2629204 0.33487803 6.1677087e-39
0.90876234 2.2635851 0.34910166 4.8784188e-39
0.91507745 2.2633162 0.34890869 6.4428564e-39
0.90704024 2.2642128 0.36305806 3.7731615e-39
0.91416454 2.2638969 0.36252871 5.4297933e-39
0.9232356 2.263468 0.36119047 5.7052956e-39
0.90911049 2.264739 0.37841761 3.9579185e-39
0.91862994 2.2642627 0.37634513 5.1539295e-39
0.9136253 2.2650898 0.3918983 3.773523e-39
0.92379653 2.2645879 0.38987005 4.6014746e-39
0.91337305 2.2657197 0.40744233 3.3136309e-39
0.92495918 2.2651076 0.40411851 4.9706158e-39
0.91700524 2.2661338 0.42160484 4.8795048e-39
0.92929536 2.2654295 0.4166961 4.9698998e-39
0.93448031 2.2658422 0.43243101 4.7851512e-39
0.93927056 2.2661688 0.445602 4.4167274e-39
0.96914899 2.267807 0.51771754 5.6228432e-39
0.97587866 2.2679415 0.5280776 7.4653125e-39
0.98739094 2.2679594 0.54048115 6.3600453e-39
0.98704654 2.2685704 0.5554558 6.7273915e-39
0.99608856 2.2686932 0.56792659 5.8050737e-39
0.99652547 2.269275 0.5829711 5.4355681e-39
0.99988079 2.2696888 0.59684122 4.5125328e-39
1.1294615 2.2751145 0.86751097 5.7099844e-39
1.1343496 2.2749283 0.86791104 6.3564356e-39
1.1275616 2.2757523 0.88154131 5.6213859e-39
1.128376 2.275774 0.8829267 5.5277511e-39
1.1354649 2.2754304 0.88167048 7.0954411e-39
1.1242881 2.2765069 0.89706928 5.34445e-39
1.1452529 2.2755456 0.89472401 9.1226534e-39
1.151404 2.2766204 0.9280746 2.4881918e-39
1.1499557 2.2770848 0.93821722 2.4881918e-39
1.1592133 2.2766106 0.9359386 2.4881918e-39
1.1496068 2.2776446 0.95190263 8.0159597e-39
1.1617501 2.2775779 0.96283984 1.1895768e-38
1.1650207 2.2781036 0.9794215 5.2565886e-39
1.1621585 2.2787416 0.99245793 8.5727474e-39
0.80480677 2.2599499 0.14996393 6.7226845e-39
0.8115043 2.2596147 0.14850412 5.0642562e-39
0.80648792 2.2604554 0.16438691 7.1832956e-39
0.8149901 2.2599602 0.16079502 3.6827735e-39
0.81419975 2.2606773 0.17796992 4.3281373e-39
0.81761611 2.2611027 0.19218324 3.8667948e-39
0.82538044 2.261286 0.20484008 1.6566445e-39
0.83011729 2.2616382 0.21859801 2.0261459e-39
0.83402336 2.2620277 0.23242332 2.4882058e-39
0.83894199 2.2623718 0.24616641 3.2264841e-39
0.84456259 2.2626846 0.25985256 4.1477215e-39
0.84894472 2.2630529 0.27363923 3.4090761e-39
0.95075417 2.2685275 0.51669371 5.3469724e-39
0.96048164 2.2687542 0.53248978 7.0054119e-39
0.96651167 2.2690797 0.54691803 6.7281076e-39
0.96914923 2.2695658 0.56184673 6.1738548e-39
0.97505987 2.2698381 0.5748142 5.4352065e-39
0.97833198 2.2702789 0.58926994 4.6032865e-39
0.98441505 2.2705452 0.60226619 4.5089328e-39
0.9891811 2.2708149 0.61398822 4.7837205e-39
1.1209831 2.2768898 0.90324873 1.0041762e-38
1.1295328 2.2764335 0.90067619 8.4776357e-39
1.1231946 2.277873 0.93020976 8.1049001e-39
1.1297115 2.2776754 0.93201709 9.8569632e-39
1.135003 2.2773461 0.92925066 7.9251948e-39
1.142737 2.2775645 0.94275761 7.6489877e-39
1.1327803 2.2785668 0.95757067 8.1970915e-39
1.1516116 2.2776759 0.95476937 1.1892149e-38
1.1348777 2.2790763 0.97253269 6.1677129e-39
1.1450194 2.2786713 0.97289306 7.6475359e-39
1.1517553 2.2782779 0.97001773 9.8642065e-39
1.1479188 2.2790477 0.98535198 8.4790987e-39
1.1577747 2.2791486 0.99811405 7.4682118e-39
1.1679943 2.2804606 1.0416409 6.8221151e-39
0.81555331 2.2618244 0.20814979 6.8145088e-39
0.81512654 2.2623968 0.22206919 5.7085382e-39
0.81873345 2.2629018 0.23847853 4.3270499e-39
0.82722622 2.2630525 0.25107956 2.1186988e-39
0.83293658 2.2633615 0.26475841 2.8577016e-39
0.83605736 2.2637858 0.27864751 3.9626072e-39
0.84086668 2.2641349 0.2923995 4.6994534e-39
0.84437299 2.264636 0.30860823 4.1462824e-39
0.94801724 2.2695003 0.53826356 6.7288278e-39
0.9540236 2.2697959 0.55191839 6.5437191e-39
0.95785803 2.2701886 0.56574965 6.2656889e-39
0.96198899 2.2705681 0.5795567 5.5270392e-39
0.96642727 2.2709336 0.59333879 4.2337851e-39
0.96925658 2.2713711 0.6072517 4.5074951e-39
0.97406363 2.2717204 0.62100381 5.2410987e-39
1.1316526 2.2799215 0.99038649 6.6301204e-39
1.1293547 2.2806458 1.0061715 5.7078151e-39
1.1417807 2.2799382 1.0013204 8.3869044e-39
1.1563247 2.2804985 1.0304786 7.3760133e-39
1.1531001 2.2810874 1.0419033 8.1114007e-39
1.1564316 2.2816212 1.0587553 8.1128665e-39
0.80702335 2.2634714 0.24060704 7.7364707e-39
0.80604345 2.2641709 0.25714731 7.5520753e-39
0.81458461 2.2637944 0.25656548 6.8137942e-39
0.82082224 2.26406 0.26970392 5.0642702e-39
0.82475019 2.2644482 0.28352749 4.2370319e-39
0.83048183 2.2647564 0.29720452 4.3295877e-39
0.83153743 2.2652729 0.31126142 3.9622485e-39
0.83747166 2.265554 0.32447645 4.0533651e-39
0.84073943 2.2659938 0.33890289 4.1462824e-39
0.8436622 2.266423 0.35270444 4.6998177e-39
0.92737782 2.27053 0.54267001 7.0979775e-39
0.93456769 2.2702103 0.54211336 7.189813e-39
0.93581986 2.2708011 0.55823547 6.6351903e-39
0.9392373 2.2712088 0.57201219 5.9883803e-39
0.94393229 2.271559 0.58566934 4.8798734e-39
0.94886243 2.2718894 0.5990786 4.5082112e-39
0.95393544 2.2722492 0.61337739 4.9645118e-39
1.1309079 2.2817969 1.0366611 5.3393956e-39
1.1391169 2.281424 1.0358294 1.1702332e-38
1.1372616 2.2820792 1.0503434 9.1201367e-39
1.1363655 2.2827384 1.065946 6.2606316e-39
1.14748 2.282145 1.0625987 9.8616772e-39
1.15531 2.2824364 1.0780423 7.7437098e-39
1.1537156 2.2830279 1.0912228 6.6366462e-39
1.1583918 2.2833827 1.1049855 5.0711114e-39
0.80789226 2.2648857 0.27699777 6.9063513e-39
0.80750203 2.2653174 0.28742391 8.1967202e-39
0.81007582 2.2652693 0.2888886 7.090744e-39
0.80504566 2.265939 0.30046418 8.0119702e-39
0.81491232 2.2656116 0.30249888 6.446462e-39
0.80968052 2.2664406 0.31786248 8.5644209e-39
0.81861287 2.2660282 0.31679362 6.261712e-39
0.82295811 2.2663977 0.33057496 5.7092613e-39
0.82985526 2.2666333 0.34364486 4.146281e-39
0.83612233 2.266886 0.35649481 4.0540812e-39
0.83924538 2.2673266 0.3707889 4.238834e-39
0.84297252 2.2677565 0.38544333 3.7778572e-39
0.84489334 2.2682168 0.39899391 3.4094306e-39
0.84938186 2.2686019 0.41331083 1.9339474e-39
0.9303816 2.2722301 0.58843756 5.3437382e-39
1.1346012 2.2835019 1.0832684 7.9205103e-39
1.1445022 2.2829883 1.080668 1.2163331e-38
1.1332186 2.2841702 1.0985976 6.8134522e-39
1.1455407 2.2835886 1.0968043 1.2810162e-38
1.1526057 2.283844 1.1105516 8.9408209e-39
1.1511302 2.2844284 1.1236794 8.4801889e-39
1.1553315 2.2848046 1.1374809 6.7299152e-39
1.1601347 2.2851539 1.1512333 6.8221277e-39
0.8090843 2.2670999 0.3337822 8.6558991e-39
0.8083964 2.2677124 0.34843346 8.287118e-39
0.81579041 2.2673628 0.3473393 6.4453886e-39
0.82338965 2.2676432 0.36227414 4.1459125e-39
0.82793099 2.2680044 0.37604785 4.5147006e-39
0.83179688 2.2683957 0.38987648 4.4228623e-39
0.83834738 2.2686346 0.40267527 3.3165189e-39
0.84119958 2.2691901 0.4195691 2.3027341e-39
0.84043312 2.2697015 0.43160287 2.4867639e-39
1.1336554 2.2849097 1.1176085 7.7364749e-39
1.1392227 2.2845728 1.1149385 1.3546986e-38
1.1324412 2.2854433 1.1297368 7.5517235e-39
1.1460061 2.2847881 1.1273823 1.0231188e-38
1.1347666 2.2859542 1.1449702 8.1052603e-39
1.1474036 2.2853258 1.1423209 1.004608e-38
1.1478797 2.2858589 1.15619 7.2816499e-39
1.1522979 2.2862253 1.169974 5.6232174e-39
1.1517028 2.2867491 1.1824967 6.4522522e-39
0.80764723 2.2684324 0.36572325 8.7470143e-39
0.81502062 2.2681022 0.36509052 7.182225e-39
0.80846518 2.2690625 0.38238442 7.8265028e-39
0.81323105 2.2687337 0.37908173 7.0900251e-39
0.80779529 2.2696731 0.39700556 9.1172318e-39
0.82166725 2.2690055 0.3946608 2.8526569e-39
0.82721424 2.2693217 0.40835294 1.7488401e-39
0.83071035 2.2697296 0.42221159 2.4874813e-39
0.8330102 2.2701969 0.43632644 2.3945654e-39
1.1358501 2.2853637 1.1312791 7.554613e-39
1.1376894 2.2861474 1.1528479 1.0046438e-38
1.1345543 2.2866318 1.1617433 9.8598779e-39
1.1420079 2.2863121 1.1614693 7.0976244e-39
1.1406385 2.2869034 1.1748825 5.8076086e-39
0.81212986 2.2695189 0.39763555 9.0239585e-39
0.80853635 2.2702551 0.41236964 9.2090645e-39
0.81547362 2.2699497 0.41191804 7.2733416e-39
0.80775487 2.2708871 0.42741689 7.8254139e-39
0.81580967 2.2705379 0.42702463 5.4312339e-39
0.80888003 2.2714844 0.44357067 9.7611578e-39
0.82230616 2.2709291 0.44358283 3.497669e-39
0.82079345 2.2714574 0.45526373 3.7735342e-39
0.82555246 2.2717795 0.46828642 3.6831266e-39
0.82549292 2.2722781 0.48073491 3.86572e-39
1.1333512 2.2867577 1.1636614 9.0308403e-39
1.1172792 2.2879534 1.1769644 1.1149522e-38
1.1257603 2.2877479 1.1806171 7.5557032e-39
1.132066 2.2874265 1.1791028 6.0838256e-39
1.1320233 2.2880824 1.1955073 5.7161262e-39
1.1277475 2.2888083 1.209285 5.6228474e-39
0.81343812 2.271317 0.44410777 6.5361297e-39
0.80989909 2.2720499 0.45881912 9.3927369e-39
0.80948859 2.2726457 0.47333956 7.3651659e-39
0.81590402 2.2729552 0.48776513 6.5364912e-39
0.82245219 2.2732086 0.50092149 3.5891345e-39
0.82472175 2.2736912 0.51538563 2.7608214e-39
0.82942396 2.2740891 0.53025097 2.3931221e-39
0.83037549 2.2746024 0.54411691 3.5891359e-39
1.1066192 2.2887592 1.1861176 6.5404639e-39
1.1124135 2.2891889 1.2029132 6.2674839e-39
1.1195855 2.2886884 1.1978029 6.2674952e-39
0.80785739 2.2740366 0.50653845 6.9041877e-39
0.80732161 2.2747476 0.52382064 8.2860278e-39
0.81175262 2.2744365 0.52062088 6.6286882e-39
0.81967402 2.2746418 0.53399086 2.6693475e-39
0.82289147 2.2750618 0.54787213 2.6693475e-39
0.82821965 2.2753711 0.56115997 2.3924032e-39
0.83354038 2.2756877 0.5746336 2.3931207e-39
0.83361387 2.2762761 0.5894714 2.4849548e-39
1.0886142 2.2896855 1.1906574 6.447548e-39
1.094637 2.289449 1.1909795 6.1742037e-39
1.1052756 2.2894404 1.2018099 6.2671224e-39
0.80863684 2.2753971 0.54148227 7.3655176e-39
0.80601174 2.2759264 0.5520348 9.5774882e-39
0.8087579 2.2758613 0.55325747 6.4446543e-39
0.80667806 2.2764897 0.56685996 8.8402847e-39
0.8149091 2.2761526 0.56694925 5.8929281e-39
0.80726784 2.2771029 0.58285671 9.2079869e-39
0.81865215 2.2765443 0.58066243 5.1557246e-39
1.0660838 2.2902412 1.1812046 7.274422e-39
1.0754011 2.2904515 1.1961608 5.8968952e-39
1.0782835 2.2908814 1.2099359 6.8188557e-39
0.80729997 2.2778628 0.60195351 7.2744052e-39
1.0518576 2.2910752 1.1873634 4.9727795e-39
1.0596277 2.2907414 1.1870551 3.8671536e-39
1.057936 2.2913513 1.2006013 3.4990871e-39
1.0637643 2.291652 1.2141974 3.2243177e-39
1.0289936 2.2917922 1.1816097 6.8145242e-39
1.0373553 2.2915535 1.1843001 2.7600871e-39
1.0422456 2.2918069 1.1957371 1.8417448e-39
1.0315205 2.292799 1.209493 3.643376e-43
1.0429165 2.2922115 1.2065887 9.1841101e-41
1.0075595 2.2928522 1.1859437 7.3680582e-39
1.0182755 2.292568 1.1899394 3.038832e-39
1.0237955 2.2921054 1.1840751 3.6849217e-39
1.0225085 2.2929006 1.202683 3.643376e-43
1.0286776 2.2925229 1.1996146 3.657389e-43
1.0225085 2.2932804 1.212208 3.643376e-43
