# .PCD v0.7 - Point Cloud Data file format
VERSION 0.7
FIELDS x y z rgb
SIZE 4 4 4 4
TYPE F F F F
COUNT 1 1 1 1
WIDTH 1038
HEIGHT 1
VIEWPOINT 0 0 0 1 0 0 0
POINTS 1038
DATA ascii
-1.4055649 -2.7596052 0.89420485 9.9185923e-39
-1.4061179 -2.7606335 0.90967923 1.1204289e-38
-1.4032699 -2.8000877 0.91123402 7.5312422e-39
-1.401978 -2.8154547 0.90734613 7.8074689e-39
-1.407372 -2.7515926 0.92412335 1.0102263e-38
-1.4067602 -2.759975 0.92428875 9.4594162e-39
-1.4095545 -2.7294254 0.93758118 1.0101905e-38
-1.408378 -2.7441094 0.93529391 1.0193741e-38
-1.4067662 -2.7678137 0.93866855 7.6227105e-39
-1.4101568 -2.7290668 0.95174932 1.0101906e-38
-1.4091091 -2.740484 0.94669902 8.6328968e-39
-1.4082117 -2.7546332 0.95030963 8.5410655e-39
-1.4076958 -2.7618628 0.95073867 7.5308778e-39
-1.4120262 -2.7096832 0.96255267 9.9182336e-39
-1.4110289 -2.724905 0.96564943 1.0469248e-38
-1.4100649 -2.7372284 0.96430761 8.173362e-39
-1.4126105 -2.7106926 0.97876722 9.183551e-39
-1.4114045 -2.7273183 0.97927451 8.8165678e-39
-1.4131144 -2.7106891 0.9911592 8.0815251e-39
-1.4122576 -2.7239239 0.99410319 8.3570316e-39
-1.4160137 -2.6790452 1.0050459 1.1203931e-38
-1.4151651 -2.6907942 1.0054955 9.1839112e-39
-1.4140792 -2.7050035 1.0045743 7.4386766e-39
-1.4168491 -2.6763172 1.0206503 1.1663468e-38
-1.4173535 -2.6765199 1.0334285 9.0917169e-39
-1.4190133 -2.6613276 1.0466871 1.0101906e-38
-1.4303368 -2.5524781 1.1276882 1.2122287e-38
-1.4308929 -2.5536075 1.1434222 1.2305958e-38
-1.4337331 -2.5214825 1.1549811 1.2398152e-38
-1.4326898 -2.5365458 1.1566603 1.2581464e-38
-1.4334899 -2.5338948 1.1715388 1.2214121e-38
-1.4360139 -2.5062892 1.1835208 1.1848573e-38
-1.4348224 -2.52211 1.1829274 1.2215559e-38
-1.4425778 -2.4254546 1.1982706 1.7978526e-38
-1.4385395 -2.4803288 1.1985326 1.1299732e-38
-1.4375306 -2.4932132 1.1970992 1.1020621e-38
-1.4366516 -2.5072663 1.2009871 1.1940049e-38
-1.4434813 -2.4209814 1.2123802 1.7703385e-38
-1.4425663 -2.4341202 1.2137206 2.0929874e-38
-1.440491 -2.4606037 1.2107363 2.2022887e-38
-1.4394058 -2.4756935 1.2114311 1.3243418e-38
-1.4383433 -2.4919779 1.2148538 1.1205012e-38
-1.4419945 -2.4484606 1.2256879 2.2585068e-38
-1.4408357 -2.4616063 1.2210385 1.6109057e-38
-1.4400578 -2.475956 1.2279491 1.4350489e-38
-1.4559617 -2.32372 1.3428875 1.751354e-39
-1.4573696 -2.3101842 1.3529533 2.1197764e-39
-1.4586027 -2.2998841 1.3645935 2.5800357e-39
-1.4590337 -2.3014183 1.3779867 1.8431965e-39
-1.4625165 -2.2629073 1.3937639 1.2893039e-39
-1.4613284 -2.2783499 1.392568 2.3041761e-39
-1.4603897 -2.2899106 1.3904598 2.8573471e-39
-1.4667815 -2.2123721 1.4069598 1.8367379e-40
-1.397287 -2.8519354 0.85815454 7.6237993e-39
-1.3969699 -2.8635471 0.87143517 6.1619928e-39
-1.3986782 -2.8477228 0.8847385 6.3377408e-39
-1.3975456 -2.8635957 0.88568729 6.3514329e-39
-1.4003589 -2.8345864 0.90224063 8.2666478e-39
-1.3993238 -2.8478854 0.90092039 5.791411e-39
-1.3982267 -2.8636646 0.90257126 5.884687e-39
-1.4030626 -2.8038025 0.91287667 1.0010795e-38
-1.4010066 -2.8332858 0.91581643 6.5224908e-39
-1.4026767 -2.8175142 0.92828059 7.7152747e-39
-1.4074256 -2.7605646 0.94173217 9.9189525e-39
-1.4035052 -2.814347 0.94291413 7.4397626e-39
-1.4071412 -2.7723768 0.95618409 8.6329038e-39
-1.4060712 -2.7869415 0.95629507 8.632908e-39
-1.4048653 -2.8019648 0.95389909 7.4390451e-39
-1.4087383 -2.7583115 0.96994042 8.5410655e-39
-1.4066854 -2.787205 0.9718858 7.3472082e-39
-1.4089543 -2.7628007 0.98340839 7.2553713e-39
-1.4134068 -2.713197 1.0029095 9.9182336e-39
-1.4111633 -2.740557 0.99737924 9.4594176e-39
-1.410111 -2.7542717 0.99638575 8.3573931e-39
-1.4144753 -2.7035456 1.0116743 9.9182336e-39
-1.4137774 -2.7141633 1.013781 1.0010069e-38
-1.4126669 -2.7272744 1.0102592 8.7243735e-39
-1.4154966 -2.6969457 1.0248227 1.0561083e-38
-1.4144772 -2.7108734 1.025027 8.8162104e-39
-1.4153249 -2.7072983 1.0393921 9.7349255e-39
-1.4181768 -2.6786134 1.0574863 9.9185937e-39
-1.4196751 -2.6620939 1.0643643 9.550893e-39
-1.4188032 -2.6753647 1.0670019 1.0836947e-38
-1.4271631 -2.6001122 1.13608 1.1938975e-38
-1.4279051 -2.5973234 1.1492734 1.1755304e-38
-1.4322411 -2.5520353 1.1737413 1.2398151e-38
-1.4312148 -2.5666819 1.1750815 1.2214122e-38
-1.4338962 -2.5379217 1.1888427 1.2214484e-38
-1.4328765 -2.5521808 1.1896403 1.1938975e-38
-1.4355631 -2.5237124 1.2040594 1.2305956e-38
-1.4370774 -2.5102136 1.2168105 1.1938973e-38
-1.4361874 -2.5236177 1.2192506 1.1847139e-38
-1.4426517 -2.440244 1.2269409 1.9824245e-38
-1.4423828 -2.4470263 1.2326373 2.1849666e-38
-1.4409761 -2.4652689 1.2311468 2.2023966e-38
-1.4390041 -2.4909916 1.229323 1.1480156e-38
-1.4379053 -2.5064063 1.2302715 1.1663825e-38
-1.4424963 -2.4521177 1.2446724 2.1664914e-38
-1.4418402 -2.4612615 1.2451301 1.9253774e-38
-1.4406941 -2.4757583 1.2432476 1.4812187e-38
-1.4396372 -2.4914975 1.2458212 1.1571991e-38
-1.4430707 -2.452842 1.260121 1.9165189e-38
-1.4423736 -2.4608512 1.257515 1.6756941e-38
-1.4405335 -2.4869692 1.2596538 1.157235e-38
-1.4438829 -2.4489124 1.2729746 2.0551365e-38
-1.4430833 -2.459872 1.2731987 1.6572184e-38
-1.4555303 -2.3283272 1.3406357 3.7767824e-39
-1.4571937 -2.3158669 1.3589447 2.3963647e-39
-1.4582763 -2.3074217 1.3702474 1.9353894e-39
-1.4585735 -2.3107381 1.3835825 2.0268675e-39
-1.4622678 -2.2692714 1.3991992 1.289664e-39
-1.4609679 -2.2828126 1.3917983 1.1974698e-39
-1.4603125 -2.2953842 1.3984958 2.2119819e-39
-1.3966933 -2.8707316 0.87767333 6.5257264e-39
-1.3974426 -2.8690276 0.89301425 6.4360573e-39
-1.3998085 -2.8519089 0.92015177 8.5432305e-39
-1.3989381 -2.8642628 0.9211604 6.2559933e-39
-1.4017142 -2.8346865 0.93577284 7.9914972e-39
-1.4004681 -2.8506277 0.93405384 7.2600545e-39
-1.4023255 -2.8331692 0.94806021 7.34829e-39
-1.4064406 -2.7849982 0.96185511 1.0010796e-38
-1.4056919 -2.7938514 0.95950729 1.037778e-38
-1.4053773 -2.7992213 0.96151745 7.5308806e-39
-1.4039505 -2.8167779 0.9582817 7.1639002e-39
-1.4076762 -2.7741876 0.97263348 9.2753921e-39
-1.4063329 -2.7910335 0.97016495 7.3472082e-39
-1.4056417 -2.8019209 0.97292346 9.0931631e-39
-1.4046609 -2.8168938 0.97597826 7.8989415e-39
-1.4084067 -2.7738855 0.99006027 8.6329024e-39
-1.4106859 -2.7501068 1.0029721 1.0102625e-38
-1.4097236 -2.7603104 0.99781513 1.0102625e-38
-1.4104875 -2.758172 1.0127314 8.3573903e-39
-1.4098769 -2.7684724 1.0164108 8.6328996e-39
-1.4134138 -2.7272751 1.0286385 9.826761e-39
-1.4112151 -2.7576735 1.0297276 8.7247351e-39
-1.4176176 -2.6957495 1.074838 1.2306678e-38
-1.4166983 -2.7089386 1.0761684 1.0285937e-38
-1.4187015 -2.6866858 1.0850552 1.2306678e-38
-1.4196901 -2.680095 1.097416 1.1295767e-38
-1.4232596 -2.6467354 1.1246762 9.3672206e-39
-1.4265501 -2.6187339 1.1548096 1.2122644e-38
-1.4254124 -2.6326706 1.1521175 1.2398509e-38
-1.4282539 -2.6032369 1.1685956 1.2030809e-38
-1.4272116 -2.618129 1.169987 1.1755662e-38
-1.4298725 -2.587724 1.180258 1.1938615e-38
-1.4317578 -2.5689952 1.1926446 1.1938616e-38
-1.4306686 -2.5846114 1.1941938 1.1754946e-38
-1.4334548 -2.5535383 1.2063338 1.1938976e-38
-1.4352599 -2.5395982 1.2254423 1.2030453e-38
-1.436726 -2.5258009 1.2364652 1.1754946e-38
-1.4357172 -2.5401568 1.2377113 1.2030814e-38
-1.438483 -2.5096862 1.2504443 1.1664187e-38
-1.4374999 -2.5229454 1.2503252 1.1755305e-38
-1.4436095 -2.4483907 1.2652969 2.1573437e-38
-1.438067 -2.5239704 1.26614 1.1663471e-38
-1.4448719 -2.4384089 1.2782398 1.9177086e-38
-1.4441103 -2.4517326 1.2836885 2.1571998e-38
-1.4436747 -2.4626637 1.2928178 1.5286122e-38
-1.4431363 -2.4762254 1.3041911 1.3518555e-38
-1.4479495 -2.4286103 1.3361754 1.4471114e-38
-1.4576498 -2.3184478 1.3748503 2.1187002e-39
-1.4584837 -2.3166523 1.3921136 1.7509981e-39
-1.4600515 -2.301748 1.4036292 1.8431979e-39
-1.3996868 -2.8561585 0.92486769 1.0013319e-38
-1.3989402 -2.8679743 0.92795205 5.9729198e-39
-1.4008777 -2.8479853 0.93933344 9.7381709e-39
-1.3992655 -2.8707955 0.94108003 5.8785592e-39
-1.3986036 -2.8777122 0.93734586 6.3535979e-39
-1.4008539 -2.8552344 0.95191026 6.1562293e-39
-1.4000041 -2.8673065 0.95291835 7.6248713e-39
-1.3986846 -2.883019 0.94898087 8.6620956e-39
-1.4038026 -2.8219564 0.96404749 1.0930953e-38
-1.4027505 -2.8369431 0.96536976 6.9809467e-39
-1.4017187 -2.8512774 0.96600658 7.7163495e-39
-1.40056 -2.8649504 0.96231943 6.1623543e-39
-1.4067034 -2.7949507 0.98639601 1.010263e-38
-1.4034481 -2.8347726 0.97859436 8.3584805e-39
-1.4024357 -2.8494282 0.98028976 6.7068849e-39
-1.4072373 -2.7924519 0.99499702 9.5512573e-39
-1.4063307 -2.8042395 0.99409026 8.357763e-39
-1.4051864 -2.817982 0.9908818 6.9802236e-39
-1.4098616 -2.7632909 1.0066233 1.0285937e-38
-1.40885 -2.7769771 1.0065786 1.1387964e-38
-1.4068809 -2.8025999 1.0046495 8.7254609e-39
-1.4057671 -2.818505 1.0061197 7.8071032e-39
-1.4074576 -2.8041639 1.0216765 7.8071046e-39
-1.4122432 -2.7471888 1.0359938 1.1571275e-38
-1.4109688 -2.7632248 1.0337472 1.0010072e-38
-1.4091324 -2.7887528 1.034911 8.4495929e-39
-1.4116957 -2.7597446 1.0453151 8.0815307e-39
-1.4137789 -2.7432971 1.0667142 8.173362e-39
-1.4152786 -2.7281961 1.0761975 9.7345626e-39
-1.4180398 -2.6972654 1.0879802 1.1112814e-38
-1.4169921 -2.7128282 1.0904557 1.0745113e-38
-1.4187138 -2.6958525 1.1020012 9.5508916e-39
-1.4174653 -2.7130892 1.1025758 8.7243749e-39
-1.4192986 -2.6960785 1.1168021 1.0010428e-38
-1.4210495 -2.6802464 1.1311392 9.5508916e-39
-1.4225925 -2.6677949 1.1465008 1.2030809e-38
-1.4216788 -2.6801455 1.1464404 1.203081e-38
-1.424427 -2.6501615 1.1596264 1.1938973e-38
-1.4261183 -2.6344404 1.1726966 1.2306315e-38
-1.4288816 -2.6035359 1.1845847 1.1755304e-38
-1.4278462 -2.6182344 1.1857946 1.2030809e-38
-1.4267243 -2.6352236 1.1890315 1.2306315e-38
-1.4294462 -2.6048636 1.2008861 1.2122644e-38
-1.4284331 -2.6193826 1.2023175 1.2305956e-38
-1.4309844 -2.5906129 1.2128621 1.2030451e-38
-1.430127 -2.6040208 1.216107 1.1755305e-38
-1.4330167 -2.572403 1.2298069 1.2030809e-38
-1.4319597 -2.5852451 1.2271132 1.1755302e-38
-1.4347879 -2.5559142 1.2434531 1.1754946e-38
-1.4337604 -2.5692377 1.2423582 1.184678e-38
-1.4361364 -2.543972 1.2549496 1.1754945e-38
-1.4368119 -2.5422008 1.2683569 1.1755306e-38
-1.4376493 -2.5376766 1.2807461 1.1571274e-38
-1.4451009 -2.4432971 1.2927499 1.8070376e-38
-1.4442511 -2.4575522 1.2977171 2.0373101e-38
-1.4470124 -2.4273529 1.3108368 1.3276549e-38
-1.4448104 -2.457794 1.3119184 2.0557494e-38
-1.4441062 -2.4659405 1.309384 2.1752428e-38
-1.44186 -2.4966972 1.3099556 1.1112454e-38
-1.4409819 -2.5083044 1.3094213 1.1296485e-38
-1.4455431 -2.4552209 1.3252766 1.8432677e-38
-1.4448042 -2.463757 1.3225946 1.7688267e-38
-1.4439181 -2.4774406 1.325636 9.7356528e-39
-1.4475317 -2.434233 1.3361031 1.631612e-38
-1.4464277 -2.4504378 1.3383616 1.8431581e-38
-1.4454697 -2.4636705 1.3388146 1.4817221e-38
-1.4443679 -2.4792078 1.3399112 1.5366439e-38
-1.4484413 -2.4315293 1.3535765 6.7219951e-39
-1.4472061 -2.4474018 1.352001 1.1052295e-38
-1.4493847 -2.4254115 1.3656822 3.0338126e-39
-1.4002421 -2.8582389 0.94231266 8.6343471e-39
-1.4008491 -2.8584197 0.95757711 9.829289e-39
-1.3988863 -2.8855851 0.95859957 6.5297005e-39
-1.4020692 -2.849818 0.97198194 8.8190943e-39
-1.400452 -2.8717084 0.97193265 6.8948747e-39
-1.3987561 -2.8945324 0.97164482 8.2003986e-39
-1.4022489 -2.8556962 0.98707193 7.5330428e-39
-1.4000187 -2.8823149 0.98052388 5.6149539e-39
-1.4082904 -2.7954283 1.0263108 9.9189581e-39
-1.4063606 -2.8207524 1.0248065 7.5312352e-39
-1.4091591 -2.7918487 1.0411898 1.0194107e-38
-1.4080569 -2.8064125 1.0405051 9.0928085e-39
-1.4071908 -2.8189023 1.0418758 7.6237951e-39
-1.410818 -2.7765405 1.0542133 1.074512e-38
-1.409662 -2.7917645 1.0534115 8.9091291e-39
-1.4086659 -2.8060009 1.0547438 9.2761124e-39
-1.4104517 -2.7876763 1.065419 7.2553713e-39
-1.4097488 -2.7981913 1.0672146 7.6230763e-39
-1.4141425 -2.7457938 1.0801927 1.0469609e-38
-1.4133049 -2.7601945 1.0857292 8.3577518e-39
-1.4110875 -2.7860715 1.078149 8.6329066e-39
-1.4158049 -2.7319217 1.0959108 1.083659e-38
-1.4145788 -2.7471323 1.0933553 1.0377773e-38
-1.4135166 -2.762876 1.0958077 8.3573945e-39
-1.4165438 -2.7279475 1.1068765 8.6325394e-39
-1.4158399 -2.7386105 1.1089177 8.1733634e-39
-1.4172004 -2.7283421 1.123754 8.9998828e-39
-1.419933 -2.6971772 1.1344061 9.4594162e-39
-1.4187289 -2.7156718 1.1383581 9.4594162e-39
-1.4177872 -2.7284951 1.1384647 1.1387963e-38
-1.4205532 -2.6968954 1.149156 1.2122285e-38
-1.4231924 -2.6701357 1.1655089 1.2122644e-38
-1.4221156 -2.6834896 1.1632601 1.2030809e-38
-1.4212354 -2.6954978 1.1634033 1.0744753e-38
-1.4250253 -2.6507452 1.1754098 1.1754944e-38
-1.4241406 -2.6647282 1.1790227 1.203045e-38
-1.4256855 -2.6501637 1.190598 1.2122644e-38
-1.4245645 -2.6669888 1.1935604 1.1663467e-38
-1.4274009 -2.6356907 1.2065294 1.2122644e-38
-1.4262756 -2.6510754 1.2067695 1.1571631e-38
-1.4290763 -2.618963 1.2173821 1.2489988e-38
-1.4280263 -2.6340952 1.2190198 1.203081e-38
-1.4306629 -2.606343 1.2335075 1.2123003e-38
-1.4295417 -2.6202776 1.2312194 1.2122646e-38
-1.4286278 -2.6348052 1.2351104 1.1755304e-38
-1.4324005 -2.589525 1.2457312 1.1938616e-38
-1.4313371 -2.6056395 1.2488207 1.203081e-38
-1.4351851 -2.5586951 1.2582734 1.1571275e-38
-1.434153 -2.5734677 1.2596982 1.1938975e-38
-1.4357953 -2.559087 1.2740026 1.2214841e-38
-1.4347378 -2.5744946 1.2759566 1.1755305e-38
-1.4365014 -2.5571887 1.2879285 1.1663109e-38
-1.447668 -2.4282115 1.3285246 1.2630452e-38
-1.4466323 -2.4426756 1.3292977 1.7608669e-38
-1.4411294 -2.5171154 1.3290495 1.1296126e-38
-1.4403878 -2.5258808 1.3267174 1.1295767e-38
-1.4422503 -2.5088029 1.3415349 1.102098e-38
-1.446022 -2.4651217 1.3550419 1.9530712e-38
-1.4450302 -2.4781733 1.3543302 9.6441746e-39
-1.4440047 -2.4927621 1.3555827 1.065328e-38
-1.4486396 -2.4379508 1.3701156 2.0225445e-39
-1.4475466 -2.452935 1.3704236 6.9024221e-39
-1.4468186 -2.4636731 1.372008 1.1131537e-38
-1.4491688 -2.4375122 1.3823406 2.8483437e-39
-1.4492157 -2.4460084 1.3989189 4.1340379e-39
-1.399945 -2.876858 0.96881032 8.9120074e-39
-1.3986725 -2.8912823 0.9636808 6.8927167e-39
-1.3978786 -2.9038751 0.96701419 7.7390603e-39
-1.4011899 -2.8642726 0.97658938 9.6459739e-39
-1.4003059 -2.877877 0.97953719 1.0657242e-38
-1.3994188 -2.8879616 0.97601813 6.8055699e-39
-1.3971583 -2.9171984 0.97347796 1.3274411e-38
-1.4008287 -2.8743851 0.98605883 6.8909048e-39
-1.3988041 -2.9012849 0.98508167 6.2650135e-39
-1.3977588 -2.9148273 0.98394811 1.3366249e-38
-1.4027847 -2.8580601 1.0045506 7.991856e-39
-1.4064376 -2.8268363 1.0377445 7.8985841e-39
-1.4069535 -2.8245065 1.046207 8.0822551e-39
-1.4075823 -2.822 1.0571307 7.7152705e-39
-1.4102573 -2.7937155 1.0715982 1.1756028e-38
-1.4090209 -2.8108342 1.0722562 9.0006087e-39
-1.4081565 -2.8237996 1.0745287 9.368671e-39
-1.41196 -2.7805095 1.0895205 1.0745482e-38
-1.410839 -2.7954967 1.0891461 9.5516175e-39
-1.4099351 -2.806304 1.0865282 9.0002486e-39
-1.4126147 -2.7771053 1.0994486 9.643453e-39
-1.4115111 -2.7905099 1.0966296 8.8169349e-39
-1.4107291 -2.803261 1.1005362 8.1740864e-39
-1.4153873 -2.7462947 1.1117316 1.1296128e-38
-1.4143397 -2.7617576 1.1140281 9.5508958e-39
-1.4132305 -2.7779641 1.1161598 9.0002416e-39
-1.4123049 -2.7889504 1.1133329 8.1740878e-39
-1.4112093 -2.8052647 1.1159946 8.2659233e-39
-1.4159384 -2.748349 1.1290226 8.9080473e-39
-1.4149519 -2.7617171 1.1290182 8.4488713e-39
-1.41682 -2.7437353 1.1423386 1.0469249e-38
-1.4194578 -2.713876 1.1530349 1.0561802e-38
-1.4183844 -2.7293057 1.1546336 1.0010072e-38
-1.4201162 -2.7137055 1.1689211 1.2398151e-38
-1.4227301 -2.6862922 1.1834685 1.2122644e-38
-1.4215939 -2.7000518 1.1804945 1.2030809e-38
-1.4207473 -2.7116334 1.180688 1.065292e-38
-1.4235886 -2.6826406 1.197965 1.2214121e-38
-1.425198 -2.667135 1.2094114 1.1939332e-38
-1.4240805 -2.6839769 1.2124929 1.2215197e-38
-1.4268653 -2.6534719 1.2256328 1.1938976e-38
-1.428877 -2.636631 1.2445554 1.2215199e-38
-1.4277034 -2.6492901 1.2386625 1.2030453e-38
-1.4300872 -2.6237452 1.2509363 1.2123003e-38
-1.4291729 -2.6375489 1.2535009 1.1755662e-38
-1.4329939 -2.5914719 1.2638657 1.1938975e-38
-1.4319538 -2.6060717 1.2647812 1.1847141e-38
-1.4311343 -2.6196961 1.2693541 1.1938976e-38
-1.4336863 -2.5894682 1.2772653 1.1847499e-38
-1.4325794 -2.6053398 1.2788432 1.1847141e-38
-1.4315354 -2.6209455 1.2814912 1.1755305e-38
-1.4350785 -2.5791109 1.2927189 1.1663828e-38
-1.4341966 -2.5905988 1.2918767 1.1847858e-38
-1.433429 -2.6017404 1.2932156 1.1571274e-38
-1.4360378 -2.5732241 1.3056335 1.157199e-38
-1.4351673 -2.5858028 1.3070518 1.1663825e-38
-1.4380261 -2.5579405 1.3268095 1.1572709e-38
-1.4394594 -2.541405 1.3320608 1.1112459e-38
-1.4387984 -2.5514712 1.3340665 1.1572709e-38
-1.4410608 -2.5286257 1.3482572 1.1571634e-38
-1.4399866 -2.5424173 1.3468676 1.1663828e-38
-1.4428686 -2.5120952 1.3627292 1.0837668e-38
-1.4417284 -2.5278182 1.3632224 1.0745473e-38
-1.4445845 -2.4964547 1.3765543 1.0652918e-38
-1.4434764 -2.511394 1.3764122 1.0745475e-38
-1.4482492 -2.452879 1.3876168 2.7572271e-39
-1.4472314 -2.4667652 1.3877819 4.5924951e-39
-1.4462419 -2.4797421 1.3869917 1.0384245e-38
-1.4453901 -2.4927974 1.3897349 1.0563599e-38
-1.4479281 -2.464628 1.4010417 5.878192e-39
-1.4460578 -2.4914496 1.4037176 1.0194458e-38
-1.3982253 -2.9070911 0.9813841 7.2687033e-39
-1.3972088 -2.9209321 0.98150188 1.0322343e-38
-1.4029715 -2.8730245 1.0363166 6.9841921e-39
-1.4046212 -2.85813 1.0498652 8.4514006e-39
-1.4076116 -2.8285046 1.0696614 9.368671e-39
-1.4053682 -2.8558509 1.0641121 6.5224922e-39
-1.403332 -2.8832998 1.0638427 6.9964422e-39
-1.4086516 -2.8192127 1.0783812 9.368671e-39
-1.4079785 -2.8298097 1.0810601 8.7251008e-39
-1.4097286 -2.8122323 1.0922117 1.0102633e-38
-1.4077613 -2.8379292 1.0904562 6.6132473e-39
-1.4125141 -2.7807381 1.1035695 9.9189553e-39
-1.4139986 -2.7780669 1.1352487 8.816572e-39
-1.4128163 -2.792511 1.1323798 7.8982184e-39
-1.4154645 -2.7650023 1.1475967 1.0194104e-38
-1.4134697 -2.7919559 1.1474488 9.6434516e-39
-1.4170784 -2.7500491 1.1601579 1.0469612e-38
-1.4161198 -2.7646902 1.1631563 1.1663111e-38
-1.4190764 -2.7318518 1.1762861 1.1938976e-38
-1.4179196 -2.7454696 1.172543 1.193862e-38
-1.420604 -2.7171016 1.1870931 1.1755304e-38
-1.4221514 -2.7039108 1.2012174 1.1755304e-38
-1.421221 -2.7179778 1.2038656 1.1663108e-38
-1.4228323 -2.7022398 1.214937 1.1663111e-38
-1.4257364 -2.6698332 1.2275629 1.166347e-38
-1.4246396 -2.6857948 1.2295533 1.1847501e-38
-1.4236404 -2.6991067 1.2291347 1.1020621e-38
-1.4263505 -2.669498 1.2420614 1.2214481e-38
-1.4252865 -2.685724 1.2453419 1.221484e-38
-1.4281222 -2.6524899 1.2547755 1.221484e-38
-1.427202 -2.6658616 1.2564127 1.2031169e-38
-1.4259813 -2.683646 1.2586638 1.1571634e-38
-1.4297243 -2.6394269 1.2704839 1.1847138e-38
-1.428896 -2.651655 1.2723016 1.1387603e-38
-1.4276938 -2.6667759 1.2701743 1.0928786e-38
-1.4304583 -2.6369064 1.2839644 1.1754945e-38
-1.4293847 -2.6524169 1.2857109 1.1938976e-38
-1.4321762 -2.6209173 1.2972049 1.1571633e-38
-1.4329357 -2.6181943 1.3109536 1.1571991e-38
-1.4353263 -2.5931814 1.3243629 1.1664544e-38
-1.4343497 -2.6057489 1.3231492 1.1572349e-38
-1.4382982 -2.5599089 1.3370806 1.0929149e-38
-1.4373559 -2.5745406 1.3404566 1.1388319e-38
-1.4363009 -2.5875919 1.3381953 1.1664546e-38
-1.4351416 -2.6048827 1.3410625 1.1204648e-38
-1.4389068 -2.5602856 1.3527397 1.1480154e-38
-1.4378521 -2.575675 1.3547288 1.138796e-38
-1.4405987 -2.5447993 1.3662531 1.1572353e-38
-1.4395916 -2.5588467 1.3669766 1.1572349e-38
-1.4423618 -2.5277169 1.3786221 1.056216e-38
-1.4414365 -2.5416684 1.3811823 1.1297204e-38
-1.4440473 -2.5126252 1.3926955 1.1113531e-38
-1.4429516 -2.5285087 1.394568 1.1020622e-38
-1.4419483 -2.542434 1.3951675 1.0836594e-38
-1.4446639 -2.5119889 1.4067153 1.0653635e-38
-1.443603 -2.5283306 1.4102798 1.1112096e-38
-1.4026831 -2.8897195 1.0595325 7.6382089e-39
-1.405213 -2.8609037 1.0694649 9.460868e-39
-1.4041926 -2.8745661 1.0691634 7.9007449e-39
-1.4033558 -2.8878362 1.072669 5.8900904e-39
-1.4024099 -2.8985808 1.0689002 9.8577549e-39
-1.4068793 -2.8460991 1.0835857 9.5523419e-39
-1.4058526 -2.8600917 1.0837288 8.6343485e-39
-1.4092611 -2.828836 1.1108495 1.0287386e-38
-1.4075489 -2.8548672 1.1159835 7.1671484e-39
-1.4061207 -2.8702855 1.1088338 6.4364259e-39
-1.40899 -2.8399034 1.1242764 7.8993044e-39
-1.4107734 -2.8246088 1.1403888 8.7258211e-39
-1.4145145 -2.7814827 1.1541438 1.0836953e-38
-1.4135765 -2.7955301 1.1565672 1.1022066e-38
-1.4117129 -2.8179374 1.1513921 8.7258211e-39
-1.415153 -2.7796886 1.1665958 1.1755308e-38
-1.4128739 -2.8081131 1.1621249 8.5417857e-39
-1.4166933 -2.7660816 1.1797945 1.2214125e-38
-1.4194524 -2.7357447 1.1926048 1.2489988e-38
-1.4183221 -2.751097 1.1926668 1.2122288e-38
-1.4202108 -2.7338634 1.2078499 1.1938979e-38
-1.4191105 -2.7487886 1.2078736 1.2214129e-38
-1.4219849 -2.7178349 1.2224023 1.1939335e-38
-1.4210205 -2.7303429 1.2213836 1.1663471e-38
-1.4227002 -2.7152386 1.2352884 1.1939336e-38
-1.4239122 -2.7058477 1.2480603 1.221556e-38
-1.4231201 -2.7176988 1.250091 1.1663832e-38
-1.4247334 -2.7018807 1.2610663 1.1571997e-38
-1.4282902 -2.6689329 1.288766 1.1846782e-38
-1.4273851 -2.6812906 1.288932 1.166383e-38
-1.4310437 -2.6381814 1.3006845 1.1938976e-38
-1.4299868 -2.6533246 1.3021715 1.1387963e-38
-1.4291356 -2.6655118 1.3033533 1.1020262e-38
-1.4317358 -2.6361902 1.3140976 1.1938976e-38
-1.4307674 -2.6518648 1.3187306 1.1296129e-38
-1.4323431 -2.6367662 1.3300894 1.1296126e-38
-1.4312717 -2.6525328 1.3323514 1.1387963e-38
-1.4339603 -2.6235523 1.3458935 1.1296485e-38
-1.4329765 -2.6368148 1.3457665 1.1388678e-38
-1.4367998 -2.5906701 1.3560603 1.1296126e-38
-1.4357395 -2.6063073 1.3583604 1.1480154e-38
-1.4346465 -2.6222286 1.3603715 1.1388319e-38
-1.4385054 -2.5749316 1.3694535 1.1571633e-38
-1.4374032 -2.5907292 1.3710158 1.1571631e-38
-1.4363475 -2.6066365 1.3739188 1.1479796e-38
-1.4391745 -2.5740731 1.38436 1.1296483e-38
-1.4380735 -2.5902381 1.3866183 1.1571633e-38
-1.4408097 -2.5598733 1.3988162 1.1205008e-38
-1.4397519 -2.5753763 1.4009333 1.0929142e-38
-1.4425499 -2.5436735 1.4122205 1.1296488e-38
-1.4414959 -2.5583994 1.4130249 1.1204649e-38
-1.4030678 -2.891804 1.0727831 6.9823928e-39
-1.4053986 -2.8759696 1.1013867 7.6252399e-39
-1.4070514 -2.8611302 1.1151134 8.8190957e-39
-1.4078529 -2.8584356 1.1299448 1.0289545e-38
-1.4070071 -2.8694575 1.1291428 6.4313854e-39
-1.408674 -2.855221 1.144308 8.4517607e-39
-1.4074529 -2.8708127 1.1425722 5.7006629e-39
-1.4111392 -2.8287253 1.1568635 9.7360115e-39
-1.4100878 -2.8428299 1.1566017 8.1758899e-39
-1.4137341 -2.8011348 1.1706178 9.459782e-39
-1.4126832 -2.8142984 1.1686653 1.0286662e-38
-1.4156297 -2.7818735 1.1822945 1.2397796e-38
-1.414555 -2.7976823 1.1845516 1.1664193e-38
-1.413465 -2.8137987 1.1869912 1.0745479e-38
-1.4172668 -2.7686052 1.1984868 1.248963e-38
-1.4160582 -2.7839212 1.1965572 1.2397796e-38
-1.41798 -2.7665565 1.2123169 1.2122291e-38
-1.4196274 -2.7512829 1.2251211 1.2030816e-38
-1.4186198 -2.7653563 1.2258817 1.1754952e-38
-1.4212204 -2.7376122 1.2395009 1.2215204e-38
-1.4202777 -2.7511535 1.2408897 1.1571997e-38
-1.4193112 -2.7633901 1.2393208 1.2398163e-38
-1.4218959 -2.7358625 1.2529409 1.1847864e-38
-1.4238743 -2.7175419 1.2683576 1.1571994e-38
-1.4226456 -2.7336774 1.2674237 1.2031892e-38
-1.4246107 -2.7147827 1.2814734 1.1388323e-38
-1.4261322 -2.7004797 1.2929403 1.1388323e-38
-1.4251812 -2.7141716 1.2944012 1.1480159e-38
-1.4240185 -2.7307582 1.2959061 1.1664191e-38
-1.4267482 -2.7006822 1.3084645 1.1296128e-38
-1.4290791 -2.6764035 1.3217399 1.1112455e-38
-1.4282714 -2.6862743 1.3197877 1.1479438e-38
-1.430123 -2.6690695 1.3341119 1.1296129e-38
-1.4318805 -2.6533425 1.3488027 1.1112455e-38
-1.4336849 -2.63728 1.3640407 1.157199e-38
-1.4327419 -2.6498911 1.3637334 1.1112454e-38
-1.4353176 -2.6230762 1.3784242 1.1204289e-38
-1.4368985 -2.6081939 1.3903064 1.1112095e-38
-1.4358971 -2.6225405 1.3917117 1.1387602e-38
-1.4392083 -2.5911269 1.4161512 1.1205008e-38
-1.4090506 -2.8586879 1.1598716 8.9116571e-39
-1.4081084 -2.8711843 1.1593748 5.8796494e-39
-1.4069736 -2.8879523 1.1618977 6.8116908e-39
-1.4116675 -2.8322024 1.1761761 8.9091305e-39
-1.4104701 -2.8478494 1.1751227 8.6347044e-39
-1.4096671 -2.8589795 1.1755707 7.7174313e-39
-1.4125113 -2.828743 1.1906593 9.8271254e-39
-1.4113272 -2.8448501 1.1907694 9.0013276e-39
-1.4151433 -2.7989392 1.2013086 1.2306321e-38
-1.4140619 -2.8148038 1.2035047 1.175783e-38
-1.4167256 -2.78667 1.2179675 1.1938984e-38
-1.4156275 -2.8002996 1.2156935 1.203082e-38
-1.4175926 -2.7826071 1.2319231 1.2122295e-38
-1.4188451 -2.7726748 1.2447098 1.2214852e-38
-1.4180663 -2.7845819 1.2471665 1.1939705e-38
-1.4209217 -2.7507124 1.2559319 1.2123727e-38
-1.4196968 -2.7682452 1.2576247 1.2399598e-38
-1.4187587 -2.7825763 1.2605643 1.2031899e-38
-1.4217253 -2.7495472 1.2735925 1.1848221e-38
-1.4205335 -2.7650685 1.272447 1.2215924e-38
-1.4232036 -2.7362149 1.2857624 1.1847861e-38
-1.4221739 -2.7509725 1.287218 1.2215201e-38
-1.4234835 -2.7398279 1.2992079 1.1572719e-38
-1.4255632 -2.7197945 1.3140075 1.1480157e-38
-1.4244336 -2.7333214 1.3107749 1.1296128e-38
-1.4273251 -2.7036865 1.3281175 1.1296128e-38
-1.4303436 -2.6735759 1.3477218 1.1938976e-38
-1.4289954 -2.6878819 1.3405228 1.1571274e-38
-1.4279387 -2.7031822 1.3423001 1.1847142e-38
-1.4312733 -2.664824 1.3547069 1.1938976e-38
-1.4306262 -2.6747181 1.356748 1.1112455e-38
-1.4319448 -2.663141 1.3681763 1.1663825e-38
-1.4341246 -2.6404312 1.380581 1.102026e-38
-1.4331019 -2.6554487 1.382681 1.1112095e-38
-1.4345425 -2.6425502 1.3947099 1.1112095e-38
-1.4337199 -2.6548653 1.3968284 1.102026e-38
-1.4365442 -2.6219964 1.406646 1.1479797e-38
-1.4355125 -2.6369925 1.4084893 1.1204289e-38
-1.4051195 -2.9083579 1.153321 6.4429041e-39
-1.4078885 -2.8772171 1.1649182 8.2695233e-39
-1.4085187 -2.8764992 1.1791207 8.2684443e-39
-1.4073277 -2.8924205 1.1787192 6.4335364e-39
-1.4067166 -2.9015319 1.1802264 8.9368776e-39
-1.4102126 -2.8612506 1.1931182 8.8187384e-39
-1.4130875 -2.8321943 1.2111038 1.1757827e-38
-1.4118993 -2.8464539 1.207757 1.1390491e-38
-1.4108064 -2.8630254 1.2109505 1.0931676e-38
-1.414638 -2.8166056 1.2209543 1.2215566e-38
-1.4138029 -2.8291202 1.2231224 1.1573438e-38
-1.4162841 -2.8022373 1.2353672 1.2214131e-38
-1.415204 -2.8169465 1.2354968 1.2031539e-38
-1.4142083 -2.8318486 1.2380524 1.2032259e-38
-1.4170562 -2.8002644 1.2507838 1.203118e-38
-1.4178574 -2.7963593 1.26341 1.2308126e-38
-1.419431 -2.7812226 1.2746475 1.1848225e-38
-1.4187586 -2.7916045 1.2769524 1.1297218e-38
-1.4210569 -2.7687821 1.2920666 1.2031533e-38
-1.4198449 -2.7834287 1.2888343 1.1847864e-38
-1.4228245 -2.7503157 1.3020334 1.2215204e-38
-1.4222289 -2.7597835 1.3045671 1.184858e-38
-1.4234289 -2.750488 1.3172175 1.1756025e-38
-1.4259659 -2.7238595 1.3312961 1.1847499e-38
-1.4249851 -2.7368491 1.3307472 1.1480156e-38
-1.4268076 -2.719629 1.3443276 1.1571633e-38
-1.4295191 -2.6912405 1.3595047 1.1571633e-38
-1.4283442 -2.7064304 1.3581759 1.1754945e-38
-1.4274396 -2.7206552 1.3617424 1.1938979e-38
-1.4312968 -2.6734149 1.3708844 1.1112457e-38
-1.4302509 -2.6893589 1.3740946 1.1663827e-38
-1.4319675 -2.6721103 1.3850189 1.0928424e-38
-1.4309305 -2.6874611 1.3873721 1.1571631e-38
-1.4325855 -2.6720309 1.4000789 1.102026e-38
-1.4340992 -2.6589451 1.4135656 1.0836589e-38
-1.4076427 -2.8956547 1.1923455 6.6150466e-39
-1.4090823 -2.8793585 1.1981816 8.81946e-39
-1.4081928 -2.8930085 1.2010758 7.3497292e-39
-1.4069312 -2.9093392 1.1996818 8.1953455e-39
-1.4110516 -2.8648801 1.2203517 1.1574886e-38
-1.4097202 -2.8787146 1.2127078 1.0566137e-38
-1.4083079 -2.8980775 1.2131097 7.735445e-39
-1.4122937 -2.8516486 1.2268896 1.1666359e-38
-1.4093821 -2.8905315 1.2258427 7.2607803e-39
-1.4080606 -2.905102 1.2197782 8.0102424e-39
-1.4130671 -2.8494327 1.2418965 1.1666e-38
-1.4090124 -2.9047081 1.242485 7.8132283e-39
-1.4157861 -2.8193443 1.2541761 1.2214852e-38
-1.4148674 -2.8323817 1.2552414 1.1665637e-38
-1.4175601 -2.8022807 1.2668464 1.239996e-38
-1.416707 -2.8151495 1.2692171 1.221593e-38
-1.4154068 -2.833837 1.2711556 1.2125171e-38
-1.4182677 -2.7997916 1.2797358 1.1664558e-38
-1.4172267 -2.8156886 1.2829854 1.1848585e-38
-1.4188706 -2.8000724 1.2950821 1.1756028e-38
-1.4216259 -2.7700205 1.308316 1.1572719e-38
-1.4205725 -2.7851067 1.3097869 1.1756388e-38
-1.4222212 -2.770751 1.3242899 1.148088e-38
-1.4239066 -2.7546263 1.3364847 1.1480876e-38
-1.4228716 -2.7704911 1.3398232 1.1848218e-38
-1.4257305 -2.7365084 1.3484699 1.1755664e-38
-1.4247063 -2.7505941 1.3488449 1.1756739e-38
-1.4238693 -2.7631502 1.3510439 1.1480873e-38
-1.4276718 -2.7228122 1.3713715 1.1479796e-38
-1.426301 -2.7375088 1.3643266 1.1663471e-38
-1.4253165 -2.7510674 1.3647163 1.0929144e-38
-1.4242586 -2.7664142 1.3665496 1.1387963e-38
-1.4289788 -2.7090087 1.3784702 1.1571631e-38
-1.4279872 -2.7233129 1.3800423 1.1663467e-38
-1.4297365 -2.7065907 1.3927271 1.1479796e-38
-1.4314065 -2.6907213 1.405005 1.1296483e-38
-1.4303417 -2.7069681 1.4083049 1.1664186e-38
-1.4331975 -2.6730857 1.4170567 1.0652918e-38
-1.4083664 -2.9002895 1.2185675 6.8023217e-39
-1.4074824 -2.9119439 1.2179747 6.5325816e-39
-1.4112991 -2.8674521 1.23111 1.1850387e-38
-1.4103104 -2.8803959 1.2302849 1.1391576e-38
-1.4092066 -2.8966253 1.2325902 8.1812975e-39
-1.4082487 -2.9103315 1.2339019 1.0214289e-38
-1.4119947 -2.8653438 1.2443998 1.1114271e-38
-1.410912 -2.8811219 1.2464036 9.738901e-39
-1.4098728 -2.8958919 1.247649 9.2797277e-39
-1.4090779 -2.9063203 1.2470225 7.1689449e-39
-1.4137043 -2.8494811 1.2576628 1.1297577e-38
-1.412606 -2.865001 1.2588173 1.1573805e-38
-1.4093913 -2.9072838 1.2564877 8.2842944e-39
-1.4143596 -2.8490589 1.2730225 1.1757474e-38
-1.4131395 -2.8663976 1.2744817 9.8292862e-39
-1.4121479 -2.8775911 1.2704041 7.7177886e-39
-1.4160215 -2.8344803 1.2874478 1.1848587e-38
-1.4149443 -2.8501332 1.2893604 1.1849666e-38
-1.4139477 -2.8633351 1.2888067 1.1484126e-38
-1.4127188 -2.8757846 1.2811713 8.4524698e-39
-1.4175326 -2.8213029 1.3007021 1.1940778e-38
-1.4194702 -2.8016527 1.3127048 1.2215927e-38
-1.4183738 -2.8170187 1.3136269 1.1664198e-38
-1.4212773 -2.7869494 1.330476 1.1297567e-38
-1.4201214 -2.8022337 1.3297845 1.1205381e-38
-1.4219775 -2.7845712 1.3433858 1.1021701e-38
-1.4224803 -2.7846954 1.3559854 1.1022056e-38
-1.423094 -2.7831154 1.3682158 1.0928788e-38
-1.4268836 -2.7401319 1.383425 1.166383e-38
-1.425966 -2.752897 1.3840204 1.1204292e-38
-1.4245218 -2.7684324 1.376693 1.056216e-38
-1.4285896 -2.7242076 1.3964895 1.1663467e-38
-1.4277216 -2.7366304 1.3976865 1.1663467e-38
-1.4264752 -2.7545152 1.3994859 1.1847138e-38
-1.4294173 -2.7223127 1.4134136 1.1204649e-38
-1.4283667 -2.7354414 1.4114019 1.138796e-38
-1.4087673 -2.9125459 1.2506834 7.810357e-39
-1.4078079 -2.9264362 1.2522985 9.5768465e-39
-1.411532 -2.8816411 1.2626065 1.0564341e-38
-1.4103734 -2.8985429 1.2647821 8.3624434e-39
-1.4084456 -2.9246757 1.2647926 1.003602e-38
-1.4077618 -2.9370797 1.2704858 1.5763345e-38
-1.412115 -2.8825319 1.2785641 1.0932755e-38
-1.4111149 -2.8963392 1.2790257 8.3620804e-39
-1.4140174 -2.8664875 1.2962452 1.1299736e-38
-1.4128695 -2.8799422 1.2924299 1.0382108e-38
-1.4163252 -2.8402858 1.3054608 1.1205384e-38
-1.4153426 -2.8532953 1.3049011 1.1481966e-38
-1.4172088 -2.8360891 1.319585 1.1664557e-38
-1.4189121 -2.8217466 1.3354533 1.1757111e-38
-1.4205947 -2.8056126 1.3475642 1.1941138e-38
-1.4212699 -2.8039293 1.3611233 1.0746196e-38
-1.4219562 -2.8017981 1.3741401 1.1205011e-38
-1.4247699 -2.7702386 1.3860765 1.1204292e-38
-1.4235792 -2.7876189 1.3883324 1.0837309e-38
-1.4227042 -2.7999091 1.3891175 1.1020981e-38
-1.4255517 -2.7699037 1.4047025 1.056216e-38
-1.4245048 -2.7830226 1.4027643 1.0838385e-38
-1.4270182 -2.7561848 1.4158802 1.1112454e-38
-1.4075594 -2.9321244 1.2565107 8.7373538e-39
-1.4094478 -2.9154763 1.2727497 8.7308644e-39
-1.4083138 -2.9296756 1.2706258 1.076746e-38
-1.410118 -2.9128933 1.2845494 8.8219796e-39
-1.4087783 -2.9307716 1.2840444 1.0588835e-38
-1.4080174 -2.9395454 1.2812549 1.373539e-38
-1.4116323 -2.8997993 1.2980405 9.7406933e-39
-1.4095269 -2.9279826 1.2974037 1.0221857e-38
-1.4087185 -2.9372661 1.2943653 1.3274409e-38
-1.4145033 -2.8695655 1.3137931 1.1574882e-38
-1.4134429 -2.8825629 1.3112936 1.139157e-38
-1.4122686 -2.8999107 1.3138987 9.8300148e-39
-1.4160486 -2.8551199 1.3255899 1.1297216e-38
-1.4149878 -2.8704238 1.3272711 1.1941861e-38
-1.4175644 -2.8418112 1.3387201 1.1481246e-38
-1.4195129 -2.8219724 1.350646 1.1022782e-38
-1.4184152 -2.8373468 1.351553 1.1848947e-38
-1.4199135 -2.8251042 1.3661911 1.1021706e-38
-1.4190927 -2.8369009 1.3674136 1.1757106e-38
-1.4208981 -2.8179536 1.3774337 1.0837672e-38
-1.4198916 -2.8330979 1.3801637 1.1114259e-38
-1.4215695 -2.8166263 1.3915447 1.0653282e-38
-1.4209725 -2.8257828 1.3934795 1.0562162e-38
-1.4232045 -2.8031566 1.4073232 1.1296844e-38
-1.4221987 -2.8170938 1.4078757 1.0837672e-38
-1.410543 -2.9162965 1.3011857 9.9243643e-39
-1.4125007 -2.9018738 1.3231745 9.9225692e-39
-1.4113226 -2.9147449 1.3175539 8.7301371e-39
-1.4102546 -2.9279337 1.31522 7.1729091e-39
-1.4093719 -2.9403353 1.3160152 1.2532516e-38
-1.4137124 -2.8892393 1.3300488 1.0197355e-38
-1.4128052 -2.9029238 1.3325723 1.0288832e-38
-1.4118032 -2.9162943 1.3321959 9.9236398e-39
-1.4107403 -2.929893 1.3307273 1.0408776e-38
-1.4166473 -2.8561668 1.3422222 1.1297215e-38
-1.4154373 -2.8733954 1.343729 1.1391213e-38
-1.414399 -2.8865275 1.3420237 1.1391573e-38
-1.4107869 -2.9356213 1.342278 1.3365885e-38
-1.4173405 -2.8541353 1.3555926 1.1850027e-38
-1.4161935 -2.8707576 1.3575472 1.0565053e-38
-1.4180028 -2.8531067 1.3700176 1.0930948e-38
-1.4169675 -2.8684957 1.3724836 1.0289544e-38
-1.4186252 -2.8528347 1.3848397 1.1299004e-38
-1.417572 -2.8683815 1.3871495 1.1300446e-38
-1.4201938 -2.8388841 1.3981081 1.0838026e-38
-1.4192671 -2.8529794 1.4008961 1.0562164e-38
-1.4210032 -2.8349521 1.4108849 1.0928788e-38
-1.4110335 -2.9321678 1.3420748 8.1856107e-39
-1.4134619 -2.9020684 1.3471792 1.0013687e-38
-1.4123385 -2.9184973 1.3493656 8.7323021e-39
-1.4111873 -2.9342651 1.3496664 9.7579951e-39
-1.4151688 -2.8862877 1.3605285 1.0105877e-38
-1.4140681 -2.9021127 1.3621767 1.0840921e-38
-1.411064 -2.9426472 1.3618501 1.1981863e-38
-1.4158022 -2.8874753 1.3782687 1.0657605e-38
-1.4117583 -2.9405296 1.3750904 1.3644276e-38
-1.4166137 -2.8836355 1.391265 1.084091e-38
-1.41813 -2.8700516 1.4039134 1.0104781e-38
-1.4199259 -2.8520555 1.4154314 1.0654001e-38
-1.4129646 -2.9194832 1.3665606 9.4644735e-39
-1.4119548 -2.9334211 1.3670192 7.4455205e-39
-1.4113978 -2.9414787 1.3679425 7.0875546e-39
-1.4146545 -2.9042535 1.3804891 1.1024232e-38
-1.4136144 -2.9190378 1.3817389 1.0015124e-38
-1.4113842 -2.9478602 1.3791943 1.2629401e-38
-1.4151423 -2.9054613 1.3946879 9.1893202e-39
-1.4122753 -2.9453218 1.3965132 1.0043225e-38
-1.4170642 -2.886133 1.4068842 1.0013666e-38
-1.4159577 -2.9016373 1.4078107 9.3715422e-39
-1.4133441 -2.937346 1.4083292 8.1060296e-39
-1.4123784 -2.9386728 1.3869808 8.0934151e-39
-1.4112624 -2.9534075 1.3862716 9.2980918e-39
-1.414192 -2.9205456 1.3986897 1.0567211e-38
-1.4131439 -2.9354031 1.3998765 8.9159661e-39
-1.4117961 -2.9505584 1.3942279 7.4570546e-39
-1.4147979 -2.9205823 1.4136684 9.1893146e-39
-1.4139576 -2.9325647 1.4147434 6.2541856e-39
-1.4154626 -2.3523431 0.39832315 1.9267462e-38
-1.4165894 -2.3477392 0.41769481 1.972916e-38
-1.4169048 -2.3508224 0.43105119 1.9635885e-38
-1.4180992 -2.3526189 0.46370056 1.9822076e-38
-1.4078418 -2.3571613 0.2195553 2.0188691e-38
-1.4085642 -2.3548007 0.23304091 2.0925895e-38
-1.4091998 -2.3567681 0.25225672 1.9819912e-38
-1.4099728 -2.3537292 0.26575842 2.0004302e-38
-1.4103526 -2.3559492 0.27913526 2.019013e-38
-1.4106503 -2.3592479 0.29244763 2.0190132e-38
-1.409584 -2.3735187 0.29212284 2.2215913e-38
-1.4110035 -2.3618453 0.30585441 2.0832256e-38
-1.4097003 -2.3674233 0.2839146 2.1663467e-38
-1.4104776 -2.364749 0.29818875 2.2676895e-38
-1.4111866 -2.3632805 0.3129665 2.0926977e-38
-1.4119582 -2.3592341 0.3246043 2.0927337e-38
-1.410991 -2.3666751 0.31431776 2.0835142e-38
-1.4120148 -2.3619587 0.33094698 2.074259e-38
-1.4125981 -2.3614566 0.34438851 2.0190137e-38
-1.4116101 -2.3770864 0.34845197 2.2308473e-38
-1.4132509 -2.3613389 0.36023897 2.0374527e-38
-1.4120848 -2.3756547 0.35753357 2.0923016e-38
-1.4127735 -2.3724482 0.36866155 2.1108849e-38
-1.4123291 -2.3691885 0.35180482 2.1203927e-38
-1.4122261 -2.3769076 0.36328405 2.2309194e-38
-1.4129456 -2.3745804 0.37676889 2.0374525e-38
-1.4143274 -2.3621874 0.38826546 1.8347663e-38
-1.4146599 -2.3736753 0.41730303 1.9537206e-38
-1.4141237 -2.3692799 0.39612663 2.0282692e-38
-1.4151745 -2.3625386 0.40974677 1.9729879e-38
-1.41537 -2.3648102 0.41867936 2.1757105e-38
-1.4147989 -2.3748643 0.42288372 2.2124807e-38
-1.4162022 -2.3619051 0.43388247 1.9176348e-38
-1.415242 -2.3757544 0.43540308 2.1386522e-38
-1.4163961 -2.3745549 0.46162453 1.972592e-38
-1.4154645 -2.3686388 0.42795911 2.1664909e-38
-1.4165332 -2.3621342 0.44244838 2.0743312e-38
-1.4169818 -2.3645651 0.45789415 2.0927703e-38
-1.4168195 -2.3729086 0.46905175 2.0925904e-38
-1.4176813 -2.368679 0.4825817 2.0280889e-38
-1.4169683 -2.371289 0.46977195 2.138904e-38
-1.4164263 -2.3813391 0.47468439 2.1388678e-38
-1.4179502 -2.3682246 0.48836684 2.0652194e-38
-1.4171891 -2.3812876 0.49336115 2.1664189e-38
-1.4175676 -2.3818114 0.50362223 1.7234473e-38
-1.4189041 -2.3700988 0.51524001 1.9544048e-38
-1.4195471 -2.3687956 0.52870047 2.0466365e-38
-1.4170856 -2.3829923 0.4939076 2.1573068e-38
-1.4174118 -2.385833 0.50709426 2.1572356e-38
-1.4180615 -2.3848171 0.52123153 2.129577e-38
-1.4188329 -2.3813686 0.53395349 2.1572714e-38
-1.4205862 -2.3664873 0.55007827 1.7517193e-38
-1.4197798 -2.3789909 0.55293489 1.8344786e-38
-1.4189812 -2.3827085 0.5400359 2.1296851e-38
-1.4204464 -2.3693137 0.55176848 1.6502681e-38
-1.4195486 -2.3833799 0.55521548 2.1113183e-38
-1.4210325 -2.3691423 0.56587893 1.7056215e-38
-1.420101 -2.3810565 0.56459236 2.120502e-38
-1.4195033 -2.3903248 0.56671417 2.1294681e-38
-1.4216452 -2.3705184 0.5834527 1.7886342e-38
-1.4207342 -2.3812068 0.58044308 2.0925911e-38
-1.4223385 -2.3684812 0.59681737 1.9452953e-38
-1.4211172 -2.3802013 0.58804423 2.037346e-38
-1.4206368 -2.3758838 0.56838089 1.7885264e-38
-1.420132 -2.3843558 0.5713461 2.1020626e-38
-1.4209487 -2.3814621 0.58618701 2.1388691e-38
-1.4214038 -2.3826761 0.59958774 2.1204297e-38
-1.4229786 -2.3695936 0.61458677 1.8992694e-38
-1.4236567 -2.368484 0.62925678 1.8623545e-38
-1.4207506 -2.3872845 0.59188163 2.0006115e-38
-1.422286 -2.3750048 0.60736614 1.6778915e-38
-1.4223903 -2.3799505 0.6189149 1.9176725e-38
-1.4230183 -2.37885 0.63237053 1.87161e-38
-1.4317482 -2.3801389 0.84951818 1.5768736e-38
-1.4319513 -2.3799059 0.85409242 1.1896503e-38
-1.4324117 -2.3817351 0.8687427 1.5123715e-38
-1.4332173 -2.378258 0.88225484 1.5400669e-38
-1.4336727 -2.3794699 0.89565563 1.5492142e-38
-1.4326534 -2.3815536 0.87436181 9.7752759e-39
-1.433329 -2.3799112 0.88799983 1.1066743e-38
-1.4341273 -2.3773701 0.90303165 1.1804667e-38
-1.4344577 -2.3794403 0.91491878 1.5031891e-38
-1.4341602 -2.3900859 0.92693049 1.5305587e-38
-1.4350179 -2.3877318 0.94375902 1.5861285e-38
-1.4341403 -2.3812318 0.91036147 1.0051867e-38
-1.4342959 -2.3847747 0.92062491 1.3464563e-38
-1.4347476 -2.3860343 0.93402457 1.466201e-38
-1.4353399 -2.3854096 0.947469 1.5861285e-38
-1.4356929 -2.3882966 0.96139163 1.6413744e-38
-1.434873 -2.3875277 0.93982208 1.3279801e-38
-1.4357502 -2.3827896 0.95280731 1.0421012e-38
-1.4360251 -2.386719 0.96670038 1.4754946e-38
-1.4363264 -2.3892655 0.97873998 1.5215561e-38
-1.4368485 -2.3906913 0.99417871 1.613679e-38
-1.4361559 -2.3886549 0.97343999 1.0143337e-38
-1.435815 -2.399173 0.98414463 1.4939337e-38
-1.4366441 -2.3966818 1.0000222 1.4661297e-38
-1.4378904 -2.3868392 1.0128189 1.4662746e-38
-1.4383482 -2.388015 1.0262207 1.5308474e-38
-1.4385256 -2.3926909 1.0390708 1.5582166e-38
-1.4379147 -2.389683 1.0185844 1.3003226e-38
-1.4382424 -2.3926024 1.0319446 1.2633354e-38
-1.4388007 -2.3939114 1.0480578 1.4567644e-38
-1.4389466 -2.3977847 1.0586808 1.7703732e-38
-1.4385877 -2.4063232 1.0653541 1.8073241e-38
-1.438728 -2.3965793 1.0511125 1.1986896e-38
-1.4390184 -2.3998847 1.0642619 1.4658392e-38
-1.4394172 -2.4098098 1.0920926 1.6780328e-38
-1.4400645 -2.409255 1.1070155 1.6964725e-38
-1.4396263 -2.4028735 1.0846456 1.1431898e-38
-1.4403087 -2.4005857 1.0972821 1.106275e-38
-1.4399617 -2.4124501 1.110287 1.9638039e-38
-1.4412127 -2.4030166 1.1239406 1.7334955e-38
-1.4407276 -2.4081981 1.1214107 1.7334955e-38
-1.441934 -2.4006686 1.1374259 1.6966529e-38
-1.4412646 -2.4111974 1.1400701 2.0929509e-38
-1.4407201 -2.4051704 1.1157295 9.9556847e-39
-1.4414297 -2.4038987 1.1308812 1.2261661e-38
-1.4421343 -2.4006419 1.1423064 1.3738242e-38
-1.4409945 -2.4144495 1.1393284 2.0929509e-38
-1.4429543 -2.3980343 1.1577456 1.2723354e-38
-1.4417981 -2.4126298 1.1558009 1.7702653e-38
-1.4433591 -2.3993773 1.1701484 1.6412271e-38
-1.441909 -2.4073462 1.1489331 1.4659841e-38
-1.4425718 -2.4057796 1.1623998 1.4473645e-38
-1.4431523 -2.4039702 1.1733994 1.5950575e-38
-1.4440078 -2.4011717 1.1893684 1.5306644e-38
-1.4437745 -2.411603 1.2025652 1.7516458e-38
-1.4432582 -2.4070408 1.1815782 9.0337284e-39
-1.4436449 -2.4091971 1.1950105 1.3461644e-38
-1.44405 -2.4110799 1.2083955 1.4752029e-38
-1.4441086 -2.4156418 1.2181189 1.5858374e-38
-1.4455016 -2.4165807 1.2541033 1.6043126e-38
-1.4488649 -2.4085622 1.3223006 7.6500765e-39
-1.4494959 -2.4066012 1.3342659 8.572023e-39
-1.4486234 -2.4178674 1.3332531 9.6765741e-39
-1.450352 -2.4028316 1.3484862 3.0388432e-39
-1.4500018 -2.4139457 1.360051 4.6040123e-39
-1.4482689 -2.4184349 1.3255593 1.1339708e-38
-1.4502163 -2.3996835 1.3394339 6.1742149e-39
-1.4485815 -2.4217403 1.3392535 1.1521214e-38
-1.4511404 -2.3947585 1.3532294 3.315077e-39
-1.4493314 -2.4197404 1.354076 4.1451908e-39
-1.4504547 -2.4182019 1.3789233 2.9398177e-39
-1.4126642 -2.3553381 0.33490103 1.9636601e-38
-1.413101 -2.3515594 0.3387906 1.9636601e-38
-1.4136847 -2.3510511 0.35223225 1.991319e-38
-1.4136899 -2.3556945 0.36078981 1.9450771e-38
-1.4145337 -2.3562686 0.38259611 1.9821353e-38
-1.4157243 -2.3520143 0.40416375 1.9452573e-38
-1.417362 -2.3551795 0.45021021 1.9083791e-38
-1.4174112 -2.3617365 0.46332955 2.0004665e-38
-1.3742938 -2.375073 -0.57341468 9.0992783e-39
-1.3760251 -2.3609767 -0.55641007 1.1963822e-38
-1.3718221 -2.4071164 -0.57605332 7.5305107e-39
-1.3732675 -2.3920603 -0.56782168 7.807099e-39
-1.3749412 -2.3775654 -0.55295998 9.0985581e-39
-1.3765548 -2.3626418 -0.54035133 9.8372021e-39
-1.3755656 -2.3771696 -0.5383147 9.4695e-39
-1.3771859 -2.3604033 -0.52888399 1.1591797e-38
-1.3661159 -2.4692624 -0.60363084 7.7141831e-39
-1.3646806 -2.485148 -0.61010784 7.6223462e-39
-1.3679544 -2.4547389 -0.58476144 7.0713346e-39
-1.3693793 -2.4403257 -0.57587206 7.0713332e-39
-1.3721408 -2.409106 -0.56460553 7.5305107e-39
-1.3710684 -2.4241879 -0.56360567 7.4386766e-39
-1.3699832 -2.4407954 -0.56015772 7.4386766e-39
-1.3738363 -2.3936875 -0.55087507 9.2818675e-39
-1.3727615 -2.4094086 -0.54878318 7.6223462e-39
-1.3717139 -2.4242294 -0.54764867 7.4386752e-39
-1.3742309 -2.3967638 -0.53558278 7.7141831e-39
-1.3734113 -2.4087534 -0.5339793 7.7145404e-39
-1.3761959 -2.3771591 -0.52282506 9.7482477e-39
-1.3751411 -2.3920333 -0.52177322 7.8982114e-39
-1.377883 -2.3620236 -0.5087921 1.0763117e-38
-1.3768988 -2.3751831 -0.50911772 1.0023032e-38
-1.3593544 -2.5493448 -0.62461168 7.2553643e-39
-1.3629757 -2.5076439 -0.61121595 7.5308708e-39
-1.3620032 -2.5187867 -0.614914 7.5308708e-39
-1.3609021 -2.5325265 -0.61706352 7.4390339e-39
-1.3627433 -2.5185914 -0.59706086 7.0716933e-39
-1.3654006 -2.4891782 -0.58507311 6.9794977e-39
-1.3644295 -2.5034823 -0.58300096 6.7958267e-39
-1.3690653 -2.4551053 -0.55676061 7.2550042e-39
-1.3704141 -2.4436257 -0.54441589 7.2550042e-39
-1.3694999 -2.4577727 -0.54122686 7.6223462e-39
-1.3723459 -2.4241617 -0.53222001 8.0815237e-39
-1.3712566 -2.4393582 -0.53143328 7.8978527e-39
-1.3741519 -2.409946 -0.51359397 7.8067346e-39
-1.3729929 -2.4240324 -0.51653826 8.1737179e-39
-1.3757108 -2.3941882 -0.5038389 7.6227049e-39
-1.3748674 -2.4066529 -0.5019604 8.1740766e-39
-1.377412 -2.3785946 -0.49029446 1.0667682e-38
-1.3763611 -2.3929801 -0.49003443 8.1744354e-39
-1.3788649 -2.3669379 -0.47571054 1.1223375e-38
-1.3778602 -2.3794055 -0.47779614 1.1222295e-38
-1.3796486 -2.3639951 -0.46176696 9.7457225e-39
-1.378659 -2.3790183 -0.4588415 1.1128656e-38
-1.3581738 -2.5673144 -0.62103283 7.3468411e-39
-1.3570977 -2.5799751 -0.62452281 7.1631729e-39
-1.3599831 -2.5494065 -0.6090309 6.1533384e-39
-1.3593992 -2.5580084 -0.60778075 6.9794991e-39
-1.3621024 -2.5291278 -0.59369475 7.1631687e-39
-1.3605152 -2.5497727 -0.59526807 7.0713332e-39
-1.3634466 -2.5170724 -0.58250815 7.6223476e-39
-1.3677959 -2.4734616 -0.55466986 7.4386752e-39
-1.3668728 -2.4875355 -0.55183375 7.2550042e-39
-1.3684262 -2.473376 -0.53931379 7.1631687e-39
-1.369995 -2.4597321 -0.52548611 7.3468397e-39
-1.3718656 -2.4410381 -0.5133962 7.8982114e-39
-1.3707919 -2.4560645 -0.51253939 7.1635274e-39
-1.3735448 -2.4261615 -0.49908844 8.6328954e-39
-1.3724896 -2.4415359 -0.4971388 7.7148991e-39
-1.3751527 -2.4132979 -0.48287705 8.2666296e-39
-1.3740333 -2.4269333 -0.48567057 8.4506593e-39
-1.3769245 -2.3957057 -0.471221 8.4506607e-39
-1.3760734 -2.4083197 -0.46926236 8.7261672e-39
-1.3775463 -2.3946342 -0.45786527 8.633973e-39
-1.379077 -2.3819788 -0.44317871 1.0941743e-38
-1.3799546 -2.3774533 -0.42980573 9.1907439e-39
-1.3522991 -2.6428638 -0.62841845 6.7958281e-39
-1.3559208 -2.5987828 -0.61933851 7.3468411e-39
-1.355076 -2.6117299 -0.61661941 7.0713346e-39
-1.3577628 -2.583132 -0.60242867 6.7043514e-39
-1.3661977 -2.5064552 -0.53409213 7.1635274e-39
-1.3711375 -2.4620569 -0.49315163 8.2666296e-39
-1.370241 -2.4759109 -0.49005818 8.6332555e-39
-1.3730741 -2.4427269 -0.4805963 8.2669897e-39
-1.3720173 -2.4578681 -0.47910994 8.3581077e-39
-1.3747849 -2.4268112 -0.46739492 8.8183614e-39
-1.3736963 -2.443167 -0.46448532 8.4495845e-39
-1.3726192 -2.4587712 -0.462659 8.3588252e-39
-1.3764435 -2.4126074 -0.45237073 9.1857034e-39
-1.3753934 -2.4275184 -0.45113787 8.9098382e-39
-1.3743361 -2.4426548 -0.44967103 9.1853447e-39
-1.3781456 -2.3969831 -0.43885899 8.8172866e-39
-1.3770945 -2.4117758 -0.43786135 9.0020324e-39
-1.3760412 -2.4269316 -0.43626502 9.0931505e-39
-1.3789309 -2.3957922 -0.42169473 8.7261686e-39
-1.3779947 -2.4079094 -0.42273566 8.9101969e-39
-1.380281 -2.3834848 -0.41082099 1.011198e-38
-1.379409 -2.3968685 -0.40797907 9.0009562e-39
-1.381161 -2.3790429 -0.39723355 1.1310532e-38
-1.3519804 -2.6466038 -0.62947321 6.7958281e-39
-1.350966 -2.6601064 -0.62991887 6.4284847e-39
-1.3528258 -2.6462481 -0.60931402 6.153337e-39
-1.3708315 -2.4777536 -0.47218311 8.3581077e-39
-1.3732171 -2.4597166 -0.44623092 8.817644e-39
-1.372147 -2.4753852 -0.44411483 8.7261686e-39
-1.3749124 -2.4451823 -0.43090734 8.817644e-39
-1.3738469 -2.4598277 -0.4305321 8.5417801e-39
-1.376788 -2.4277976 -0.41631368 9.2771802e-39
-1.375823 -2.439959 -0.41798437 8.9094809e-39
-1.3782836 -2.4147413 -0.40322012 9.2775389e-39
-1.3772464 -2.4287245 -0.40335381 9.2771802e-39
-1.3800642 -2.3960383 -0.39336228 8.3581063e-39
-1.3791411 -2.4104633 -0.38989165 9.1853447e-39
-1.3817574 -2.3807032 -0.37954277 1.3801614e-38
-1.3806316 -2.3975959 -0.37657386 8.7261672e-39
-1.3823856 -2.3811057 -0.36335573 9.647762e-39
-1.3812966 -2.3969388 -0.36140147 9.0927903e-39
-1.3485415 -2.6905184 -0.63435924 5.969666e-39
-1.3473409 -2.7069223 -0.63411731 5.7856363e-39
-1.3500133 -2.6783047 -0.62031913 4.4999393e-39
-1.351702 -2.6629543 -0.60663658 6.3366506e-39
-1.3506536 -2.6763809 -0.60805404 5.9693087e-39
-1.3693759 -2.5066185 -0.45559102 8.2666296e-39
-1.3682647 -2.5234494 -0.45237958 9.0016737e-39
-1.3710265 -2.4926503 -0.44033784 8.3584651e-39
-1.3725135 -2.4791431 -0.42827186 8.3588252e-39
-1.3716778 -2.4918983 -0.42567858 7.7152579e-39
-1.3745044 -2.4589224 -0.41599524 8.7258085e-39
-1.3734268 -2.4744246 -0.41436636 8.7254497e-39
-1.3762052 -2.4433422 -0.4024367 9.3686583e-39
-1.3751087 -2.4597881 -0.39955321 8.8183614e-39
