# .PCD v0.7 - Point Cloud Data file format
VERSION 0.7
FIELDS x y z rgb
SIZE 4 4 4 4
TYPE F F F F
COUNT 1 1 1 1
WIDTH 1062
HEIGHT 1
VIEWPOINT 0 0 0 1 0 0 0
POINTS 1062
DATA ascii
1.3938373 -2.2737744 0.69366693 1.9362905e-38
1.4123139 -2.2731123 0.69009531 2.0744394e-38
1.4038886 -2.2738867 0.70531183 1.9363626e-38
1.4120163 -2.2740755 0.71755236 1.9178876e-38
1.4124976 -2.2745781 0.73240525 1.9639492e-38
1.4205124 -2.2747836 0.74503106 1.9178517e-38
1.4253196 -2.2751181 0.75867957 2.0192662e-38
1.4273504 -2.2755389 0.77247626 2.0653283e-38
1.441378 -2.2756166 0.78646129 2.0561088e-38
1.4439957 -2.275995 0.79953361 1.8809017e-38
1.45499 -2.2762098 0.81492794 1.7702668e-38
1.4609113 -2.2765293 0.8290742 1.7056577e-38
1.4667083 -2.2768297 0.84256315 1.5856952e-38
1.4747874 -2.2770095 0.85450077 1.6317208e-38
1.4803525 -2.277282 0.86700106 1.585659e-38
1.4799263 -2.2773879 0.8696903 1.6133537e-38
1.4779367 -2.2778769 0.8820883 1.567148e-38
1.4788637 -2.2784381 0.89900839 1.6595236e-38
1.4891346 -2.2785208 0.90998787 1.3918319e-38
1.6723564 -2.2865388 1.2940364 1.0785852e-38
1.673578 -2.2872059 1.3142494 1.097237e-38
1.7121007 -2.2887061 1.3896556 1.1800704e-38
1.3759714 -2.2743146 0.69424659 1.9178876e-38
1.3869102 -2.2745581 0.71040487 1.9823522e-38
1.3929107 -2.2748888 0.72494084 2.0008273e-38
1.3987725 -2.2751634 0.7377494 2.028486e-38
1.4045792 -2.2754691 0.7514081 1.9363267e-38
1.4106874 -2.2757668 0.76508921 1.9455102e-38
1.4144427 -2.2761271 0.77859509 2.0100112e-38
1.421477 -2.2763963 0.79222798 1.8994845e-38
1.4381692 -2.2768395 0.81895083 2.0468178e-38
1.4406425 -2.2772319 0.832313 1.8348758e-38
1.4500855 -2.2774811 0.84738129 1.7517556e-38
1.4575374 -2.2776899 0.8596347 1.8162929e-38
1.4625027 -2.2780874 0.87522125 1.8071095e-38
1.4739338 -2.2782083 0.88826865 1.7702312e-38
1.477824 -2.278609 0.90305662 1.6871827e-38
1.4778874 -2.2791307 0.91811198 1.4842074e-38
1.4829299 -2.2789302 0.91656852 1.6226455e-38
1.5029814 -2.2797608 0.95725286 1.3546991e-38
1.5067887 -2.2799315 0.96535063 1.2161163e-38
1.6541765 -2.287328 1.3015109 1.2813416e-38
1.6629442 -2.2873952 1.3107913 1.2813057e-38
1.6815813 -2.2888145 1.3672204 1.2075493e-38
1.3485267 -2.2745173 0.67709213 2.1111004e-38
1.3591294 -2.2746892 0.69091469 2.0375618e-38
1.3652999 -2.274893 0.70194376 2.0836951e-38
1.3724122 -2.2751641 0.71569985 1.890229e-38
1.3768611 -2.275506 0.72925729 1.9270711e-38
1.3849018 -2.2757311 0.74246269 1.9455102e-38
1.3895401 -2.2761409 0.7581417 1.9455102e-38
1.4005877 -2.276716 0.78392935 1.8902649e-38
1.4158006 -2.2772479 0.81197232 1.8718258e-38
1.4173197 -2.2776945 0.8260808 1.8718259e-38
1.4256083 -2.2778916 0.83869803 1.8349481e-38
1.4404424 -2.277854 0.85003543 1.8073253e-38
1.4402444 -2.2784631 0.86739111 1.945367e-38
1.4470053 -2.2787037 0.87997055 1.8716464e-38
1.4544607 -2.2789304 0.89273608 1.8624267e-38
1.4646773 -2.2791545 0.90773964 1.7978176e-38
1.4690654 -2.2794981 0.9212926 1.8163652e-38
1.4678881 -2.2799008 0.93189096 1.5765478e-38
1.4755887 -2.2801573 0.94572097 1.6503047e-38
1.483276 -2.2805007 0.96202946 1.5119388e-38
1.4868747 -2.280865 0.97552353 1.4288543e-38
1.4949011 -2.2810678 0.98808366 1.3919044e-38
1.6307136 -2.2876399 1.2908411 1.3827925e-38
1.6339966 -2.288038 1.3050364 1.3366595e-38
1.6402129 -2.2876797 1.2999415 1.3457709e-38
1.651312 -2.2884004 1.329965 1.1704907e-38
1.6545676 -2.2883728 1.3318963 1.2534668e-38
1.655898 -2.2888098 1.3455755 1.2259885e-38
1.662794 -2.2892776 1.3648102 1.2075493e-38
1.659482 -2.2897291 1.3750209 1.1984742e-38
1.6701001 -2.2893403 1.3727318 1.235208e-38
1.6772578 -2.2896166 1.3866676 1.216805e-38
1.6832048 -2.2900996 1.4055506 1.1614881e-38
1.6889337 -2.2902346 1.4142287 1.1523043e-38
1.3340302 -2.2750683 0.68080223 2.0834786e-38
1.3405305 -2.274847 0.67988247 2.0096133e-38
1.3477415 -2.2751024 0.69326514 2.0467812e-38
1.3512614 -2.2754123 0.70512593 2.0008276e-38
1.3551525 -2.2758045 0.71967345 1.908668e-38
1.3598855 -2.276196 0.73488587 1.8902646e-38
1.3729414 -2.2767508 0.76178396 1.927107e-38
1.380059 -2.2770019 0.77496105 1.890193e-38
1.3875035 -2.2772841 0.78932124 1.8994126e-38
1.3900265 -2.2776899 0.80309904 1.8626063e-38
1.3967913 -2.2779574 0.81646532 1.8534226e-38
1.4037799 -2.2782321 0.83021212 1.8350197e-38
1.4110246 -2.2784336 0.84207916 1.8349837e-38
1.4160761 -2.2788193 0.85739744 1.9086325e-38
1.4228153 -2.2791066 0.87130868 1.9178162e-38
1.4327624 -2.2792604 0.88405919 1.8716827e-38
1.437328 -2.2796872 0.9001565 1.9085607e-38
1.448575 -2.2797606 0.91168725 1.9545504e-38
1.4528575 -2.2801273 0.92582214 1.8163653e-38
1.4572337 -2.2805364 0.94125623 1.6964028e-38
1.4637783 -2.2807794 0.95371729 1.687147e-38
1.4719237 -2.2811007 0.96978343 1.7701589e-38
1.477443 -2.2813408 0.9813183 1.7886703e-38
1.4862968 -2.2815616 0.99507362 1.7148056e-38
1.4894482 -2.2818964 1.0073433 1.6410141e-38
1.4921929 -2.2818649 1.0087389 1.7147335e-38
1.4942281 -2.2824996 1.0287001 1.5117595e-38
1.4964089 -2.2822332 1.0228602 1.6778555e-38
1.4925015 -2.2828503 1.0373372 1.6687804e-38
1.5984625 -2.2874265 1.2576981 1.4380754e-38
1.608584 -2.2880657 1.2845582 1.3736461e-38
1.6213555 -2.2884653 1.3067492 1.3275481e-38
1.6309966 -2.2892194 1.3365064 1.3090727e-38
1.6384493 -2.2890406 1.3376105 1.3735017e-38
1.6359857 -2.2895467 1.3501041 1.2445358e-38
1.6542675 -2.2904012 1.389992 1.2352803e-38
1.666085 -2.290092 1.390988 1.2444635e-38
1.6678202 -2.2905416 1.4053806 1.0970586e-38
1.6687649 -2.2908607 1.4153433 1.0417415e-38
1.6728899 -2.2908518 1.4185451 1.1154979e-38
1.3180416 -2.2753232 0.67475164 1.9541515e-38
1.3253803 -2.2754745 0.68525064 2.0187619e-38
1.338459 -2.2760475 0.7126773 1.8626062e-38
1.3400104 -2.2764661 0.72601879 1.8718255e-38
1.3449571 -2.2767947 0.73961341 1.8902646e-38
1.3529215 -2.2769825 0.75169039 1.8810453e-38
1.359611 -2.2773256 0.76715744 1.9270711e-38
1.3656633 -2.2776248 0.78083444 1.890193e-38
1.3732475 -2.2778792 0.79449427 1.9086318e-38
1.3785983 -2.27828 0.81050843 1.8533866e-38
1.3845143 -2.2784975 0.82171082 1.8165445e-38
1.39152 -2.2787786 0.83566535 1.8165445e-38
1.400992 -2.2789443 0.84835845 1.7981054e-38
1.4029129 -2.2793961 0.86296642 1.8809376e-38
1.4071951 -2.2796943 0.87513196 1.8440955e-38
1.4153671 -2.2799854 0.89034647 1.853315e-38
1.4219588 -2.2802703 0.9040637 1.8532792e-38
1.4293077 -2.2805202 0.91740328 1.8257284e-38
1.4350497 -2.2807961 0.93014205 1.8164371e-38
1.4379278 -2.2811301 0.94215906 1.7703034e-38
1.4501253 -2.2813652 0.95913893 1.7978899e-38
1.4572374 -2.2815766 0.97117275 1.8807934e-38
1.4611732 -2.2819893 0.98634201 1.8162929e-38
1.4634262 -2.2817376 0.98098582 1.8162929e-38
1.4668148 -2.2822313 0.99802464 1.7794506e-38
1.4742756 -2.282584 1.0144167 1.7793787e-38
1.483296 -2.2825215 1.0201728 1.8254045e-38
1.4910191 -2.2830722 1.0424833 1.7148062e-38
1.4948055 -2.2832923 1.0519892 1.6042079e-38
1.4953475 -2.2833858 1.0551242 1.678e-38
1.498957 -2.2836525 1.0658224 1.6041354e-38
1.5001065 -2.2837265 1.0689114 1.641086e-38
1.5032452 -2.2840064 1.0795951 1.4934282e-38
1.5035727 -2.2839911 1.0794281 1.5211591e-38
1.5067922 -2.2845063 1.0969439 1.5027558e-38
1.5272181 -2.2857959 1.1511371 1.3733922e-38
1.5392424 -2.2859578 1.1658642 1.391903e-38
1.5513066 -2.2859373 1.1753824 1.5852627e-38
1.5603962 -2.2872565 1.2209297 1.0512491e-38
1.5686135 -2.2869565 1.2191906 1.3830086e-38
1.5751911 -2.287205 1.2318389 1.3185086e-38
1.5796955 -2.2875385 1.2452089 1.4289996e-38
1.5864036 -2.2878246 1.2590476 1.4195642e-38
1.5901508 -2.2882249 1.2737066 1.3921212e-38
1.5995421 -2.2879233 1.2728931 1.3828654e-38
1.5984366 -2.288465 1.2875431 1.3736461e-38
1.6063772 -2.2887287 1.3017832 1.3460953e-38
1.6083307 -2.2891219 1.3147323 1.3460953e-38
1.6125374 -2.2894702 1.3282717 1.3460231e-38
1.6181281 -2.2897818 1.3419143 1.327656e-38
1.6271863 -2.2898619 1.3518047 1.3459873e-38
1.6301662 -2.2899222 1.3560375 1.4288906e-38
1.6319238 -2.2903357 1.3693944 1.3368038e-38
1.6307062 -2.2904651 1.3721043 1.3920489e-38
1.6354064 -2.2907627 1.384595 1.28145e-38
1.6495788 -2.2912571 1.4106896 1.2076932e-38
1.6651112 -2.2921836 1.4503424 8.8490008e-39
1.2989382 -2.2758701 0.67448395 1.9634796e-38
1.3081938 -2.2755888 0.6741423 1.8804313e-38
1.3088795 -2.2757094 0.67818654 2.0834057e-38
1.3119135 -2.2760532 0.69061393 2.0651478e-38
1.3223321 -2.2762463 0.70489466 2.0468174e-38
1.3236902 -2.2766604 0.71794355 1.991536e-38
1.3283298 -2.2769973 0.73151535 2.0284497e-38
1.3335251 -2.2773192 0.74512839 1.9824604e-38
1.3407305 -2.2775111 0.75668103 1.8533866e-38
1.347378 -2.2778716 0.77261275 1.8717899e-38
1.3536652 -2.2781646 0.78630728 1.9731326e-38
1.358858 -2.2784867 0.79992026 1.9823162e-38
1.3620421 -2.278862 0.81338346 1.890193e-38
1.3678015 -2.2791691 0.82703865 1.8441311e-38
1.375366 -2.2794242 0.84070981 1.7980694e-38
1.3798895 -2.2797768 0.85464412 1.8717181e-38
1.3879883 -2.2800131 0.86822098 1.8440595e-38
1.394686 -2.2802954 0.88194615 1.8440593e-38
1.401757 -2.280544 0.89502084 1.8072174e-38
1.4058027 -2.2809124 0.90900511 1.7888142e-38
1.4095607 -2.2812154 0.92086852 1.7887782e-38
1.4175071 -2.2815294 0.93655074 1.7610474e-38
1.4257721 -2.281764 0.95022839 1.7517918e-38
1.4331595 -2.2820339 0.9641692 1.8624263e-38
1.4424207 -2.2822187 0.97723824 1.8347679e-38
1.4477876 -2.2825398 0.99097723 1.8622826e-38
1.4507595 -2.282908 1.0040507 1.7978536e-38
1.4587826 -2.2832382 1.0202624 1.8162208e-38
1.4673843 -2.2834191 1.0326736 1.7425366e-38
1.4717487 -2.2837439 1.0456634 1.7610115e-38
1.4791741 -2.2840323 1.0601803 1.751828e-38
1.4792336 -2.2839956 1.0591776 1.7886342e-38
1.4797784 -2.2845163 1.0746098 1.760904e-38
1.4920079 -2.2846115 1.0875889 1.6227188e-38
1.496617 -2.2848651 1.0987438 1.6134632e-38
1.5064185 -2.2850702 1.1128472 1.5765135e-38
1.5083214 -2.2850418 1.113626 1.5857688e-38
1.5052652 -2.2856662 1.1290321 1.5671134e-38
1.513061 -2.2854342 1.1288875 1.5764051e-38
1.5114936 -2.2859344 1.1419554 1.4931756e-38
1.5156078 -2.285603 1.1358709 1.484028e-38
1.5182037 -2.286216 1.1556708 1.3181479e-38
1.5229235 -2.2865505 1.1692485 1.290597e-38
1.5358087 -2.2866011 1.1814977 1.401124e-38
1.5410578 -2.2864826 1.1824821 1.4933555e-38
1.5332335 -2.2871966 1.1964688 8.9440775e-39
1.5387093 -2.287138 1.19937 8.8526022e-39
1.5398233 -2.2875216 1.2113339 1.2907408e-38
1.5498993 -2.2876742 1.2241629 1.0512491e-38
1.5576618 -2.2879367 1.2382077 1.2724468e-38
1.5673836 -2.2881658 1.2529358 1.3460237e-38
1.5690478 -2.2885923 1.2666066 1.3737544e-38
1.5744075 -2.2888637 1.2788931 1.3737545e-38
1.58287 -2.289022 1.2905353 1.382938e-38
1.5966605 -2.2896459 1.3200264 1.3368401e-38
1.5998781 -2.2900651 1.3347776 1.3644987e-38
1.6093215 -2.2902479 1.3479496 1.3092532e-38
1.6128671 -2.2906315 1.3619462 1.318437e-38
1.6226381 -2.2913444 1.390638 1.3368038e-38
1.6267989 -2.2909827 1.3837163 1.3460234e-38
1.6259296 -2.2916355 1.4017664 1.3275481e-38
1.6356409 -2.2923181 1.4295368 1.2630469e-38
1.6517602 -2.2927544 1.4555798 8.2043503e-39
1.2850517 -2.2765265 0.68174207 2.0465649e-38
1.2943053 -2.2762864 0.68258333 2.1018814e-38
1.2923136 -2.276767 0.69473934 1.9085958e-38
1.3010588 -2.2765622 0.696172 2.1389406e-38
1.3015902 -2.2770622 0.71099138 1.9270711e-38
1.3083711 -2.2773099 0.72379941 1.9455456e-38
1.3134785 -2.2776124 0.7367754 1.881009e-38
1.3197391 -2.2779062 0.7504679 1.917887e-38
1.3290451 -2.2781303 0.76470608 1.8534225e-38
1.3320136 -2.278533 0.77877504 1.8533506e-38
1.3365961 -2.2788873 0.79280102 1.8533508e-38
1.3441182 -2.2790987 0.80518866 1.8256919e-38
1.3490477 -2.279428 0.81878197 1.8809373e-38
1.3554698 -2.2797174 0.83248657 1.7703746e-38
1.3594422 -2.280072 0.84600848 1.8624983e-38
1.3657668 -2.280364 0.85970581 1.8716823e-38
1.3724357 -2.2805755 0.87137669 1.8164008e-38
1.3811337 -2.2808762 0.88730305 1.8071813e-38
1.3860985 -2.2812042 0.90089899 1.7795587e-38
1.3892745 -2.2815797 0.9143616 1.7887782e-38
1.3953459 -2.2818787 0.92804009 1.7702674e-38
1.4042168 -2.2821119 0.94218034 1.7794505e-38
1.4109182 -2.2823851 0.95565259 1.7517559e-38
1.4184755 -2.2825301 0.96614909 1.8623904e-38
1.4280316 -2.282851 0.98337996 1.8347319e-38
1.429981 -2.2832592 0.99675119 1.8162929e-38
1.4357328 -2.2835662 1.0104058 1.7702311e-38
1.4435745 -2.2838469 1.0250429 1.7609758e-38
1.4493203 -2.2841406 1.0383011 1.7701593e-38
1.4601063 -2.2843373 1.0529882 1.8070013e-38
1.4659163 -2.284575 1.0646896 1.8070013e-38
1.466935 -2.2851117 1.0809811 1.7056582e-38
1.4810456 -2.285229 1.0961672 1.650377e-38
1.4852834 -2.2855241 1.1082075 1.6411216e-38
1.4903331 -2.285769 1.119483 1.6225748e-38
1.4898248 -2.2862701 1.1334708 1.6040635e-38
1.4965692 -2.286551 1.1471994 1.5946628e-38
1.501884 -2.2866714 1.1551096 1.4104162e-38
1.5073011 -2.2867262 1.1612253 1.53949e-38
1.5114077 -2.2870772 1.1747572 1.3734292e-38
1.5177507 -2.2869089 1.17523 1.3548457e-38
1.5168431 -2.28742 1.1891679 1.3457705e-38
1.5275702 -2.288028 1.2156397 1.2999238e-38
1.531706 -2.2881594 1.2228857 1.0603242e-38
1.5383041 -2.2882032 1.2296656 1.1432638e-38
1.5444195 -2.2885759 1.245509 1.1156785e-38
1.5530136 -2.2887325 1.2572138 1.0419583e-38
1.55513 -2.2891185 1.2700888 1.2817028e-38
1.5647553 -2.2893126 1.2837254 1.3738264e-38
1.5765311 -2.2904673 1.326804 1.364571e-38
1.5958093 -2.2913589 1.3685899 1.3461321e-38
1.6050544 -2.2914932 1.3801947 1.3368759e-38
1.6068367 -2.2919033 1.3934845 1.3552788e-38
1.6132946 -2.292192 1.4071919 1.3459878e-38
1.6151718 -2.2926018 1.4205575 1.309181e-38
1.2737914 -2.2774055 0.69758928 1.8625699e-38
1.2922993 -2.2769055 0.69870788 1.9823163e-38
1.2849053 -2.277585 0.71206361 1.8718255e-38
1.2927912 -2.2779226 0.7283746 1.9455461e-38
1.2983669 -2.2782133 0.74140745 1.881009e-38
1.3045954 -2.2785382 0.75596482 1.899448e-38
1.3108245 -2.2788239 0.76939636 1.8533506e-38
1.3178576 -2.2790968 0.7831465 1.8717537e-38
1.3231752 -2.2794158 0.79676878 1.8533147e-38
1.3318396 -2.2796593 0.8110261 1.7979971e-38
1.3367941 -2.2799742 0.82423568 1.7703385e-38
1.3426012 -2.2802799 0.83789444 1.7887777e-38
1.3460821 -2.2806478 0.85137975 1.8347677e-38
1.3512278 -2.2809708 0.86498928 1.8164366e-38
1.3586967 -2.2812243 0.87853026 1.8072172e-38
1.36518 -2.2815206 0.89248103 1.8809016e-38
1.3723714 -2.2817898 0.90624291 1.83484e-38
1.379004 -2.2820735 0.91996318 1.7979258e-38
1.3821914 -2.2824488 0.93342674 1.7701952e-38
1.3904843 -2.2826841 0.94713724 1.8162927e-38
1.392861 -2.2831292 0.9619385 1.9177438e-38
1.4062763 -2.2832093 0.97547042 1.9084522e-38
1.4125658 -2.2835345 0.99009293 1.8347321e-38
1.41482 -2.2839184 1.003021 1.8532071e-38
1.4224617 -2.2841396 1.0157837 1.7978539e-38
1.4277282 -2.2844598 1.029402 1.7517922e-38
1.4347705 -2.2847331 1.0431529 1.7517205e-38
1.4488263 -2.2842495 1.0410261 1.7609043e-38
1.44116 -2.285037 1.0572516 1.797746e-38
1.4483161 -2.2852933 1.0706142 1.7056585e-38
1.4559445 -2.2855339 1.0839241 1.7332811e-38
1.4612752 -2.2858434 1.097293 1.7793067e-38
1.4664975 -2.2861917 1.1116835 1.6871831e-38
1.4771256 -2.2863824 1.1260673 1.7055862e-38
1.4794559 -2.2867665 1.1390649 1.5859123e-38
1.4868569 -2.2870381 1.1530749 1.5858405e-38
1.4922432 -2.2873151 1.1655545 1.5489264e-38
1.4962398 -2.287699 1.1799355 1.4750974e-38
1.5000417 -2.2879584 1.1905873 1.3733215e-38
1.504319 -2.2884436 1.208125 1.3087838e-38
1.5082339 -2.2882686 1.2063657 1.4102351e-38
1.5169238 -2.2885532 1.2218355 1.3090001e-38
1.5218451 -2.2888877 1.2355732 1.2998524e-38
1.5199809 -2.2893744 1.2480139 1.2721938e-38
1.5303084 -2.2891266 1.2495346 9.9575106e-39
1.5263568 -2.2897468 1.2640562 1.484208e-38
1.538232 -2.289319 1.2616993 1.1894696e-38
1.5400273 -2.2898431 1.2782774 1.0603247e-38
1.5506043 -2.2899375 1.289853 9.2210386e-39
1.566646 -2.2908659 1.3299911 1.4014132e-38
1.5729672 -2.2912016 1.3449395 1.3829382e-38
1.5855201 -2.2916617 1.3686862 1.3461321e-38
1.5825689 -2.2923782 1.386822 1.3829741e-38
1.5927863 -2.2920327 1.3854411 1.3369839e-38
1.5990422 -2.2927911 1.4124966 1.3368401e-38
1.6016867 -2.2931604 1.4253343 1.2723752e-38
1.6080086 -2.293473 1.4396166 1.2631911e-38
1.6183643 -2.2938428 1.4589189 9.2188721e-39
1.6222607 -2.2935419 1.4535336 1.1709233e-38
1.2569695 -2.2776902 0.69169658 1.9084875e-38
1.263402 -2.2780035 0.70609921 1.8994119e-38
1.2738492 -2.2777228 0.70677173 1.9730968e-38
1.2703705 -2.2782753 0.7197448 1.86257e-38
1.2781538 -2.278532 0.73365057 1.917887e-38
1.2841896 -2.2788839 0.74882418 1.8625699e-38
1.2920502 -2.279083 0.76113826 1.8717537e-38
1.2998629 -2.2792828 0.77342159 1.8809376e-38
1.3033378 -2.2797408 0.78950673 1.8256919e-38
1.3090122 -2.2800128 0.80208015 1.8164725e-38
1.3163514 -2.2802777 0.81585318 1.7887779e-38
1.3225045 -2.2805734 0.82950401 1.770339e-38
1.3271688 -2.2808619 0.84170401 1.8992687e-38
1.3324566 -2.2812302 0.85673124 1.8071811e-38
1.3386247 -2.2815266 0.87041688 1.788814e-38
1.3467758 -2.28177 0.88425034 1.8072171e-38
1.35302 -2.2820828 0.89847445 1.8071813e-38
1.3594484 -2.2818983 0.89854354 1.7979977e-38
1.3578252 -2.2823844 0.9111715 1.7795587e-38
1.3617271 -2.2828236 0.92707229 1.7794866e-38
1.3677901 -2.283052 0.93872029 1.8255123e-38
1.3761392 -2.2832906 0.95256847 1.8992326e-38
1.3824153 -2.2835836 0.96626222 1.9269275e-38
1.3885889 -2.2838504 0.97909957 1.9638413e-38
1.390246 -2.2842762 0.99273986 1.9730249e-38
1.3990242 -2.2845228 1.0071779 1.8901213e-38
1.4088498 -2.2847533 1.0220367 1.8532433e-38
1.4137946 -2.2850506 1.0347307 1.8348042e-38
1.4239758 -2.2853055 1.0505896 1.7886346e-38
1.430355 -2.2855313 1.0624169 1.7701955e-38
1.4343426 -2.2858088 1.073742 1.7424648e-38
1.4381623 -2.286165 1.0871923 1.7609396e-38
1.4429064 -2.2861369 1.090355 1.7977457e-38
1.4521638 -2.2867811 1.1166353 1.7240616e-38
1.4598426 -2.287029 1.1301913 1.7240255e-38
1.46436 -2.2874148 1.1450701 1.6687445e-38
1.4715948 -2.2876852 1.1589071 1.6687444e-38
1.4758017 -2.2880042 1.1716114 1.5766568e-38
1.473408 -2.2881744 1.1745028 1.7148425e-38
1.4805865 -2.288301 1.1841493 1.5950599e-38
1.4897277 -2.28861 1.2006944 1.4380387e-38
1.4933708 -2.2889178 1.2125987 1.4471136e-38
1.4998319 -2.2891567 1.2248803 1.2904528e-38
1.5052079 -2.2890999 1.2277496 1.3272952e-38
1.5075223 -2.2893803 1.2377472 1.3274397e-38
1.5140489 -2.2906117 1.278635 1.0418137e-38
1.5214813 -2.2904277 1.2795664 1.1800353e-38
1.5359371 -2.2904992 1.2937275 7.6529996e-39
1.5371569 -2.2907579 1.3021916 9.4972653e-39
1.5593197 -2.2917914 1.3504733 1.4475476e-38
1.5695214 -2.2924645 1.3783795 1.3830103e-38
1.5688765 -2.2928929 1.3901633 1.3829741e-38
1.5771372 -2.2926738 1.390779 1.4106325e-38
1.5788748 -2.2930877 1.4041407 1.3185452e-38
1.5885952 -2.2928622 1.4057903 1.3646066e-38
1.5843457 -2.2933652 1.4167023 1.3185452e-38
1.5929892 -2.2940924 1.4448571 1.2078743e-38
1.2407813 -2.277452 0.67128998 2.1755288e-38
1.2438418 -2.2781854 0.6949442 1.8255833e-38
1.2526408 -2.2785106 0.71166426 1.9363621e-38
1.2570665 -2.2788873 0.72620761 1.8441667e-38
1.2658387 -2.2790895 0.73937446 1.8533145e-38
1.2757763 -2.279305 0.75389069 1.8717535e-38
1.2762372 -2.2797239 0.76632667 1.8901567e-38
1.2821004 -2.2800281 0.7799896 1.8349114e-38
1.2877586 -2.280338 0.79363716 1.8809371e-38
1.2950745 -2.2806041 0.80742097 1.8256561e-38
1.3022376 -2.2808735 0.82116824 1.8624983e-38
1.3091387 -2.2811313 0.83435941 1.8993767e-38
1.3164583 -2.2813945 0.84805989 1.8808657e-38
1.3219179 -2.2817309 0.86231279 1.83484e-38
1.3270895 -2.2820537 0.87592423 1.8072174e-38
1.3322291 -2.2823772 0.88953322 1.7888142e-38
1.3377444 -2.2824194 0.89536208 1.8072534e-38
1.3441362 -2.2825212 0.90364671 1.8072532e-38
1.3499458 -2.2828269 0.91730565 1.7888144e-38
1.3506042 -2.2832694 0.9305805 1.7887781e-38
1.3563106 -2.2835777 0.94423175 1.7610835e-38
1.3643199 -2.2838252 0.95805466 1.8993403e-38
1.3683937 -2.2841771 0.9715842 1.8808654e-38
1.375089 -2.2844594 0.98530912 1.9269272e-38
1.3836038 -2.284204 0.98509389 1.9637694e-38
1.3802959 -2.2848821 1.0018337 1.9177078e-38
1.3860924 -2.2850871 1.0125811 1.9821726e-38
1.3880503 -2.2855492 1.0275134 1.9545502e-38
1.4003381 -2.2855709 1.0384264 1.8532431e-38
1.407286 -2.2859044 1.0538384 1.8348042e-38
1.413497 -2.2859135 1.059297 1.917636e-38
1.4238617 -2.2864537 1.0835191 1.7610118e-38
1.4277099 -2.2867064 1.0940062 1.7610116e-38
1.4319541 -2.2870653 1.1078837 1.7425368e-38
1.4359028 -2.2874656 1.1227064 1.6872197e-38
1.44358 -2.28742 1.1278231 1.7056582e-38
1.4385922 -2.2878685 1.1365476 1.71495e-38
1.4408293 -2.2878752 1.1386133 1.834768e-38
1.4521658 -2.2880445 1.1529737 1.622683e-38
1.4558048 -2.2888432 1.1789954 1.6504498e-38
1.4688985 -2.2888291 1.1895553 1.6411939e-38
1.4768441 -2.2891517 1.2054873 1.6042438e-38
1.4784677 -2.2895684 1.2188326 1.641086e-38
1.4814646 -2.2899148 1.231304 1.5028281e-38
1.4868115 -2.2902329 1.2449286 1.4291072e-38
1.4885164 -2.2906182 1.2574406 1.3827932e-38
1.5217828 -2.2910399 1.2974313 1.1524122e-38
1.5186393 -2.291487 1.3076589 6.7317593e-39
1.5282958 -2.2913852 1.3128179 1.0788004e-38
1.5324339 -2.2917981 1.3281562 8.392001e-39
1.5542064 -2.2930436 1.382211 1.410705e-38
1.5610682 -2.2933455 1.396644 1.4382918e-38
1.5695856 -2.293968 1.421681 1.3369486e-38
1.5725824 -2.2944303 1.4374851 1.3830098e-38
1.5772427 -2.2947316 1.4500575 1.2170577e-38
1.5866001 -2.2944636 1.4501851 1.3184006e-38
1.222057 -2.2785692 0.68774766 2.0928063e-38
1.2323027 -2.2787375 0.70116991 1.8348751e-38
1.2446207 -2.2788789 0.71555424 1.8533862e-38
1.249117 -2.2797174 0.74343681 1.8625338e-38
1.2556163 -2.2800391 0.75812566 1.8533143e-38
1.2630689 -2.2802942 0.77171212 1.8440949e-38
1.2697901 -2.280576 0.78543901 1.8625339e-38
1.2731315 -2.280947 0.79891396 1.8349112e-38
1.2805501 -2.2812102 0.81269282 1.8256558e-38
1.2868143 -2.2813966 0.82330245 2.0191584e-38
1.2943776 -2.2817631 0.84017533 1.9177799e-38
1.3005931 -2.282058 0.85386443 1.9454025e-38
1.3096758 -2.2822254 0.86628354 1.8624987e-38
1.3137194 -2.2825966 0.88034177 1.8348762e-38
1.3180103 -2.2829533 0.89419234 1.8256928e-38
1.3221158 -2.2833345 0.90860003 1.8256566e-38
1.3319654 -2.2829981 0.90717727 1.8256926e-38
1.3327608 -2.2834125 0.91975701 1.8256926e-38
1.3386699 -2.2837293 0.93381554 1.807145e-38
1.3417209 -2.2841613 0.9487986 2.0190865e-38
1.3491058 -2.2844501 0.96328765 1.9730249e-38
1.356356 -2.2847176 0.977054 1.9177437e-38
1.3608376 -2.2850585 0.99061394 1.9177437e-38
1.3629228 -2.2854631 1.0039952 1.8901213e-38
1.3691072 -2.285434 1.0083349 2.0375259e-38
1.3839835 -2.2852716 1.0161287 2.0283423e-38
1.3767684 -2.2860475 1.0324016 1.8900855e-38
1.383589 -2.2858341 1.0319778 2.0283424e-38
1.3932481 -2.2864807 1.0586632 1.9822449e-38
1.398029 -2.2868412 1.0730337 1.8348403e-38
1.4130539 -2.2873523 1.1003141 1.8532434e-38
1.414356 -2.2877774 1.1136363 1.7979265e-38
1.4202971 -2.2881112 1.1282059 1.843988e-38
1.4265589 -2.2883925 1.141544 1.8163292e-38
1.4322515 -2.2886775 1.1545085 1.7426091e-38
1.4382797 -2.2889979 1.1687719 1.6411942e-38
1.4446208 -2.2888539 1.1699395 1.678072e-38
1.4451444 -2.2892971 1.1831269 1.6872917e-38
1.4534994 -2.2894988 1.195931 1.6595971e-38
1.4626884 -2.290149 1.2223244 1.6688167e-38
1.4711834 -2.2901685 1.2299958 1.6226829e-38
1.4661728 -2.2905006 1.2353535 1.6134993e-38
1.4762162 -2.290735 1.250506 1.5858402e-38
1.4789772 -2.2911055 1.2634752 1.4198156e-38
1.4889047 -2.2917781 1.2911295 1.4381463e-38
1.4954021 -2.2920656 1.3048396 1.2999252e-38
1.5020431 -2.2923539 1.3186966 1.0051155e-38
1.514025 -2.2919304 1.3165443 1.4197793e-38
1.5108531 -2.2925062 1.3304535 1.2262771e-38
1.5171769 -2.2924075 1.3329146 1.1801792e-38
1.5161358 -2.2929261 1.3469558 1.3369473e-38
1.5173929 -2.2934151 1.3620723 7.1034187e-39
1.5287175 -2.292994 1.3594455 1.0328108e-38
1.5342917 -2.2933514 1.3743895 1.0513582e-38
1.5409645 -2.2936161 1.3875911 1.0512493e-38
1.5438613 -2.293937 1.3992535 1.3644994e-38
1.5481607 -2.2943335 1.4142483 1.4014492e-38
1.5597373 -2.2939396 1.4126176 1.4107051e-38
1.5521792 -2.2946334 1.4262466 1.383046e-38
1.5606822 -2.2946353 1.433419 1.4291074e-38
1.5651673 -2.2952731 1.4555247 1.1433732e-38
1.5673528 -2.2951071 1.4525809 1.1433732e-38
1.191487 -2.278717 0.66640246 1.797019e-38
1.2036723 -2.278913 0.68224454 1.9450409e-38
1.2117044 -2.279119 0.69489533 2.0743317e-38
1.2181154 -2.2793694 0.70746404 2.0007912e-38
1.2437274 -2.2805514 0.76291335 1.917815e-38
1.2502116 -2.2808404 0.77665287 1.8349111e-38
1.2545061 -2.2812102 0.79088122 1.8349112e-38
1.26291 -2.2814395 0.80451924 1.8440948e-38
1.269995 -2.2817221 0.81857765 1.8993761e-38
1.2746454 -2.2820864 0.83295441 1.9914997e-38
1.2739276 -2.2826276 0.84791577 1.9269991e-38
1.282873 -2.2822897 0.84568495 1.9638772e-38
1.2851638 -2.2826886 0.85908151 1.9178518e-38
1.2922132 -2.2829616 0.87283283 1.8809377e-38
1.2935307 -2.2833879 0.88619894 1.8809737e-38
1.301438 -2.2836366 0.89997226 1.8533152e-38
1.3082939 -2.2839143 0.91370916 1.834876e-38
1.3135527 -2.2841644 0.92529964 1.8256202e-38
1.3224272 -2.2844594 0.94121438 1.8532067e-38
1.328099 -2.2847919 0.95552975 2.0836233e-38
1.3344409 -2.2850728 0.96892577 2.0098671e-38
1.3419765 -2.2853203 0.98234922 2.0006834e-38
1.3471668 -2.2856424 0.99596202 1.9545499e-38
1.350935 -2.2860022 1.0094688 1.9269994e-38
1.3535616 -2.2863793 1.0225118 1.9085607e-38
1.3649453 -2.2860043 1.0212572 1.9085607e-38
1.3657341 -2.2864878 1.0358279 2.0099034e-38
1.3692694 -2.2868543 1.0493275 1.9638059e-38
1.3753803 -2.2872148 1.0648192 2.0098675e-38
1.3829671 -2.28721 1.0710262 2.0099035e-38
1.3818425 -2.2874815 1.077902 2.0099035e-38
1.3843502 -2.2874577 1.0793145 2.019123e-38
1.3901677 -2.2876692 1.090266 1.8717184e-38
1.3915178 -2.2882056 1.1068306 1.8717184e-38
1.3985788 -2.2884612 1.1200911 1.862463e-38
1.4040917 -2.288734 1.1325567 1.8071819e-38
1.4104571 -2.2889924 1.1453203 1.8071459e-38
1.4113228 -2.2893996 1.1577612 1.7795234e-38
1.4244198 -2.2896016 1.1745311 1.6966195e-38
1.4345521 -2.2901492 1.1987705 1.6320466e-38
1.4395086 -2.2905338 1.2139841 1.6412302e-38
1.4487187 -2.2903643 1.2168174 1.6965116e-38
1.4430373 -2.2908683 1.2265582 1.6412302e-38
1.4532681 -2.2909403 1.237193 1.6042799e-38
1.4599783 -2.2913976 1.2559638 1.6779642e-38
1.4703166 -2.2915876 1.2700911 1.6687447e-38
1.4726285 -2.2919245 1.2817175 1.5120841e-38
1.4700878 -2.2921367 1.2856905 1.7055509e-38
1.4739761 -2.2923732 1.2957519 1.4288914e-38
1.4749503 -2.292465 1.2992084 1.6133188e-38
1.4808496 -2.2926726 1.3101219 1.3643905e-38
1.4845408 -2.293112 1.3258466 1.2907418e-38
1.4985589 -2.2930486 1.3357631 1.3275839e-38
1.5042591 -2.293891 1.3647611 8.0261009e-39
1.5124744 -2.2938857 1.3714885 6.2747427e-39
1.5172439 -2.2940066 1.3789642 8.3026878e-39
1.524797 -2.2941356 1.3889946 7.5654829e-39
1.533838 -2.2944403 1.4053282 1.180396e-38
1.5350523 -2.2948773 1.4189217 1.2540801e-38
1.5402905 -2.2952347 1.4335883 1.3830097e-38
1.5435569 -2.2956192 1.4473822 1.3736821e-38
1.5569671 -2.2951527 1.4451931 1.3645706e-38
1.1767907 -2.2793467 0.67220813 1.9722997e-38
1.1824687 -2.2794166 0.67897099 2.0005387e-38
1.1909393 -2.2794647 0.68745005 1.9359656e-38
1.201009 -2.2796242 0.70046514 2.0652561e-38
1.2016443 -2.280067 0.71373838 1.9639491e-38
1.2078843 -2.2803111 0.72598499 2.000719e-38
1.2427989 -2.2817237 0.7958582 1.8256915e-38
1.2581016 -2.2823379 0.82633626 1.9914997e-38
1.2631783 -2.2830331 0.85058397 1.9269991e-38
1.2721103 -2.2832568 0.86449999 1.9731329e-38
1.2759711 -2.2836435 0.8788501 1.8993766e-38
1.2830795 -2.2838848 0.89174503 1.87179e-38
1.2864159 -2.2842228 0.90426105 1.8533152e-38
1.2937136 -2.2845225 0.91898942 1.8533512e-38
1.2993474 -2.2845764 0.92526245 1.8624263e-38
1.3219515 -2.2856238 0.97431141 1.9823162e-38
1.3274956 -2.2859809 0.98922765 1.9822803e-38
1.3329389 -2.2862072 1.000296 2.0007194e-38
1.3386641 -2.286566 1.0154163 1.9178157e-38
1.3405638 -2.2869921 1.0292557 1.9269992e-38
1.3461305 -2.2872734 1.0420051 1.9178157e-38
1.3462416 -2.2878115 1.0575849 1.973061e-38
1.3532149 -2.2874832 1.053978 2.0652205e-38
1.362072 -2.2877424 1.0688413 1.9546223e-38
1.3678178 -2.2881222 1.0845841 1.963806e-38
1.3743151 -2.2888672 1.1114552 1.8901217e-38
1.3788855 -2.2886672 1.1095289 1.9545864e-38
1.384658 -2.2890077 1.1241567 1.9085248e-38
1.3920548 -2.2892797 1.1381704 1.8164016e-38
1.3965677 -2.2896116 1.1514962 1.8624273e-38
1.3990484 -2.2900054 1.1649067 1.8347687e-38
1.4085816 -2.2897985 1.1669354 1.8439881e-38
1.4060982 -2.2902782 1.1786538 1.7979625e-38
1.4145498 -2.29024 1.1846308 1.843952e-38
1.4124445 -2.2906017 1.1932721 1.7702676e-38
1.4186507 -2.2908649 1.2060457 1.7702318e-38
1.4187969 -2.2908311 1.2051929 1.807074e-38
1.4221522 -2.2912319 1.2195327 1.6597411e-38
1.4269499 -2.2915645 1.2331163 1.6413022e-38
1.4407523 -2.2911482 1.2326896 1.6964751e-38
1.4427714 -2.2915852 1.2469559 1.6595971e-38
1.4408689 -2.2920427 1.2585254 1.5951322e-38
1.4495312 -2.2920933 1.2672285 1.68722e-38
1.4572912 -2.2925806 1.2877469 1.6411221e-38
1.4617124 -2.292932 1.3015567 1.5673652e-38
1.4689815 -2.2932088 1.3156044 1.4567309e-38
1.4709005 -2.2929831 1.3107227 1.4567309e-38
1.4723461 -2.2936301 1.3305376 1.3920852e-38
1.4700748 -2.2942016 1.3450793 1.364571e-38
1.4934347 -2.2948349 1.3828539 9.5916189e-39
1.502063 -2.2946229 1.3839836 7.9324563e-39
1.5016321 -2.2952065 1.400407 1.3092166e-38
1.527566 -2.2958164 1.4396631 1.4383269e-38
1.5261315 -2.2962537 1.4510415 9.5876575e-39
1.5317907 -2.2961931 1.4540356 1.2814503e-38
1.1544453 -2.2797008 0.66368377 1.6678739e-38
1.1616538 -2.2799056 0.67561269 1.852664e-38
1.1745629 -2.2796273 0.6784147 2.1388681e-38
1.1730928 -2.2801101 0.69107085 2.1020979e-38
1.1777182 -2.2804754 0.70545155 1.9823159e-38
1.1871722 -2.2801509 0.70403188 2.0928426e-38
1.189255 -2.2805529 0.71734238 1.9823158e-38
1.1916159 -2.2810647 0.73404336 1.982316e-38
1.201439 -2.2809319 0.73845065 2.0099389e-38
1.2508339 -2.2835817 0.85603094 1.9546576e-38
1.2530845 -2.2839978 0.86987293 1.9362185e-38
1.2562101 -2.2844024 0.88413119 1.908596e-38
1.2706788 -2.2843964 0.89608079 1.9454742e-38
1.2721277 -2.2849684 0.91374648 1.853279e-38
1.2813897 -2.2850704 0.924438 1.8440596e-38
1.2830172 -2.28549 0.93786263 2.0007553e-38
1.2928432 -2.2852437 0.93900406 2.0928428e-38
1.2995777 -2.2859361 0.96455789 2.0467811e-38
1.3042848 -2.2862794 0.97837633 1.9914999e-38
1.3071806 -2.2866726 0.99211234 1.9823163e-38
1.3200657 -2.2868037 1.0066762 2.0283781e-38
1.3200682 -2.2872634 1.0199022 1.9454382e-38
1.3244282 -2.2876077 1.0334531 1.9362188e-38
1.3273253 -2.287986 1.0467581 1.9269992e-38
1.3371774 -2.2881892 1.0608552 1.973061e-38
1.3428382 -2.2883921 1.0714296 1.9730613e-38
1.3546627 -2.2886863 1.0897945 2.0467455e-38
1.3633372 -2.2893209 1.1153152 1.9730256e-38
1.3694438 -2.2896452 1.1297529 1.8532438e-38
1.3766181 -2.2899022 1.1431503 1.8624633e-38
1.3822407 -2.2902334 1.157382 1.8993051e-38
1.3842793 -2.2906187 1.1701732 1.807146e-38
1.3912675 -2.290632 1.1764103 1.9177085e-38
1.387583 -2.290956 1.1826442 1.8440241e-38
1.3882698 -2.2910748 1.1866388 1.8071818e-38
1.3956984 -2.2912207 1.1970544 1.7979984e-38
1.4068439 -2.2909765 1.1993643 1.8715748e-38
1.3998148 -2.2915618 1.2103159 1.7519367e-38
1.4120986 -2.2914839 1.2183588 1.7334257e-38
1.4093529 -2.2917929 1.2249458 1.7334257e-38
1.4116213 -2.2922423 1.2397728 1.6873639e-38
1.4202783 -2.2924228 1.2522118 1.6688887e-38
1.4313473 -2.2921154 1.2526481 1.6872197e-38
1.427194 -2.2925522 1.2617228 1.6412302e-38
1.4405814 -2.2922454 1.2641127 1.6872197e-38
1.4338373 -2.2930069 1.280368 1.585913e-38
1.4384778 -2.2928121 1.2786571 1.6135353e-38
1.4397796 -2.2932589 1.2925898 1.6043162e-38
1.4424275 -2.2930081 1.2875909 1.6595977e-38
1.4415629 -2.2936506 1.3053548 1.5859488e-38
1.4461907 -2.29351 1.3051826 1.6504498e-38
1.4543028 -2.2938557 1.321921 1.5489984e-38
1.460344 -2.2936578 1.3212855 1.6503054e-38
1.462507 -2.2940617 1.3347149 1.5672569e-38
1.4699314 -2.2943294 1.3486296 1.465986e-38
1.4675783 -2.2948444 1.3614786 1.4106328e-38
1.4890814 -2.2956612 1.4029793 9.6823684e-39
1.5009298 -2.2958183 1.4174154 5.3524206e-39
1.5182936 -2.2966082 1.4546829 1.1340809e-38
1.1362826 -2.2804558 0.67019916 1.8339711e-38
1.1485437 -2.2805083 0.68197107 1.9174178e-38
1.1574693 -2.2807615 0.69672799 2.0651839e-38
1.1624544 -2.2810893 0.71032542 2.0375613e-38
1.1698033 -2.2813542 0.72410858 2.0099384e-38
1.1789548 -2.2810614 0.72334856 2.0283776e-38
1.1784387 -2.281585 0.73796868 1.9915357e-38
1.1849452 -2.281904 0.75259519 1.9914995e-38
1.2381278 -2.2841403 0.86145091 1.9362186e-38
1.243359 -2.2844613 0.8750667 1.9178154e-38
1.2443653 -2.2849085 0.88877797 1.90856e-38
1.2532904 -2.2851176 0.90225881 1.8717897e-38
1.2671553 -2.2856455 0.92905647 2.1113176e-38
1.2729692 -2.285975 0.94340324 1.9915716e-38
1.285814 -2.286545 0.97055882 2.0744757e-38
1.2877623 -2.2869623 0.98418355 2.0007194e-38
1.2965074 -2.28719 0.99806136 2.0467812e-38
1.3011492 -2.2875185 1.0113961 2.1020623e-38
1.3070594 -2.2878025 1.0245087 2.1112462e-38
1.3107032 -2.2881968 1.0389063 1.9822805e-38
1.3169721 -2.2884867 1.0524904 2.0375258e-38
1.3228402 -2.2887909 1.0661535 1.9362188e-38
1.3322451 -2.289005 1.0801946 1.9546222e-38
1.3471309 -2.2895236 1.1075728 2.000684e-38
1.3563676 -2.2902107 1.1350739 1.9453667e-38
1.3722527 -2.2911589 1.1756438 1.8440239e-38
1.373785 -2.2910912 1.1749779 1.8993051e-38
1.3740296 -2.2914939 1.1867713 1.7979623e-38
1.3789523 -2.2918 1.1996958 1.8532436e-38
1.3833851 -2.29175 1.2019663 1.8440241e-38
1.3897313 -2.2916148 1.2033986 1.9177085e-38
1.3891989 -2.2920547 1.2156056 1.7979984e-38
1.397563 -2.2922971 1.2295797 1.7795234e-38
1.4051067 -2.292155 1.2318039 1.7887431e-38
1.3982036 -2.2927697 1.2437077 1.7150223e-38
1.4040213 -2.2929518 1.253818 1.760904e-38
1.4141179 -2.2927146 1.2554475 1.76094e-38
1.4290092 -2.2938118 1.2994839 1.5951325e-38
1.4293318 -2.2942619 1.3126973 1.6688169e-38
1.4354011 -2.294543 1.3258693 1.6411943e-38
1.4447166 -2.2942948 1.32653 1.7148791e-38
1.4438286 -2.2948253 1.3410414 1.5398513e-38
1.4511682 -2.2950423 1.3534272 1.4936802e-38
1.4598527 -2.2953026 1.3681891 1.548998e-38
1.4585212 -2.2956877 1.3781517 1.4015211e-38
1.4819964 -2.2964938 1.4209945 1.1524472e-38
1.4848338 -2.2968717 1.4342362 1.0418483e-38
1.4963965 -2.2965293 1.4340754 9.8667387e-39
1.4971077 -2.2969575 1.4469894 9.6805565e-39
1.1418235 -2.2813988 0.7019574 2.0560002e-38
1.1535215 -2.2815733 0.71677417 2.0375252e-38
1.1567355 -2.2819219 0.72949225 2.0191221e-38
1.1615125 -2.2822638 0.74332321 2.0283416e-38
1.1652582 -2.2825511 0.75472146 2.000683e-38
1.173082 -2.2824116 0.75726551 2.0006471e-38
1.1663924 -2.2831404 0.77262723 2.0190501e-38
1.1793267 -2.2826526 0.76942599 1.9730603e-38
1.1836383 -2.283005 0.78316998 1.9545852e-38
1.1882082 -2.2833588 0.7971741 1.9730965e-38
1.1976844 -2.2830675 0.79672515 2.0283416e-38
1.1921531 -2.2837381 0.81138742 1.9177791e-38
1.1982739 -2.2835796 0.81195337 1.9638409e-38
1.2722822 -2.2876828 0.99194592 2.0375617e-38
1.2784915 -2.2879333 1.0043595 1.9638415e-38
1.2844576 -2.287775 1.0047978 2.1481241e-38
1.2899801 -2.2885041 1.0303936 1.9454382e-38
1.2934273 -2.2884338 1.0312544 2.0744396e-38
1.303687 -2.289048 1.0575144 1.9454023e-38
1.3102419 -2.2893462 1.0715816 1.954622e-38
1.318764 -2.2896154 1.0864559 1.9269996e-38
1.3529054 -2.2914584 1.1680564 1.8993049e-38
1.360092 -2.2918828 1.1862859 1.8716825e-38
1.363472 -2.292073 1.1945823 1.9177442e-38
1.3728433 -2.2918825 1.1969526 1.8809021e-38
1.3676654 -2.2923954 1.2073717 1.7887788e-38
1.3725144 -2.2924554 1.2131591 1.9085248e-38
1.367245 -2.2929857 1.2239953 1.7979625e-38
1.3794066 -2.2930295 1.2354475 1.7519367e-38
1.3805918 -2.2929401 1.2338666 1.8164373e-38
1.3818451 -2.2934408 1.249321 1.7519007e-38
1.3893661 -2.2933321 1.2524878 1.8071459e-38
1.3993994 -2.293457 1.2644831 1.8163294e-38
1.3968658 -2.2939408 1.2762697 1.6965471e-38
1.4042535 -2.2937503 1.2769774 1.7610479e-38
1.4233816 -2.2951074 1.3320343 1.6411583e-38
1.4311514 -2.2950449 1.336738 1.5398513e-38
1.4299661 -2.2953675 1.3450234 1.5398513e-38
1.4386079 -2.295598 1.3588934 1.5675097e-38
1.4450989 -2.2958584 1.3718154 1.6226466e-38
1.4486555 -2.2961967 1.3845246 1.530559e-38
1.4519372 -2.2965536 1.3975394 1.3921937e-38
1.4620141 -2.2972665 1.4264827 1.438147e-38
1.4827958 -2.2975647 1.4524671 9.8645989e-39
1.4904364 -2.2973397 1.4523914 1.401196e-38
1.1072942 -2.2815166 0.67642874 1.6406135e-38
1.1182163 -2.2818341 0.69471073 1.8254398e-38
1.1267847 -2.2820179 0.70717502 1.834696e-38
1.1339557 -2.2822099 0.71869564 2.0375968e-38
1.1452752 -2.282445 0.73493934 2.0006831e-38
1.1489145 -2.2829611 0.75283438 2.0283414e-38
1.1533662 -2.2826924 0.74883413 2.0283054e-38
1.151809 -2.2831933 0.76194382 2.037561e-38
1.1557798 -2.2835481 0.77546567 2.0190501e-38
1.163004 -2.283802 0.7888236 1.9914634e-38
1.1760331 -2.2839289 0.80337793 1.9454377e-38
1.1795291 -2.2844036 0.81996155 1.9361824e-38
1.1927061 -2.2843604 0.82975167 1.963805e-38
1.1969008 -2.2847145 0.84345347 2.0007192e-38
1.2009152 -2.2851198 0.85846466 1.9361463e-38
1.2252127 -2.2863295 0.91361147 1.8993401e-38
1.2576766 -2.2879195 0.98652661 2.1665274e-38
1.2598954 -2.2881534 0.9951151 2.1481243e-38
1.2639869 -2.2884953 1.0083715 1.9823165e-38
1.2710118 -2.2887774 1.0223686 2.0283783e-38
1.2892106 -2.2896235 1.0619458 1.9823165e-38
1.2959517 -2.2899537 1.0770903 1.9915003e-38
1.3055396 -2.2901368 1.0903883 1.9914644e-38
1.337787 -2.2920556 1.172583 1.9269635e-38
1.3394589 -2.292026 1.1731353 1.9822447e-38
1.3498933 -2.2926905 1.2009813 1.8624989e-38
1.3544817 -2.2930789 1.2159908 1.8255849e-38
1.3610091 -2.2933488 1.2292217 1.8348046e-38
1.3743175 -2.2938597 1.2550677 1.8072179e-38
1.4033058 -2.2958827 1.3375249 1.6228271e-38
1.4093037 -2.2956626 1.3362193 1.6412299e-38
1.413146 -2.2959778 1.3484985 1.5859848e-38
1.4227506 -2.2962399 1.3640785 1.567546e-38
1.4272653 -2.2965798 1.377641 1.5398872e-38
1.4309376 -2.2969422 1.3911406 1.5490704e-38
1.4357412 -2.2972748 1.4047246 1.5673289e-38
1.4442443 -2.2980762 1.4348991 1.5395251e-38
1.0933092 -2.2820606 0.68037122 1.7605047e-38
1.0999169 -2.282032 0.68508762 1.8158938e-38
1.1057266 -2.2824121 0.70087188 1.8808292e-38
1.1142991 -2.2825704 0.7126115 1.8624983e-38
1.1194451 -2.2826657 0.71966571 1.834804e-38
1.1260563 -2.2827184 0.72671372 1.9085601e-38
1.1308711 -2.2830505 0.74029857 1.8439874e-38
1.1337996 -2.2834327 0.75374269 2.0283054e-38
1.140071 -2.2837262 0.76743603 2.0559642e-38
1.1433367 -2.2840993 0.78090531 1.9913914e-38
1.1481766 -2.284431 0.79449201 2.0559642e-38
1.1555825 -2.2846825 0.80793345 1.9177431e-38
1.1564804 -2.2852163 0.82404268 1.9545852e-38
1.1678307 -2.2848203 0.82214862 1.9822439e-38
1.161446 -2.2855401 0.83751488 1.9914274e-38
1.1747326 -2.2851059 0.83614916 1.9454016e-38
1.1853052 -2.2857451 0.86338907 1.8901203e-38
1.186817 -2.286165 0.87672752 1.9638769e-38
1.1952447 -2.2859004 0.87617499 1.9638769e-38
1.1993437 -2.2862468 0.88957 1.862462e-38
1.2009678 -2.2866676 0.90303385 1.8901206e-38
1.2094498 -2.2869444 0.91809231 1.8901206e-38
1.2194891 -2.2871339 0.93195349 2.1204652e-38
1.2526256 -2.2890089 1.0136378 2.0651845e-38
1.2594488 -2.2892289 1.0256755 2.0099033e-38
1.2770053 -2.2902088 1.0685662 2.0467817e-38
1.2816488 -2.290571 1.0828747 2.0467815e-38
1.2879453 -2.2908428 1.09596 1.9546225e-38
1.3084478 -2.2916811 1.1372416 2.0283064e-38
1.3389512 -2.2932217 1.2070947 1.8532433e-38
1.3431479 -2.2935143 1.2190275 1.9085244e-38
1.3460071 -2.2938983 1.2324665 1.8256207e-38
1.3527604 -2.2941749 1.246078 1.8440237e-38
1.3586829 -2.2944751 1.259674 1.8071818e-38
1.3670946 -2.2951703 1.2867125 1.7427533e-38
1.3917148 -2.2963963 1.3425978 1.6228631e-38
1.3978429 -2.2962942 1.3447922 1.6228631e-38
1.3997507 -2.2966113 1.3555056 1.5952404e-38
1.4011673 -2.2967 1.3592449 1.6504858e-38
1.4124193 -2.2971592 1.3818778 1.5674738e-38
1.4173386 -2.2974494 1.3943398 1.5490348e-38
1.4224744 -2.2977555 1.4074411 1.5305591e-38
1.4235952 -2.2983146 1.4244624 1.5949516e-38
1.4330641 -2.298003 1.4234263 1.5948794e-38
1.4315983 -2.2985256 1.4372345 1.5119387e-38
1.4399359 -2.298501 1.4435128 1.2723025e-38
1.082608 -2.2827127 0.69016677 1.7607584e-38
1.0911825 -2.2827055 0.69713855 1.9913916e-38
1.0950247 -2.2828279 0.70387971 1.9545495e-38
1.1006565 -2.2831535 0.71796167 1.8440952e-38
1.111056 -2.2832823 0.73037261 1.8347321e-38
1.1125571 -2.2837653 0.74552304 1.8440232e-38
1.1190007 -2.2840474 0.75902975 1.8623903e-38
1.1225595 -2.2844365 0.77320296 1.8439871e-38
1.1272795 -2.2847707 0.78676873 1.8255482e-38
1.1329818 -2.2850199 0.79871815 1.9637329e-38
1.1413438 -2.2852931 0.81357569 1.9361102e-38
1.1477143 -2.285584 0.82727641 1.9545852e-38
1.15354 -2.2859287 0.84206641 1.9822437e-38
1.1646197 -2.2855141 0.83941954 1.9730243e-38
1.1626424 -2.2861078 0.85484087 1.9730242e-38
1.1625761 -2.2866087 0.86919594 1.8901563e-38
1.1710173 -2.286449 0.87166715 1.899304e-38
1.1645406 -2.2870371 0.88316405 1.8533142e-38
1.1729503 -2.2867804 0.8828218 1.8901204e-38
1.1826121 -2.2869577 0.89600712 1.8624617e-38
1.1872736 -2.2872939 0.90958041 1.8992681e-38
1.196376 -2.287539 0.92425603 2.1296847e-38
1.2016701 -2.2878315 0.9371053 2.1388683e-38
1.2509094 -2.2906642 1.0598086 1.9730613e-38
1.2538605 -2.2906058 1.0605978 2.019123e-38
1.2717346 -2.2915416 1.1024854 2.0283425e-38
1.2810764 -2.2916732 1.1140947 1.9730613e-38
1.2854238 -2.2920806 1.1294494 1.9915003e-38
1.3204817 -2.2938836 1.2106712 1.9361469e-38
1.319612 -2.2944462 1.2261274 1.9176722e-38
1.3288423 -2.2940249 1.2217329 1.853243e-38
1.3307732 -2.2945235 1.2376981 1.8993048e-38
1.3373708 -2.2945271 1.2433239 1.9084885e-38
1.3331435 -2.2948854 1.250091 1.83484e-38
1.3394774 -2.2952561 1.2660635 1.7426808e-38
1.3433419 -2.295131 1.2656914 1.8163652e-38
1.3585801 -2.2960958 1.306205 1.7150584e-38
1.3697907 -2.2962465 1.3199289 1.7150586e-38
1.3804121 -2.2968738 1.3468591 1.6505578e-38
1.3795614 -2.2974565 1.36291 1.6413022e-38
1.3941826 -2.2979205 1.3884995 1.6043518e-38
1.3952321 -2.2983932 1.4029837 1.5582901e-38
1.4089808 -2.2984428 1.4159144 1.631866e-38
1.416962 -2.2982335 1.416582 1.5950601e-38
1.4084121 -2.2988994 1.4285784 1.5949155e-38
1.4172665 -2.298667 1.4293077 1.5397788e-38
1.4168887 -2.2991269 1.4422135 1.4935727e-38
1.4270799 -2.2988405 1.4425087 1.6686358e-38
1.0592 -2.2830942 0.68154132 1.7329184e-38
1.0670983 -2.2833452 0.69537556 1.7700864e-38
1.0749172 -2.2835052 0.706523 1.8809011e-38
1.0864078 -2.2837524 0.72326005 1.8255842e-38
1.0958427 -2.2839622 0.73719585 1.8439873e-38
1.1008661 -2.2842889 0.7507962 1.8440232e-38
1.1037371 -2.2846725 0.76423603 1.8531707e-38
1.1092242 -2.2849867 0.77787095 1.8439871e-38
1.1146057 -2.2853038 0.79149795 1.825548e-38
1.1193852 -2.2856369 0.80508018 1.807109e-38
1.1267484 -2.2859371 0.81987631 1.9177071e-38
1.1324364 -2.2862105 0.83250475 1.9269625e-38
1.1387093 -2.2865038 0.84619814 1.9729882e-38
1.141466 -2.2868907 0.85962951 2.000683e-38
1.1517855 -2.2865152 0.85747135 2.000683e-38
1.1514105 -2.2870944 0.87381798 1.8993398e-38
1.1520936 -2.2875283 0.88687348 1.8533142e-38
1.157722 -2.2875869 0.89326966 1.9177791e-38
1.1675646 -2.287544 0.90027761 1.9269987e-38
1.1704961 -2.2879431 0.91420996 2.1112455e-38
1.1776841 -2.2882292 0.92845863 2.1388681e-38
1.1856189 -2.288317 0.93762279 2.1480877e-38
1.2464721 -2.2914653 1.0791396 2.0007199e-38
1.2523862 -2.291786 1.0933112 2.0375621e-38
1.2670774 -2.2923625 1.1222023 2.0006838e-38
1.2910649 -2.2939842 1.1889337 1.8809017e-38
1.300918 -2.2946074 1.2151045 1.9636978e-38
1.3042647 -2.2945158 1.2152773 1.9085245e-38
1.3102232 -2.2949257 1.2320564 1.9176362e-38
1.3319675 -2.295531 1.2676709 1.7795229e-38
1.3464588 -2.2966468 1.3119042 1.7611201e-38
1.3585668 -2.2972267 1.3387182 1.6781803e-38
1.3639103 -2.2970583 1.338352 1.724278e-38
1.3713993 -2.2978168 1.3664449 1.6873998e-38
1.3857125 -2.2988133 1.4070889 1.6043156e-38
1.400769 -2.2988832 1.4217112 1.5858764e-38
1.3957616 -2.2994649 1.434248 1.5213031e-38
1.4080267 -2.2990286 1.4319704 1.5490702e-38
1.4071496 -2.2996378 1.4487604 1.4382555e-38
1.0056673 -2.2819769 0.6045804 1.4934273e-38
1.0357553 -2.2834065 0.67089152 1.5574564e-38
1.0468317 -2.2836707 0.68776542 1.8161113e-38
1.0540706 -2.2839122 0.70077157 1.8623537e-38
1.0629011 -2.284138 0.71466535 1.8532064e-38
1.0710281 -2.2843821 0.72848743 1.8440233e-38
1.0774405 -2.2846501 0.74156904 1.8347676e-38
1.0857515 -2.2849112 0.7560367 1.8531707e-38
1.0913184 -2.2852232 0.76967752 1.8531708e-38
1.0952996 -2.2855775 0.78320014 1.8255121e-38
1.0998834 -2.2859159 0.79676765 1.8532064e-38
1.1060466 -2.2862122 0.81045294 1.7979612e-38
1.1136209 -2.2865517 0.82655817 1.9084872e-38
1.1206466 -2.2867446 0.83799297 1.8993037e-38
1.1284636 -2.2869971 0.85180157 1.9268903e-38
1.1342579 -2.2874172 0.86873662 1.9084514e-38
1.1366727 -2.2877469 0.88024306 1.8808647e-38
1.1370924 -2.2881405 0.8919208 1.9546212e-38
1.1436145 -2.2879741 0.89259624 1.8900843e-38
1.147052 -2.2883394 0.90598035 2.0651838e-38
1.1573973 -2.2885289 0.9200877 2.1757462e-38
1.163487 -2.2887452 0.93141431 2.1573071e-38
1.1714619 -2.2890754 0.94758785 2.1757104e-38
1.2207395 -2.2914472 1.0570681 2.1205016e-38
1.2499743 -2.292953 1.1248673 1.954622e-38
1.2818331 -2.294425 1.1938808 1.9730253e-38
1.3115102 -2.2959371 1.2622223 1.8347684e-38
1.3108423 -2.2964714 1.2770363 1.7702676e-38
1.3486381 -2.2981722 1.3576099 1.6873277e-38
1.3588246 -2.2978349 1.3564295 1.6873639e-38
1.3551192 -2.2984307 1.3704638 1.6965833e-38
1.355963 -2.298378 1.3696574 1.7426448e-38
1.3581884 -2.298748 1.3821636 1.6044598e-38
1.3651774 -2.2986076 1.3839812 1.6320824e-38
1.3755649 -2.2997561 1.4257073 1.5674731e-38
1.3786002 -2.2996643 1.4256134 1.5766564e-38
1.3853257 -2.2994971 1.426435 1.659561e-38
1.3944184 -2.2996628 1.4388152 1.622646e-38
0.99304092 -2.2825332 0.61000842 1.5118662e-38
1.024137 -2.2840068 0.67843091 1.6499058e-38
1.0344009 -2.284302 0.69551545 1.8069281e-38
1.0420837 -2.2844512 0.70624524 1.8346595e-38
1.049274 -2.2847204 0.72000706 1.844023e-38
1.0546135 -2.2849257 0.73038328 1.8163645e-38
1.062036 -2.2853014 0.74741012 1.8347317e-38
1.0725889 -2.285435 0.76008213 1.8532066e-38
1.0733441 -2.285888 0.77374077 1.8071089e-38
1.0829214 -2.2861271 0.78864455 1.8162924e-38
1.0885264 -2.2864382 0.80228829 1.8070729e-38
1.0939442 -2.2867544 0.81591803 1.7794864e-38
1.0994422 -2.2870684 0.82955366 1.9084153e-38
1.1051891 -2.2872741 0.84028113 1.8900122e-38
1.1120994 -2.2876525 0.85694891 1.8808285e-38
1.1182308 -2.2879496 0.87063181 1.8992677e-38
1.1237394 -2.2882633 0.88426834 1.8716451e-38
1.1272924 -2.2886288 0.89775908 1.8901201e-38
1.1350163 -2.2888782 0.91139728 2.0559639e-38
1.1450816 -2.2890766 0.92553681 2.1757101e-38
1.1526121 -2.2893331 0.93921751 2.1388681e-38
1.1502393 -2.2898421 0.95186585 2.1296486e-38
1.1550974 -2.2902071 0.96643776 2.0559284e-38
1.1594158 -2.2901261 0.96772623 2.1204291e-38
1.1812739 -2.2908654 1.0072935 2.1112101e-38
1.1798911 -2.2913716 1.0206946 2.0467811e-38
1.2112257 -2.292393 1.0763141 2.0652204e-38
1.2572967 -2.2948372 1.1851931 1.8901215e-38
1.2713778 -2.2953835 1.2127005 1.8808658e-38
1.2997693 -2.2969627 1.2819004 1.7794871e-38
1.3310535 -2.2989545 1.3653789 1.6229344e-38
1.3371359 -2.2987626 1.3649586 1.7149503e-38
1.3348114 -2.2992198 1.3761662 1.6321181e-38
1.3464199 -2.2993956 1.3909327 1.6412658e-38
1.3676469 -2.300647 1.4447103 1.5305946e-38
1.3715756 -2.3005531 1.4452933 1.558181e-38
0.97773284 -2.2831607 0.61523443 1.5117942e-38
1.0049863 -2.2846558 0.68106484 1.6775646e-38
1.0135635 -2.2847488 0.69092196 1.7700504e-38
1.0196016 -2.2848091 0.69771069 1.7884173e-38
1.0272844 -2.2849503 0.70820874 1.862354e-38
1.0375017 -2.285254 0.72549677 1.8164005e-38
1.045087 -2.2854602 0.73778331 1.8347316e-38
1.0484731 -2.2858927 0.75305325 1.8163643e-38
1.0552158 -2.2861636 0.76649475 1.8163643e-38
1.061864 -2.286447 0.78021628 1.7886699e-38
1.0668372 -2.2867265 0.79241318 1.7978535e-38
1.0723796 -2.2870986 0.80776113 1.7702308e-38
1.0796261 -2.2873554 0.82121789 1.9176348e-38
1.0870684 -2.2876179 0.83499843 1.9083792e-38
1.0959281 -2.2877877 0.84729534 1.8991958e-38
1.0971053 -2.2882857 0.86261368 1.8807927e-38
1.1042167 -2.288502 0.87478507 1.8808287e-38
1.1084425 -2.2889094 0.89004713 1.9269622e-38
1.1144683 -2.2891903 0.90317029 2.0375611e-38
1.1231903 -2.2894917 0.91913992 2.1296483e-38
1.1467491 -2.2906334 0.97170585 2.1204291e-38
