# .PCD v0.7 - Point Cloud Data file format
VERSION 0.7
FIELDS x y z rgb
SIZE 4 4 4 4
TYPE F F F F
COUNT 1 1 1 1
WIDTH 582
HEIGHT 1
VIEWPOINT 0 0 0 1 0 0 0
POINTS 582
DATA ascii
-0.16749588 2.5518789 -1.0014958 1.0697562e-38
-0.15962532 2.5403125 -1.0016556 8.206839e-39
-0.21493091 2.5756307 -1.0016587 1.4014078e-38
-0.58666641 2.6976805 -1.0045041 1.9454354e-38
-0.57996142 2.6846573 -1.0047177 2.3049625e-38
-0.57389969 2.6712835 -1.0049499 2.3418049e-38
-0.59637028 2.6761336 -1.0051837 2.2773039e-38
-0.5882495 2.663831 -1.0053575 2.3049625e-38
-0.57381588 2.6383445 -1.0057549 2.3418046e-38
-0.62948877 2.708432 -1.0049127 2.1113154e-38
-0.60842502 2.6698813 -1.0055259 2.3418049e-38
-0.6004703 2.6575334 -1.0057034 2.2957071e-38
-0.59283948 2.6428072 -1.0059441 2.3509886e-38
-0.62498689 2.6612864 -1.0059962 2.3325854e-38
-0.6155988 2.6496634 -1.0061336 2.3418047e-38
-0.65893316 2.7096691 -1.0053445 1.7886667e-38
-0.62948281 2.6427171 -1.0065213 2.3418049e-38
-0.62201005 2.6298621 -1.0067189 2.3418049e-38
-0.67779589 2.6998875 -1.00588 1.7610432e-38
-0.67083895 2.6870024 -1.0060862 2.0191559e-38
-0.66392457 2.674094 -1.0062937 2.0928405e-38
-0.65654665 2.6614387 -1.0064877 2.3509883e-38
-0.64212227 2.6363864 -1.0068747 2.3048906e-38
-0.69893873 2.7054114 -1.0060766 1.6872151e-38
-0.69300163 2.6920033 -1.0063115 1.880826e-38
-0.68541569 2.6800139 -1.0064861 2.3325853e-38
-0.67883891 2.6663337 -1.0067177 2.1113514e-38
-0.67102844 2.6511445 -1.0069671 2.2496092e-38
-0.66232449 2.6349754 -1.0072263 2.3509884e-38
-0.6561324 2.6286798 -1.0072832 2.3509884e-38
-0.62359595 2.5614088 -1.0084195 1.8624952e-38
-0.70721161 2.6845918 -1.006716 2.1851082e-38
-0.71302688 2.6981003 -1.0064765 1.8533115e-38
-0.68957651 2.6607916 -1.0070219 2.3509886e-38
-0.68611097 2.648864 -1.0072595 2.2680842e-38
-0.67393476 2.6359386 -1.0073848 2.2772679e-38
-0.64376926 2.5705776 -1.0085115 2.0929487e-38
-0.63693583 2.5563002 -1.0087538 1.9454714e-38
-0.72923583 2.6908484 -1.0069084 2.0191915e-38
-0.72114193 2.6778111 -1.0071006 2.332585e-38
-0.71399724 2.661978 -1.0073761 2.2957069e-38
-0.70050156 2.6381731 -1.0077471 2.3509523e-38
-0.65874159 2.561286 -1.008974 2.0468509e-38
-0.65680742 2.5534925 -1.0091343 1.5397746e-38
-0.68787783 2.6287262 -1.0077802 2.3418047e-38
-0.66376871 2.5752246 -1.0087116 2.3326212e-38
-0.75525016 2.7091792 -1.0068679 1.7517517e-38
-0.74771845 2.6966076 -1.0070574 2.1389738e-38
-0.74118298 2.6834924 -1.0072759 2.1942914e-38
-0.7349112 2.670233 -1.0075022 2.2957071e-38
-0.72877926 2.6568975 -1.0077324 2.3418047e-38
-0.72189534 2.6439724 -1.0079408 2.341769e-38
-0.71509683 2.6310658 -1.00815 2.3417331e-38
-0.68522644 2.5791054 -1.0089533 1.973094e-38
-0.67880207 2.5653415 -1.0091895 2.0468506e-38
-0.66765732 2.5566487 -1.0092274 1.8348005e-38
-0.76959437 2.7017298 -1.0072753 1.3368352e-38
-0.7617898 2.6893075 -1.0074569 1.7424963e-38
-0.75626546 2.6756401 -1.0077049 2.2864875e-38
-0.73738921 2.6397769 -1.0082866 2.341769e-38
-0.69473952 2.5570571 -1.0096424 1.7610081e-38
-0.69997448 2.5729055 -1.0093365 2.2312058e-38
-0.77991873 2.6949852 -1.0076025 2.1297909e-38
-0.77432108 2.6828477 -1.0078118 1.5488853e-38
-0.76918989 2.6680195 -1.0080942 2.2311701e-38
-0.76705432 2.6536033 -1.0084136 2.3417691e-38
-0.75599205 2.6421735 -1.0085198 2.341769e-38
-0.7465322 2.6312859 -1.0086379 2.3509883e-38
-0.71938306 2.5793746 -1.0094827 2.3418049e-38
-0.71532977 2.5664687 -1.0097351 1.7426052e-38
-0.70452875 2.5540025 -1.0098708 1.6504455e-38
-0.78634274 2.6765862 -1.0081537 2.1667052e-38
-0.77549237 2.6509604 -1.0086107 2.2680484e-38
-0.73188359 2.5700755 -1.0099065 2.1573777e-38
-0.82520694 2.7064009 -1.0080336 1.6043473e-38
-0.82056832 2.6918209 -1.0083177 1.8348364e-38
-0.81010503 2.6807585 -1.0084244 1.8072136e-38
-0.80421138 2.6694269 -1.0086093 2.3418046e-38
-0.79908907 2.6548734 -1.0088851 2.3325493e-38
-0.79075134 2.6412747 -1.0090872 2.3417689e-38
-0.78336948 2.6286216 -1.0092812 2.341769e-38
-0.74553615 2.5532532 -1.0105325 1.6873237e-38
-0.8463639 2.711395 -1.0082433 1.3000652e-38
-0.81940728 2.6593788 -1.0090936 2.3417689e-38
-0.82141525 2.6748753 -1.0087459 2.3417689e-38
-0.81190628 2.6467905 -1.0092841 2.341769e-38
-0.80309004 2.6349168 -1.0094365 2.3509884e-38
-0.85994804 2.7043319 -1.0086294 2.2588641e-38
-0.84748387 2.6777987 -1.0090834 2.3418047e-38
-0.83460665 2.65295 -1.0094897 2.3417687e-38
-0.82711726 2.6399817 -1.0096896 2.341769e-38
-0.81686485 2.6277819 -1.0098274 2.3325493e-38
-0.86879569 2.6832287 -1.0092849 1.9638744e-38
-0.88022768 2.7103543 -1.0088003 1.9915688e-38
-0.87371016 2.6972294 -1.0090193 1.8624591e-38
-0.86074728 2.6709397 -1.0094594 2.332585e-38
-0.84749365 2.6448088 -1.0098912 2.3418049e-38
-0.839306 2.6325955 -1.0100616 2.3509525e-38
-0.89031136 2.6910951 -1.0094298 1.9362153e-38
-0.88112026 2.6768818 -1.0096335 1.9914609e-38
-0.87410903 2.6640267 -1.0098383 2.2403537e-38
-0.86985195 2.6509657 -1.0100912 2.3509527e-38
-0.85981673 2.6384628 -1.0102398 2.3418049e-38
-0.85268945 2.6256704 -1.0104412 2.3509525e-38
-0.89959133 2.6837845 -1.0097545 2.231134e-38
-0.89302933 2.6706865 -1.0099721 2.332585e-38
-0.89023495 2.6580448 -1.0102378 2.1666328e-38
-0.88106573 2.6439266 -1.0104395 2.2957069e-38
-0.87319654 2.6315401 -1.0106193 2.3325852e-38
-0.93070275 2.7006261 -1.0098304 1.6042387e-38
-0.92296576 2.6881671 -1.0100139 1.7794467e-38
-0.91537923 2.6756256 -1.0102019 2.1573772e-38
-0.90704042 2.6634946 -1.0103681 2.1942919e-38
-0.90181291 2.6496654 -1.0106246 2.3418047e-38
-0.89489377 2.6367598 -1.0108318 2.3326212e-38
-0.88468248 2.6255746 -1.0109456 2.3325854e-38
-0.95142156 2.7063801 -1.0100147 1.770155e-38
-0.94417816 2.6937993 -1.010209 1.9269237e-38
-0.93667197 2.6810257 -1.0104039 2.1574131e-38
-0.9292528 2.666234 -1.0106496 2.3417687e-38
-0.92468929 2.6542878 -1.0108705 2.3233296e-38
-0.91417229 2.6432996 -1.0109743 2.2127308e-38
-0.9067325 2.6306782 -1.0111666 2.341769e-38
-0.95245713 2.6728301 -1.0108522 2.1389736e-38
-0.94563335 2.6598721 -1.0110624 2.1205345e-38
-0.9381879 2.6472535 -1.0112544 2.3418047e-38
-0.92739546 2.6363788 -1.0113512 2.3509525e-38
-0.9209016 2.6232495 -1.0115708 2.341769e-38
-0.97056878 2.6776419 -1.0110186 2.2311338e-38
-0.96776468 2.6649055 -1.0112864 2.2772312e-38
-0.96171135 2.6515644 -1.011518 2.221986e-38
-0.95444775 2.6388407 -1.0117155 2.3417689e-38
-0.94695336 2.6262081 -1.0119071 2.3417687e-38
-0.98769146 2.6710405 -1.011449 2.046778e-38
-0.97941023 2.6588786 -1.0116166 2.3417682e-38
-0.97307289 2.6456554 -1.0118409 2.3325849e-38
-0.96641475 2.6326067 -1.0120559 2.3509525e-38
-0.9602232 2.6193037 -1.0122844 2.3417686e-38
-0.99500108 2.6507339 -1.0120606 2.332549e-38
-0.98853606 2.6375737 -1.0122814 2.3417684e-38
-0.98020786 2.6254582 -1.0124474 2.332513e-38
-1.0098783 2.6430085 -1.0124832 2.332513e-38
-1.0298436 2.682158 -1.0118382 2.2496801e-38
-1.0028584 2.6301577 -1.0126877 2.3417686e-38
-0.99277782 2.6189275 -1.0128044 2.3325131e-38
-1.0589511 2.7000618 -1.0118566 1.936215e-38
-1.0316883 2.6513736 -1.0126207 2.3233295e-38
-1.0225602 2.6364665 -1.0128424 2.3417687e-38
-1.0156684 2.6235459 -1.0130506 2.3417687e-38
-1.0405142 2.6436388 -1.0129485 2.3141459e-38
-1.0350345 2.6299798 -1.0131969 2.3417689e-38
-1.0891557 2.68437 -1.0127146 2.019119e-38
-1.0816566 2.6717594 -1.0129057 2.1112788e-38
-1.0745826 2.6589262 -1.0131088 2.3049259e-38
-1.0645052 2.647697 -1.0132257 2.2772675e-38
-1.0574731 2.6348529 -1.0134298 2.3141095e-38
-1.0507077 2.6218634 -1.0136415 2.332549e-38
-1.1005536 2.6784484 -1.0130385 2.231205e-38
-1.0769103 2.6412239 -1.0135788 2.3325489e-38
-1.0716133 2.6274958 -1.0138317 2.3325849e-38
-1.1008115 2.6453228 -1.0138534 2.3049618e-38
-1.0941501 2.6322763 -1.0140684 2.3325489e-38
-1.087279 2.619344 -1.0142771 2.3141458e-38
-1.142047 2.6899254 -1.0134087 2.2311689e-38
-1.1144655 2.6381927 -1.0142423 2.323329e-38
-1.109728 2.6242328 -1.0145097 2.2957062e-38
-1.1634185 2.6953228 -1.0136118 1.6041303e-38
-1.1489246 2.6698694 -1.0140076 2.2772662e-38
-1.1284091 2.6310196 -1.0146366 2.3325846e-38
-1.121523 2.6180956 -1.014845 2.3049261e-38
-1.1705402 2.675221 -1.0142157 2.1665959e-38
-1.155769 2.6488824 -1.0146288 2.3141456e-38
-1.1514602 2.6355612 -1.0148872 2.2957062e-38
-1.1413071 2.6243598 -1.015002 2.2680833e-38
-1.1714975 2.6416261 -1.0150532 2.3233289e-38
-1.1644373 2.6287973 -1.0152564 2.323329e-38
-1.1539686 2.6177552 -1.0153624 2.2956345e-38
-1.2151042 2.6850214 -1.014675 1.7056891e-38
-1.1837405 2.635324 -1.0153996 2.2496081e-38
-1.1775582 2.622016 -1.0156283 2.2864865e-38
-1.2259699 2.6958838 -1.0145797 1.7608984e-38
-1.219432 2.6675887 -1.0151697 2.0006433e-38
-1.2124468 2.6534464 -1.0154064 1.945362e-38
-1.206431 2.6400788 -1.0156391 2.1758513e-38
-1.1966574 2.628654 -1.0157655 2.2680471e-38
-1.1894811 2.6158886 -1.0159653 2.2680472e-38
-1.2466352 2.6851671 -1.0151663 1.4658362e-38
-1.226462 2.6461306 -1.0158054 2.2680111e-38
-1.2193282 2.633342 -1.0160065 2.2588275e-38
-1.2108477 2.6222777 -1.0161443 2.2127296e-38
-1.1877615 2.5673077 -1.0171276 2.2864867e-38
-1.1735078 2.5582576 -1.0171256 2.1113514e-38
-1.1663643 2.5454745 -1.0173264 1.991641e-38
-1.2665604 2.6913543 -1.0153275 1.1615188e-38
-1.2596984 2.6766305 -1.0155803 1.7332757e-38
-1.2357332 2.6269636 -1.01642 2.2404242e-38
-1.2248735 2.6140132 -1.0165666 2.268047e-38
-1.2007297 2.5610437 -1.0174845 1.7057268e-38
-1.1876031 2.550889 -1.0175271 2.0928405e-38
-1.2816507 2.685833 -1.0156994 1.3920799e-38
-1.2745216 2.6707706 -1.0159563 1.4012634e-38
-1.267799 2.6608312 -1.0160941 2.2863778e-38
-1.213707 2.5538437 -1.0178643 2.0099721e-38
-1.2713146 2.6228817 -1.0170783 2.2403883e-38
-1.2955543 2.6103191 -1.0177661 2.1942903e-38
-1.3348548 2.6229541 -1.0180736 2.2218777e-38
-1.3653836 2.6094778 -1.0188825 2.2218782e-38
-1.3836207 2.6146655 -1.0190417 2.2310614e-38
-1.3797754 2.6162982 -1.0189413 1.8252558e-38
-1.4667934 2.6714315 -1.0189571 1.7515348e-38
-1.4557979 2.6427979 -1.0194855 1.6225694e-38
-1.4439338 2.6295936 -1.0196227 2.2865229e-38
-1.4440678 2.6158912 -1.0199602 1.6777424e-38
-1.4357648 2.6202431 -1.0197233 1.4746957e-38
-1.4798295 2.6633012 -1.0193608 1.2259823e-38
-1.4696459 2.6521533 -1.0194738 1.5487406e-38
-1.462785 2.6381457 -1.0197091 1.6316802e-38
-1.4938703 2.6549373 -1.0197858 1.539558e-38
-1.4739081 2.6164651 -1.0204144 2.3509883e-38
-1.483481 2.645031 -1.0198653 1.7700115e-38
-1.4759445 2.6322389 -1.0200602 2.0373791e-38
-1.5129596 2.6612771 -1.0199301 1.4382146e-38
-1.492896 2.6240697 -1.0205262 1.8438037e-38
-1.5323336 2.6701794 -1.0200162 1.4475782e-38
-1.5555266 2.6736031 -1.0202963 1.4934242e-38
-0.4676711 2.7099226 -1.0023371 1.8716063e-38
-0.46413699 2.6622698 -1.0034482 2.2496088e-38
-0.5001058 2.7062483 -1.002936 2.2219144e-38
-0.49335352 2.6966314 -1.0030655 1.7794105e-38
-0.48267466 2.6716158 -1.0035102 2.350988e-38
-0.47169912 2.6515384 -1.0038296 2.3418049e-38
-0.56455749 2.6590919 -1.0051018 2.2219866e-38
-0.55709302 2.6433275 -1.0053706 2.341769e-38
-0.55093282 2.6324623 -1.0055399 2.341769e-38
-0.57901466 2.6521897 -1.0054976 2.3417691e-38
-0.58614272 2.6319966 -1.0061038 2.341769e-38
-0.18554661 2.5755506 -1.0011996 1.290809e-38
-0.17711246 2.5634189 -1.0013644 1.3093202e-38
-0.26733679 2.7146738 -0.99907726 1.9361417e-38
-0.1983923 2.588007 -1.0010962 1.3459819e-38
-0.27948374 2.7083621 -0.99942243 2.083619e-38
-0.26926076 2.6971741 -0.99953592 2.1850349e-38
-0.26328105 2.6815565 -0.99982435 1.9914955e-38
-0.22514924 2.5657363 -1.0020612 1.2171247e-38
-0.27897009 2.6756577 -1.0002149 2.2127297e-38
-0.27352732 2.5794055 -1.0024858 1.2355644e-38
-0.2635296 2.5712566 -1.0025283 1.2355644e-38
-0.29049587 2.5868616 -1.0025696 1.3185765e-38
-0.4268176 2.6978991 -1.0019904 2.3509881e-38
-0.43358889 2.6943991 -1.0021824 2.3509881e-38
-0.4252606 2.6812737 -1.002373 2.3417689e-38
-0.68529505 2.554878 -1.0095475 1.5581775e-38
-0.73826671 2.5542862 -1.0103933 1.5305551e-38
-0.22900577 2.7180917 -0.99839222 1.4382126e-38
-0.21774955 2.5928056 -1.0012826 1.6595557e-38
-0.62358904 2.6793826 -1.0055313 2.341769e-38
-0.61636937 2.6654434 -1.0057592 2.341769e-38
-0.71079028 2.682538 -1.0068223 2.3418047e-38
-0.69656372 2.6569154 -1.0072265 2.3418049e-38
-0.51252395 2.7048841 -1.0031643 2.3418049e-38
-0.52627087 2.6957586 -1.0036033 2.341805e-38
-0.54326934 2.6944537 -1.0039021 2.3417333e-38
-0.53246707 2.6760745 -1.0041825 2.3417691e-38
-0.5452258 2.671319 -1.0044991 2.3509168e-38
-0.36678219 2.7126613 -1.000687 1.7426396e-38
-0.37393695 2.6945097 -1.0012436 2.3418049e-38
-0.36583009 2.6801548 -1.0014678 2.3509884e-38
-0.42524123 2.7153499 -1.0015385 1.8624229e-38
-0.40320897 2.6812055 -1.0020286 2.3417689e-38
-0.413683 2.6718566 -1.0024219 2.3325854e-38
-0.40229982 2.6447482 -1.0029068 2.341769e-38
-0.42339382 2.6502969 -1.0031019 2.3509881e-38
-0.41582847 2.6377439 -1.0032907 2.3509525e-38
-0.42904237 2.6638963 -1.0028577 2.3049984e-38
-0.46312889 2.695699 -1.002614 2.221986e-38
-0.45800719 2.6818645 -1.0028723 2.222022e-38
-0.44737786 2.6689177 -1.0030226 2.3325493e-38
-0.4449949 2.6555691 -1.003312 2.3509523e-38
-0.43595532 2.6422248 -1.0034966 2.3325849e-38
-0.49856102 2.7102582 -1.0028137 2.3326213e-38
-0.48095798 2.7029626 -1.0027161 2.2035466e-38
-0.5021854 2.6982193 -1.0031652 2.341769e-38
-0.47821519 2.6548796 -1.0038501 2.3418047e-38
-0.50573295 2.6901004 -1.0034196 2.3418049e-38
-0.50375247 2.6730609 -1.0038056 2.3234019e-38
-0.49861476 2.6608396 -1.0040241 2.3141822e-38
-0.5049355 2.6326585 -1.0048133 2.3509525e-38
-0.56306785 2.7152073 -1.0037047 2.3141822e-38
-0.55496442 2.6975405 -1.00401 2.3325854e-38
-0.54973543 2.6837122 -1.0042665 2.3417691e-38
-0.52735639 2.646127 -1.0048354 2.3417689e-38
-0.56495655 2.6766315 -1.0046787 2.3417691e-38
-0.57457179 2.7039013 -1.004162 2.037631e-38
-0.56837052 2.6906035 -1.0043902 2.3141823e-38
-0.59466833 2.7099948 -1.0043281 1.6412612e-38
-0.56916654 2.6571703 -1.0052211 2.3509886e-38
-0.55854905 2.6422238 -1.0054204 2.3509525e-38
-0.60884619 2.7032418 -1.004716 2.3142182e-38
-0.59944177 2.688694 -1.0049244 2.341769e-38
-0.61930555 2.6806245 -1.0054337 2.3234019e-38
-0.60505766 2.6543517 -1.0058533 2.341769e-38
-0.62300217 2.6952899 -1.0051327 2.1206072e-38
-0.6436367 2.7010396 -1.0053158 2.3418049e-38
-0.63301158 2.6900609 -1.0054178 2.341805e-38
-0.63280898 2.6752341 -1.0057776 2.2404257e-38
-0.66606426 2.7059104 -1.0055485 1.7886667e-38
-0.66147804 2.6920867 -1.0058149 2.3325494e-38
-0.65204525 2.676121 -1.0060577 2.3509884e-38
-0.64839607 2.6655254 -1.0062598 2.3418049e-38
-0.63647872 2.644021 -1.0065992 2.3509886e-38
-0.65744853 2.6549964 -1.0066596 2.3509527e-38
-0.64563304 2.6328704 -1.0070159 2.3417331e-38
-0.69004697 2.6773086 -1.0066248 2.3234019e-38
-0.66996545 2.637749 -1.0072783 2.3048907e-38
-0.63176084 2.5572605 -1.0086491 1.5674692e-38
-0.71882677 2.7115254 -1.0062389 1.8439115e-38
-0.70057499 2.6715317 -1.0069315 2.2680484e-38
-0.69105524 2.6599026 -1.0070668 2.3234019e-38
-0.68321025 2.6474674 -1.0072482 2.3418049e-38
-0.64284509 2.5560131 -1.0088536 1.5582136e-38
-0.73256147 2.7044063 -1.0066286 2.0745449e-38
-0.70614183 2.6521266 -1.007494 2.3417687e-38
-0.67850411 2.5538335 -1.0094665 1.5673609e-38
-0.75031453 2.662003 -1.0079453 2.3325853e-38
-0.74219644 2.6498914 -1.0081145 2.3418049e-38
-0.79389191 2.7053621 -1.0075676 2.2128032e-38
-0.78501052 2.6905706 -1.0077904 2.3234019e-38
-0.77379787 2.6679952 -1.0081671 2.3326215e-38
-0.7677449 2.6530712 -1.0084375 2.3509886e-38
-0.76344854 2.6465755 -1.0085289 2.341805e-38
-0.72078675 2.5588374 -1.0100075 1.5582138e-38
-0.80550945 2.6982965 -1.0079229 2.0192279e-38
-0.80052376 2.6831837 -1.0082147 2.3325853e-38
-0.78593212 2.6601846 -1.0085487 2.3418049e-38
-0.77680707 2.6484108 -1.0086938 2.3418049e-38
-0.73589706 2.5641007 -1.0101157 1.5858725e-38
-0.8184191 2.6927576 -1.0082611 2.3417691e-38
-0.80714613 2.6598773 -1.0088891 2.3509527e-38
-0.79165244 2.6300373 -1.0093764 1.8808626e-38
-0.75196946 2.5536096 -1.0106248 1.5582139e-38
-0.84405607 2.6960623 -1.0085825 1.8993375e-38
-0.8348816 2.6846473 -1.008718 2.3325852e-38
-0.83035177 2.6700869 -1.0090034 2.3325492e-38
-0.81173712 2.6467855 -1.0092816 2.3509525e-38
-0.80309057 2.6347625 -1.0094403 2.3325853e-38
-0.85636657 2.6896324 -1.0089331 2.3234012e-38
-0.83898997 2.665683 -1.0092467 2.3418049e-38
-0.87931848 2.6941674 -1.0091822 2.3234378e-38
-0.86587805 2.6681383 -1.0096085 2.3417691e-38
-0.85881037 2.6553688 -1.0098102 2.341769e-38
-0.88147563 2.6605072 -1.01004 2.341769e-38
-0.89531398 2.7024343 -1.0092307 2.1758523e-38
-0.91780657 2.7072849 -1.009465 1.8901176e-38
-0.91325569 2.6934507 -1.0097322 2.3234018e-38
-0.88681507 2.6415026 -1.0105891 2.341769e-38
-0.9670248 2.6966484 -1.0104977 2.1851078e-38
-0.96052909 2.6851063 -1.0106784 2.1666323e-38
-0.96728224 2.6622307 -1.0113442 2.3418047e-38
-0.96349484 2.6495049 -1.0115963 2.3417689e-38
-0.98787862 2.7039232 -1.0106468 1.8716779e-38
-0.98127747 2.6908441 -1.0108634 2.2495725e-38
-1.0120922 2.7078443 -1.0109308 1.6780667e-38
-1.0051479 2.694952 -1.0111374 1.9085202e-38
-0.99528337 2.6835792 -1.011261 1.9731289e-38
-1.0248064 2.7012098 -1.0112927 2.2220569e-38
-1.0185835 2.6879234 -1.0115203 2.258828e-38
-1.0071845 2.6773853 -1.0115994 2.2034746e-38
-0.99760884 2.6658678 -1.0117311 2.3417324e-38
-1.0380923 2.6943383 -1.0116694 2.2127659e-38
-1.0255675 2.6676836 -1.0121254 2.3325492e-38
-1.0173994 2.6555855 -1.0122935 2.3417687e-38
-1.0511885 2.6894014 -1.0119958 2.2957064e-38
-1.0435401 2.6750219 -1.0122278 2.323365e-38
-1.0392026 2.6607471 -1.0125091 2.3417687e-38
-1.0739418 2.6922133 -1.0122839 2.3050337e-38
-1.0663931 2.6796513 -1.012473 2.277303e-38
-1.0594137 2.6667781 -1.0126786 2.323365e-38
-1.0523704 2.65394 -1.0128825 2.3325487e-38
-1.0950817 2.6995997 -1.0124348 1.8531669e-38
-1.1082553 2.690927 -1.012854 1.9269596e-38
-1.0943453 2.6651545 -1.0132666 2.2496437e-38
-1.0877246 2.6520855 -1.0134826 2.3417684e-38
-1.1288184 2.6967392 -1.0130342 2.2588638e-38
-1.118286 2.6719437 -1.013476 2.2127659e-38
-1.110554 2.6567488 -1.0137267 2.3141095e-38
-1.1368728 2.6760671 -1.0136666 2.3325485e-38
-1.1231948 2.6501679 -1.0140861 2.2864506e-38
-1.1568284 2.6822374 -1.0138288 1.5950542e-38
-1.1436921 2.6560426 -1.014264 2.3233649e-38
-1.1365764 2.6432443 -1.0144655 2.3325845e-38
-1.1763368 2.6886125 -1.013979 2.231097e-38
-1.162243 2.6629176 -1.0143867 2.3233649e-38
-1.1783912 2.6545458 -1.014845 2.3049255e-38
-0.20418034 2.7145798 -0.99808854 7.3748965e-39
-0.19737774 2.7016106 -0.99829936 1.2353459e-38
-0.18613285 2.6909773 -0.99838322 1.3736395e-38
-0.1834375 2.6758547 -0.99871105 1.5580306e-38
-0.21122071 2.6944034 -0.99869293 1.733238e-38
-0.20702942 2.6827981 -0.99891126 1.6594818e-38
-0.19906969 2.6702683 -0.99909317 1.7885916e-38
-0.19107985 2.654218 -0.99936062 1.6963962e-38
-0.21942668 2.6736534 -0.99932969 1.8623123e-38
-0.21137518 2.6613657 -0.99950409 1.7794084e-38
-0.20285697 2.6508601 -0.99962759 1.8716761e-38
-0.15036316 2.5464282 -1.0013604 7.6515114e-39
-0.22935578 2.6520066 -1.0000154 2.0191174e-38
-0.2199105 2.6404045 -1.0001512 1.8993347e-38
-0.24829778 2.6586549 -1.0001498 2.1113496e-38
-0.29548687 2.7165387 -0.99947333 1.8625656e-38
-0.22778982 2.5868165 -1.0015867 1.8716062e-38
-0.30638048 2.7110302 -0.99977911 1.8259754e-38
-0.2965768 2.683111 -1.0003088 2.1022743e-38
-0.28905877 2.6714771 -1.0004756 2.0469933e-38
-0.28044775 2.6585498 -1.0006568 2.0284818e-38
-0.27142996 2.6467061 -1.0008054 1.8625665e-38
-0.24673669 2.5935376 -1.0017195 1.7703353e-38
-0.24134643 2.5792644 -1.0019842 1.7057262e-38
-0.33131704 2.7145762 -1.0000837 1.5768306e-38
-0.32441673 2.7016602 -1.0002915 1.8074644e-38
-0.304077 2.6627145 -1.0009258 2.1391887e-38
-0.31581524 2.6896729 -1.00045 1.9642333e-38
-0.30962819 2.6763673 -1.0006787 2.1391529e-38
-0.29245648 2.6502457 -1.0010487 1.9456499e-38
-0.25875008 2.5872822 -1.002061 1.7150541e-38
-0.35079721 2.7188253 -1.0002853 2.0470297e-38
-0.34654713 2.7067313 -1.0005146 1.8256876e-38
-0.33775398 2.6944664 -1.0006769 1.9915681e-38
-0.33019286 2.6821535 -1.0008597 2.3049259e-38
-0.32322529 2.6692684 -1.0010659 2.2681194e-38
-0.31924629 2.6568177 -1.0013082 2.1944349e-38
-0.30808452 2.6442254 -1.0014412 2.1852873e-38
-0.35909304 2.7001758 -1.000872 2.0377381e-38
-0.35025284 2.6884739 -1.0010197 2.0561774e-38
-0.33855975 2.6613362 -1.0015006 2.2865591e-38
-0.33127213 2.6486311 -1.0016973 2.2128743e-38
-0.32455021 2.6381431 -1.0018486 2.2036185e-38
-0.3824932 2.7062464 -1.0010905 2.0007165e-38
-0.35970065 2.6654675 -1.0017312 2.3417327e-38
-0.35146493 2.6546724 -1.0018662 2.3049981e-38
-0.34873584 2.6395543 -1.0021935 2.2865591e-38
-0.39854354 2.7115054 -1.0012137 1.9823131e-38
-0.37167239 2.6579697 -1.0021026 2.268084e-38
-0.36770695 2.6462793 -1.0023265 2.3325852e-38
-0.39417276 2.6654863 -1.0022717 2.3142181e-38
-0.39054328 2.6508672 -1.0025725 2.3233657e-38
-0.38355687 2.6379771 -1.0027784 2.3417689e-38
-0.34593627 2.5711074 -1.0038252 1.5859441e-38
-0.40786529 2.6583908 -1.0026602 2.3325852e-38
-0.35926622 2.5712373 -1.0040311 1.585908e-38
-0.4548651 2.716532 -1.0019743 1.8994091e-38
-0.4901796 2.7149467 -1.0025673 1.936143e-38
-0.47647959 2.6909277 -1.0029403 2.1021315e-38
-0.46984985 2.6769428 -1.0031786 2.3417687e-38
-0.45291719 2.6515379 -1.0035349 2.341769e-38
-0.49360085 2.6469479 -1.0042856 2.3325854e-38
-0.29226938 2.7017639 -0.99978453 2.2034735e-38
-0.28488228 2.6891134 -0.9999783 2.1297172e-38
-0.34772259 2.6732111 -1.0013537 2.332549e-38
-0.38483506 2.7197773 -1.0007961 2.31411e-38
-0.40937871 2.7070217 -1.0014935 2.3234016e-38
-0.39782882 2.6965299 -1.001569 2.3417689e-38
-0.39082941 2.684078 -1.0017641 2.3509527e-38
-0.3838228 2.6706858 -1.001982 2.3418047e-38
-0.41855112 2.7063446 -1.0016539 2.3234016e-38
-0.41153875 2.6893721 -1.0019594 2.3509527e-38
-0.43964723 2.707401 -1.0019591 2.3417686e-38
-0.45321426 2.7034836 -1.002268 2.3417686e-38
-0.44653687 2.687712 -1.0025492 2.3509524e-38
-0.43945307 2.674896 -1.0027518 2.3509883e-38
-0.4337934 2.6633995 -1.0029444 2.3417687e-38
-0.66740561 2.5547631 -1.0092696 1.5581415e-38
-0.70658791 2.5527892 -1.0099328 1.5397386e-38
-0.69638604 2.5468276 -1.0099186 1.5674332e-38
-0.82932025 2.5608692 -1.0116608 1.5858006e-38
-0.18525141 2.7078488 -0.99795634 1.3643834e-38
-0.22129135 2.7056198 -0.9985764 1.5766132e-38
-0.21275173 2.7100942 -0.99833286 1.5766132e-38
-0.24206589 2.7113435 -0.99876225 1.0786498e-38
-0.23618469 2.6978912 -0.9989993 1.8161789e-38
-0.22742197 2.6859715 -0.99915361 1.9639079e-38
-0.15548986 2.5393701 -1.0016137 8.6678213e-39
-0.25240311 2.7060091 -0.99905503 1.9546167e-38
-0.24915248 2.6911728 -0.99936724 1.9729116e-38
-0.23911801 2.6798849 -0.99948615 1.9453251e-38
-0.23222567 2.6645467 -0.99975348 2.0190815e-38
-0.18042609 2.561249 -1.0014694 1.1987936e-38
-0.17037465 2.5505686 -1.0015731 1.0881591e-38
-0.25714794 2.6705065 -0.99999863 2.0743993e-38
-0.25670028 2.6542454 -1.0003897 2.0560329e-38
-0.2422547 2.6452708 -1.0003827 1.9730197e-38
-0.2697919 2.6638179 -1.0003607 2.1021307e-38
-0.26236427 2.6475313 -1.0006429 1.9822768e-38
-0.22466061 2.5741534 -1.0018476 1.3461268e-38
-0.30483398 2.695286 -1.0001403 2.1023105e-38
-0.27070272 2.5810125 -1.0024022 1.7517882e-38
-0.25785658 2.5734885 -1.0023848 1.3185403e-38
-0.64234734 2.6851103 -1.0056854 2.341805e-38
-0.6310991 2.6579509 -1.0061738 2.3509886e-38
-0.64274782 2.6519067 -1.0065045 2.3509886e-38
-0.67620075 2.6790783 -1.0063643 2.3509527e-38
-0.66953313 2.6694663 -1.006495 2.3417691e-38
-0.66568142 2.6564817 -1.0067525 2.3509527e-38
-0.65669417 2.6446745 -1.0069004 2.3509527e-38
-0.70581043 2.7038331 -1.006223 2.3050345e-38
-0.6988827 2.6887569 -1.0064833 2.3234019e-38
-0.67883545 2.649652 -1.0071261 2.3509886e-38
-0.74812335 2.6631846 -1.007882 2.3509527e-38
-0.7587893 2.6670134 -1.0079557 2.3509527e-38
-0.75117379 2.6523464 -1.0081952 2.3509886e-38
-0.81397331 2.7024381 -1.0079544 2.341769e-38
-0.8073507 2.6896832 -1.0081626 2.3417331e-38
-0.77675945 2.6314685 -1.0091077 2.1020602e-38
-0.80537075 2.6499765 -1.0091037 2.3509527e-38
-0.89009857 2.6885262 -1.0094894 2.3326213e-38
-0.91207838 2.6458342 -1.0108795 2.3418049e-38
-0.90327823 2.6312046 -1.0110995 2.2403894e-38
-0.51517975 2.6850724 -1.003691 2.3509527e-38
-0.51291645 2.6738226 -1.0039308 2.341769e-38
-0.50673211 2.6564934 -1.004258 2.3509524e-38
-0.50226194 2.6423225 -1.0045347 2.3509525e-38
-0.53677708 2.6904047 -1.0038993 2.341805e-38
-0.52415144 2.6639314 -1.0043492 2.3509527e-38
-0.51697987 2.6511633 -1.0045493 2.3509524e-38
-0.51034671 2.6381011 -1.004765 2.3509525e-38
-0.56718999 2.708914 -1.0039234 2.3325854e-38
-0.54025781 2.6578653 -1.0047505 2.3509167e-38
-0.52309674 2.6315219 -1.0051261 2.3509884e-38
-0.55890185 2.6624062 -1.0049318 2.3509168e-38
-0.55181026 2.6495948 -1.0051342 2.3509168e-38
-0.54224211 2.636004 -1.0053167 2.341769e-38
-1.2407569 2.6716931 -1.0154039 1.8623495e-38
-1.2375034 2.6568811 -1.0157154 2.1297531e-38
-1.2520195 2.6658387 -1.0157239 2.2312042e-38
-1.2484866 2.6511714 -1.0160276 2.2404239e-38
-1.2393737 2.6394169 -1.0161723 2.2312044e-38
-1.2611289 2.6446512 -1.0163854 2.2772662e-38
-1.284748 2.6499596 -1.0166261 2.1297532e-38
-1.2770743 2.6363635 -1.0168387 2.221949e-38
-1.2627413 2.6107216 -1.0172414 2.203546e-38
-1.29056 2.6293471 -1.017222 2.2219492e-38
-1.2829949 2.6167939 -1.0174106 2.249608e-38
-1.3380604 2.6542282 -1.0173583 2.2218767e-38
-1.3315284 2.6411111 -1.0175769 2.212657e-38
-1.323403 2.6304855 -1.0177095 2.2126573e-38
-1.3186597 2.6148267 -1.0180184 2.2495724e-38
-1.3443317 2.6345031 -1.0179396 2.2219497e-38
-1.3305496 2.6086607 -1.0183558 2.2680121e-38
-1.3056881 2.6235573 -1.017601 2.2127299e-38
-1.3584708 2.6271098 -1.0183424 2.1849274e-38
-1.3531051 2.6125193 -1.0186154 2.2219864e-38
-1.374673 2.6187019 -1.0188024 1.9729489e-38
-1.402379 2.6373243 -1.0187813 1.9084833e-38
-1.4025612 2.6087351 -1.019484 2.221878e-38
-1.4798861 2.6820571 -1.0189024 1.6040577e-38
-1.4832308 2.6638319 -1.0194011 1.4748757e-38
-1.5125953 2.6787958 -1.0194956 1.4657652e-38
-1.5051488 2.6645992 -1.0197263 1.3827891e-38
-1.5328376 2.6851754 -1.019657 1.4750565e-38
-1.5257461 2.6723638 -1.0198593 1.3644575e-38
-1.5185859 2.6588712 -1.0200773 1.5672519e-38
-1.5380435 2.6650059 -1.0202324 1.5487053e-38
-1.5607955 2.6710095 -1.0204425 1.3826455e-38
-1.5493709 2.6765959 -1.0201265 1.4565093e-38
-1.1220522 2.6837375 -1.0132464 2.2865224e-38
-1.1305718 2.6628239 -1.0138919 2.2865227e-38
-1.182466 2.7019193 -1.0137492 1.7978488e-38
-1.199538 2.6930509 -1.0142343 1.6595195e-38
-1.1932855 2.6797807 -1.0144609 2.1021306e-38
-1.1854578 2.667371 -1.014642 2.2957058e-38
-1.2063373 2.6737692 -1.0148129 2.2588636e-38
-1.2002356 2.6597033 -1.0150615 2.2588636e-38
-1.1933868 2.6486781 -1.015224 2.2864504e-38
-1.2286212 2.6779366 -1.0150605 1.8440181e-38
-1.2520857 2.6987827 -1.0149184 1.7977768e-38
-1.2560101 2.6307626 -1.0166452 2.2496077e-38
-1.2944076 2.6768346 -1.0161198 2.2035095e-38
-1.2796034 2.6679935 -1.016104 2.2035815e-38
-1.2507299 2.617892 -1.0168774 2.2312769e-38
-1.3234967 2.6617255 -1.0169462 2.2126215e-38
-1.3199552 2.6470475 -1.0172499 2.2403881e-38
-1.3131392 2.6340854 -1.0174603 2.2495718e-38
-1.3543919 2.6456649 -1.0178242 2.2125857e-38
