# .PCD v0.7 - Point Cloud Data file format
VERSION 0.7
FIELDS x y z rgb
SIZE 4 4 4 4
TYPE F F F F
COUNT 1 1 1 1
WIDTH 551
HEIGHT 1
VIEWPOINT 0 0 0 1 0 0 0
POINTS 551
DATA ascii
-1.1372371 -4.2464461 1.4701164 1.0102325e-39
-1.1351025 -4.2542787 1.4700744 1.0102325e-39
-1.146006 -4.2602701 1.4699293 2.7622872e-39
-1.1895044 -4.2154422 1.4698875 9.3967446e-39
-1.1679183 -4.2548213 1.4697745 8.2914746e-39
-1.1521291 -4.2961283 1.4695941 4.9731886e-39
-1.1376926 -4.3163986 1.4695659 5.5356194e-40
-1.1620127 -4.2517862 1.4698514 8.2914746e-39
-1.1738693 -4.2744236 1.4695678 8.1081609e-39
-1.1522554 -4.3127069 1.4694636 2.4835605e-39
-1.1470473 -4.3279648 1.4693912 5.5356194e-40
-1.1783351 -4.2602611 1.4696382 9.0290354e-39
-1.1645087 -4.2860951 1.469561 5.5263456e-39
-1.1580297 -4.2992339 1.4695166 4.6969591e-39
-1.1627758 -4.3388901 1.4691643 4.6973164e-39
-1.1488947 -4.360467 1.4691207 5.5356194e-40
-1.1407336 -4.3750033 1.4690807 3.6881475e-40
-1.199825 -4.2532344 1.4694993 9.4885801e-39
-1.1942924 -4.2646251 1.4694604 9.3049105e-39
-1.164304 -4.3190012 1.4693058 4.6969591e-39
-1.1579194 -4.3321877 1.4692603 1.562686e-39
-1.1552737 -4.3417058 1.4692099 1.0127464e-39
-1.177322 -4.2927547 1.4693935 8.1081609e-39
-1.1708132 -4.3058782 1.4693496 5.5263456e-39
-1.2710277 -4.1597681 1.4695879 9.7637208e-39
-1.2675605 -4.1745 1.4695041 9.9473918e-39
-1.2238318 -4.2509818 1.4693007 9.5804057e-39
-1.2162108 -4.2653036 1.4692575 9.4885745e-39
-1.1969255 -4.3025465 1.4691404 9.4896521e-39
-1.1900775 -4.3158226 1.4690983 8.8450043e-39
-1.1816777 -4.3279824 1.4690791 7.7393868e-39
-1.1779059 -4.3418756 1.4690045 7.2776954e-39
-1.162339 -4.3674474 1.468945 1.0127464e-39
-1.1562513 -4.381649 1.4688889 9.2127106e-40
-1.2053702 -4.2743468 1.4692845 9.2130764e-39
-1.1835982 -4.3125234 1.4691826 8.1081609e-39
-1.1771181 -4.3256612 1.4691384 5.5263456e-39
-1.1694896 -4.3382149 1.4691089 4.9731886e-39
-1.1611298 -4.3529253 1.4690694 1.7481549e-39
-1.2385486 -4.2584505 1.4691098 9.6725972e-39
-1.1981491 -4.3365045 1.468864 9.5814861e-39
-1.1565543 -4.4161139 1.468617 5.5284307e-40
-1.2419806 -4.2433538 1.4691967 9.7640795e-39
-1.2362753 -4.258718 1.4691283 9.3049007e-39
-1.2224214 -4.2831345 1.4690623 9.5804086e-39
-1.220817 -4.2987919 1.4689543 9.8562752e-39
-1.2066706 -4.3134871 1.4689671 9.5818463e-39
-1.2042594 -4.3231778 1.468913 9.5818463e-39
-1.1931646 -4.3395157 1.4688854 7.6486345e-39
-1.1709464 -4.3867636 1.4687165 2.2094974e-39
-1.1996926 -4.3208532 1.4689724 9.2145057e-39
-1.1923834 -4.333569 1.4689389 8.2007167e-39
-1.1831042 -4.3452821 1.468931 5.8025766e-39
-1.1786054 -4.3594475 1.4688609 6.1724381e-39
-1.171611 -4.3696551 1.4688442 2.4839234e-39
-1.3062756 -4.1633172 1.4692426 9.9477463e-39
-1.2989844 -4.1745529 1.4692205 9.8559164e-39
-1.246891 -4.2777386 1.4688839 9.6729573e-39
-1.2359132 -4.2919793 1.4688716 9.6729615e-39
-1.2380731 -4.3077178 1.4687291 9.9484652e-39
-1.2072164 -4.3577127 1.4686167 9.8569954e-39
-1.1923633 -4.3806052 1.4685717 6.3571867e-39
-1.1833171 -4.3948374 1.468542 2.6697538e-39
-1.1728002 -4.4209437 1.4684329 9.2127246e-40
-1.1654632 -4.4352431 1.4683872 6.4467997e-40
-1.2319864 -4.2920284 1.4689065 9.4885745e-39
-1.2296956 -4.30339 1.4688385 9.8562752e-39
-1.2210203 -4.3154621 1.4688224 9.8562738e-39
-1.2161394 -4.3293748 1.4687575 9.6729671e-39
-1.2081286 -4.3421111 1.4687303 9.214147e-39
-1.1773571 -4.3995733 1.4685588 1.8414351e-39
-1.1938444 -4.3508587 1.4687907 8.1085211e-39
-1.1903855 -4.365562 1.468707 7.4638817e-39
-1.1840581 -4.378778 1.4686608 4.8817147e-39
-1.1778345 -4.392046 1.4686131 2.4839234e-39
-1.2229927 -4.365881 1.4684107 1.0041027e-38
-1.2578118 -4.2854385 1.4687253 9.7647956e-39
-1.239213 -4.3235264 1.4685955 9.9484694e-39
-1.2350403 -4.3391657 1.4685109 1.0040308e-38
-1.2242067 -4.3474607 1.4685436 9.6729671e-39
-1.2162651 -4.3624368 1.4684982 9.397818e-39
-1.2076674 -4.3744717 1.4684818 9.2141456e-39
-1.1964624 -4.3996353 1.4683862 5.3452025e-39
-1.1909089 -4.4162726 1.4683062 4.2392263e-39
-1.1790067 -4.4255972 1.4683406 2.0272613e-39
-1.2465132 -4.2983513 1.4687263 9.4889318e-39
-1.2297658 -4.3281679 1.4686443 9.4893017e-39
-1.2038866 -4.3725719 1.4685305 8.1085211e-39
-1.199479 -4.3867645 1.4684595 7.5560788e-39
-1.1913966 -4.3990874 1.468436 4.8817147e-39
-1.1844097 -4.4127355 1.4683924 2.3009727e-39
-1.2897997 -4.2685289 1.4685692 9.8555549e-39
-1.2527946 -4.3318596 1.468408 9.9491869e-39
-1.2507049 -4.340693 1.4683578 1.0408001e-38
-1.228078 -4.3861752 1.4682064 9.7655229e-39
-1.203564 -4.431541 1.468073 4.7927532e-39
-1.3076477 -4.2193141 1.4687928 9.9481093e-39
-1.2984761 -4.2235594 1.4688423 9.9481093e-39
-1.2993066 -4.2353878 1.4687424 9.7637236e-39
-1.2630972 -4.3071613 1.4685081 9.8569926e-39
-1.2567531 -4.3174386 1.4684849 9.8569926e-39
-1.2532815 -4.3240857 1.4684643 9.9491869e-39
-1.2155349 -4.3950748 1.4682499 8.9386405e-39
-1.2070143 -4.4071422 1.4682324 8.0170527e-39
-1.2038341 -4.4219918 1.468145 5.3452025e-39
-1.2537926 -4.3159308 1.4685234 9.5814833e-39
-1.2334255 -4.3383794 1.4685315 9.5807757e-39
-1.228758 -4.3560538 1.4684355 9.7647998e-39
-1.2263913 -4.367743 1.4683657 9.5811302e-39
-1.2183263 -4.3800592 1.4683421 9.2141456e-39
-1.2124709 -4.3935275 1.4682896 8.7531688e-39
-1.2052292 -4.4040241 1.4682728 7.6486345e-39
-1.1924874 -4.4161534 1.468293 5.6203475e-39
-1.3629471 -4.1414638 1.4689026 9.8555451e-39
-1.3604937 -4.1554298 1.4688157 9.7633579e-39
-1.3532523 -4.1859579 1.4686425 9.7633593e-39
-1.3006198 -4.2741599 1.4684278 9.6715252e-39
-1.2921913 -4.2881331 1.4683946 9.7637194e-39
-1.2395446 -4.3937788 1.4680438 9.8573584e-39
-1.2389418 -4.4071937 1.4679444 1.0133225e-38
-1.2173541 -4.4290113 1.4679685 8.0170527e-39
-1.2102505 -4.4432359 1.4679214 5.5299539e-39
-1.3012682 -4.2594261 1.468537 9.671528e-39
-1.2299486 -4.4025493 1.4680617 9.5814932e-39
-1.2236308 -4.4157701 1.4680153 8.9382831e-39
-1.3964616 -4.1258469 1.4687226 1.0039575e-38
-1.3700838 -4.1781654 1.4685516 9.671521e-39
-1.2480125 -4.4150767 1.4678011 1.0133221e-38
-1.2361549 -4.4387727 1.4677229 9.3056279e-39
-1.2143645 -4.4769359 1.4676211 4.7927532e-39
-1.213361 -4.4902883 1.4675258 3.1339578e-39
-1.3658826 -4.1719255 1.4686382 9.671521e-39
-1.353248 -4.202879 1.4685103 9.6715308e-39
-1.3469591 -4.2157025 1.4684668 9.6715308e-39
-1.2921934 -4.3220439 1.4681296 9.5804071e-39
-1.2832778 -4.3311872 1.4681386 9.6726e-39
-1.2397096 -4.4229236 1.4678146 9.6733287e-39
-1.2308928 -4.4360404 1.4677916 8.9382831e-39
-1.2246989 -4.4518628 1.4677238 8.2936438e-39
-1.2185622 -4.4626365 1.4676949 7.3731407e-39
-1.3995707 -4.1542311 1.468473 9.9473862e-39
-1.3778862 -4.18221 1.4684497 1.003958e-38
-1.3695804 -4.2096586 1.4683102 9.8555507e-39
-1.3501567 -4.2503409 1.4681675 9.9477477e-39
-1.2483865 -4.4468517 1.4675494 9.5818519e-39
-1.2190889 -4.5020471 1.4673824 2.5807882e-39
-1.3604568 -4.2227111 1.4682904 9.6715308e-39
-1.2395238 -4.4405222 1.4676788 9.5814932e-39
-1.2380699 -4.4562674 1.467569 9.5822134e-39
-1.2336087 -4.4704609 1.4674983 9.1226814e-39
-1.2257857 -4.4828873 1.4674717 7.3731407e-39
-1.2227809 -4.5308042 1.4671245 2.5807882e-39
-1.3713115 -4.2283273 1.4681488 9.9473834e-39
-1.3699217 -4.242157 1.4680533 9.7637208e-39
-1.3618554 -4.2552438 1.4680238 9.8555479e-39
-1.3545787 -4.2708836 1.4679673 9.8555479e-39
-1.347484 -4.2819901 1.4679444 9.8559192e-39
-1.3433238 -4.2963386 1.4678698 9.9477477e-39
-1.2487851 -4.4618006 1.4674292 9.8577171e-39
-1.2391393 -4.4898219 1.4672972 8.8471805e-39
-1.2330095 -4.5031381 1.4672483 7.3731407e-39
-1.2274202 -4.5170817 1.4671898 4.9764242e-39
-1.2430372 -4.4749761 1.4673781 9.2141554e-39
-1.3449394 -4.3301415 1.4675912 1.0039943e-38
-1.2908734 -4.4321694 1.4672812 9.856994e-39
-1.2828534 -4.4464655 1.4672419 9.9484708e-39
-1.2764878 -4.459662 1.4671961 9.9484708e-39
-1.2730075 -4.4743543 1.4671129 9.9491897e-39
-1.2333652 -4.5453644 1.4669154 1.1985768e-39
-1.3777891 -4.2553959 1.4678789 9.6718839e-39
-1.3719763 -4.2617221 1.467882 9.6715308e-39
-1.3655221 -4.2748728 1.4678375 9.6715308e-39
-1.3590281 -4.2880039 1.4677933 9.8559192e-39
-1.3558526 -4.3019152 1.4677134 9.8555493e-39
-1.3484306 -4.3154817 1.4676743 1.0039943e-38
-1.2433083 -4.5084867 1.4671137 8.7535416e-39
-1.2401636 -4.5233536 1.467026 8.5702377e-39
-1.2337956 -4.5365481 1.4669803 3.7789642e-39
-1.2475921 -4.4942169 1.4671866 9.3059895e-39
-1.3913654 -4.2677884 1.4676598 9.7640795e-39
-1.364024 -4.322958 1.4674754 9.9481051e-39
-1.3554714 -4.33564 1.4674534 1.0039945e-38
-1.2881582 -4.4657202 1.4670436 9.7647984e-39
-1.2836573 -4.4798851 1.4669737 9.9491897e-39
-1.275858 -4.4946432 1.4669286 9.8573528e-39
-1.2400706 -4.5575814 1.4667596 3.2257919e-39
-1.3813847 -4.2665954 1.4677593 9.8562752e-39
-1.38292 -4.2800732 1.4676402 9.7640795e-39
-1.3591951 -4.3208241 1.4675356 9.9477449e-39
-1.3577547 -4.3368635 1.4674233 9.7637236e-39
-1.3460062 -4.3472581 1.4674479 9.9481149e-39
-1.339817 -4.3605442 1.4673998 9.7637264e-39
-1.4098504 -4.280715 1.4673924 9.8551962e-39
-1.3468592 -4.3967218 1.4670538 9.9477533e-39
-1.2846388 -4.5133948 1.4667031 1.0225774e-38
-1.2747079 -4.5428629 1.4665624 1.0408727e-38
-1.4035 -4.2771831 1.4674772 9.8555563e-39
-1.3974431 -4.2914128 1.4674207 9.855915e-39
-1.3892579 -4.3020372 1.4674115 9.6718839e-39
-1.3802897 -4.3155069 1.467387 9.6718811e-39
-1.377079 -4.3303394 1.4673001 9.6718811e-39
-1.3713386 -4.3386574 1.4672868 9.9481051e-39
-1.3627739 -4.355175 1.4672348 9.9481065e-39
-1.3345523 -4.407311 1.4670819 9.7637236e-39
-1.2755123 -4.5086813 1.4668221 1.0225774e-38
-1.2759087 -4.5236297 1.4667017 9.8577129e-39
-1.2669619 -4.5372691 1.4666758 9.4900178e-39
-1.3853022 -4.300983 1.4674554 9.7640795e-39
-1.3782604 -4.3117347 1.4674348 9.5796883e-39
-1.3703851 -4.3288541 1.4673721 9.7637236e-39
-1.3613496 -4.3528047 1.4672662 9.8559192e-39
-1.3504983 -4.3698425 1.4672309 9.763725e-39
-1.3450946 -4.383491 1.467173 9.8559192e-39
-1.3390695 -4.3931732 1.4671516 9.7637236e-39
-1.404968 -4.3138943 1.4671772 1.0039578e-38
-1.3905331 -4.3373256 1.4671241 9.6718811e-39
-1.3773702 -4.3634982 1.4670384 9.9481051e-39
-1.3724055 -4.3792334 1.4669602 1.013177e-38
-1.3647033 -4.3901916 1.466944 9.9477463e-39
-1.3968265 -4.3240929 1.467171 9.7640795e-39
-1.3817918 -4.3455372 1.4671388 9.6718825e-39
-1.3749483 -4.3590493 1.4670949 9.8559136e-39
-1.3625939 -4.3723536 1.4671024 1.0039941e-38
-1.3616329 -4.3859859 1.4670044 9.9481149e-39
-1.3452325 -4.4128842 1.4669422 9.7637236e-39
-1.3423671 -4.4270358 1.4668576 9.9481149e-39
-1.3355221 -4.440815 1.4668115 9.7644425e-39
-1.3291835 -4.4540248 1.4667655 9.7647956e-39
-1.2778881 -4.5429435 1.4665332 9.7655187e-39
-1.3717273 -4.3441343 1.4672405 9.6718839e-39
-1.4242821 -4.3201003 1.4669547 9.7633621e-39
-1.4127883 -4.3306379 1.4669759 9.8555549e-39
-1.4039217 -4.3442779 1.4669492 9.6718811e-39
-1.4021022 -4.3598337 1.4668442 9.947389e-39
-1.3909214 -4.3693857 1.4668703 9.7644355e-39
-1.3844819 -4.3853397 1.4668038 9.8559052e-39
-1.348827 -4.4477248 1.4666376 9.9481149e-39
-1.3443285 -4.4618707 1.4665676 9.7644425e-39
-1.3364766 -4.4743104 1.4665413 9.7647984e-39
-1.3323097 -4.488647 1.4664669 9.764797e-39
-1.3940375 -4.3547158 1.4669567 9.6718811e-39
-1.3865733 -4.3685603 1.466916 9.7640767e-39
-1.3706839 -4.3930731 1.4668676 9.8562752e-39
-1.3655829 -4.4081969 1.4667954 9.8559192e-39
-1.3493125 -4.4402947 1.4666914 9.9481149e-39
-1.4270593 -4.3397379 1.4667763 9.8551962e-39
-1.4211065 -4.354198 1.466717 9.8551948e-39
-1.3647511 -4.4634199 1.4663717 1.0039587e-38
-1.3603153 -4.4701462 1.466359 9.9477547e-39
-1.3485209 -4.494988 1.4662713 1.0132138e-38
-1.3367486 -4.517385 1.4662024 1.013178e-38
-1.4141544 -4.3495917 1.4668156 9.947389e-39
-1.4111295 -4.364521 1.4667263 9.947389e-39
-1.4065603 -4.3786578 1.4666569 9.855192e-39
-1.3963766 -4.3932285 1.466635 9.7640753e-39
-1.3952389 -4.4058008 1.466547 9.8566297e-39
-1.3809901 -4.4149246 1.466604 9.8562752e-39
-1.3749404 -4.4282813 1.4665543 9.8562752e-39
-1.3574117 -4.4686823 1.4663966 9.8559192e-39
-1.3497608 -4.4775124 1.4663967 9.8566381e-39
-1.337378 -4.5077796 1.4662719 9.856994e-39
-1.3871577 -4.4016275 1.4666524 9.7640795e-39
-1.3660241 -4.4236774 1.4666706 9.8562752e-39
-1.3661991 -4.4384174 1.4665538 9.7637236e-39
-1.3555874 -4.4530783 1.466535 9.9481163e-39
-1.429862 -4.3741941 1.4664819 9.8551962e-39
-1.4361582 -4.3609624 1.4665285 9.8551962e-39
-1.4221605 -4.3702173 1.4665824 9.8551962e-39
-1.4231422 -4.3804855 1.4664934 1.0039942e-38
-1.4122487 -4.3981009 1.4664539 9.8555507e-39
-1.4058849 -4.4112978 1.4664081 9.8566297e-39
-1.4043238 -4.4269872 1.4662997 9.7644313e-39
-1.3942866 -4.4382725 1.466302 9.7644327e-39
-1.37643 -4.476306 1.4661658 1.0039585e-38
-1.3495777 -4.5179152 1.4660828 1.0407643e-38
-1.4190905 -4.3766522 1.4665598 9.8551934e-39
-1.4153051 -4.3854961 1.4665247 9.7633565e-39
-1.3961478 -4.4215822 1.4664155 9.7640767e-39
-1.3907464 -4.4364915 1.4663477 9.6718825e-39
-1.3820199 -4.4463105 1.4663497 9.7640795e-39
-1.3724291 -4.4599791 1.4663292 9.8559192e-39
-1.4445988 -4.380918 1.4662966 9.8551948e-39
-1.4373952 -4.397017 1.4662359 9.8559122e-39
-1.4260333 -4.4052043 1.4662741 9.7644341e-39
-1.4148123 -4.4347062 1.4661448 9.856264e-39
-1.4331274 -4.3914518 1.4663177 9.7629991e-39
-1.4258724 -4.4059014 1.4662702 1.0039942e-38
-1.4149532 -4.4160051 1.4662898 1.0039942e-38
-1.4067888 -4.444768 1.4661386 9.7644313e-39
-1.397325 -4.4585042 1.4661165 1.0039939e-38
-1.3973823 -4.4729137 1.4660035 1.0039939e-38
-1.3826504 -4.4852152 1.4660401 9.9477533e-39
-1.3647053 -4.5212774 1.4659201 1.0039587e-38
-1.4207526 -4.402514 1.4663427 9.7633565e-39
-1.3890378 -4.468605 1.4661123 9.8562752e-39
-1.4379401 -4.4278898 1.4659897 9.8566297e-39
-1.4166991 -4.4498858 1.4660094 9.7644313e-39
-1.4159617 -4.4629927 1.4659135 9.856264e-39
-1.4092424 -4.4790273 1.4658488 1.0039939e-38
-1.400601 -4.4947567 1.4658039 1.0315803e-38
-1.3887895 -4.5179253 1.4657294 1.013178e-38
-1.3981949 -4.4885349 1.4658742 9.9481051e-39
-1.389802 -4.5025926 1.46584 9.9477505e-39
-1.4513431 -4.4348497 1.4658146 9.9477463e-39
-1.4039479 -4.5257788 1.4655312 1.0132138e-38
-1.4283209 -4.47192 1.4657325 9.8562654e-39
-1.421175 -4.4857745 1.4656886 1.0039936e-38
-1.4085448 -4.4951816 1.465729 1.0132135e-38
-1.4095713 -4.5122051 1.4655867 1.0132138e-38
-1.4164519 -4.4828067 1.4657544 9.9477421e-39
-1.3975646 -4.5060349 1.4657432 1.0039939e-38
-1.4306049 -4.5103197 1.4654119 1.022433e-38
-1.4179964 -4.5321093 1.4653554 1.0223966e-38
-1.421927 -4.5186315 1.4654253 1.0132135e-38
-1.2245488 -4.0861363 1.4705818 9.7633523e-39
-1.1702019 -4.2229676 1.4700027 9.9488253e-39
-1.1429211 -4.2748175 1.4698435 6.5379766e-39
-1.144032 -4.3579125 1.4691845 1.0131122e-39
-1.1803181 -4.3107352 1.4692261 9.1208709e-39
-1.1582066 -4.3514624 1.4691072 2.7626627e-39
-1.2326754 -4.271883 1.4690578 9.8569884e-39
-1.1799164 -4.375783 1.4687215 5.3430473e-39
-1.1636435 -4.4080486 1.4686161 7.368742e-40
-1.3101578 -4.1966152 1.4689475 9.7633551e-39
-1.2584009 -4.3017287 1.4685928 9.8569912e-39
-1.2540032 -4.3159537 1.4685214 9.5804043e-39
-1.2173641 -4.3794575 1.4683554 9.6733244e-39
-1.3634127 -4.1244388 1.4690316 9.855908e-39
-1.3903114 -4.1397648 1.4686693 9.947382e-39
-1.3806059 -4.1653414 1.4685571 9.9473862e-39
-1.3646311 -4.1908135 1.468502 9.9473834e-39
-1.3579398 -4.206418 1.4684404 9.8555521e-39
-1.2948767 -4.3227043 1.4681003 1.0039939e-38
-1.381397 -4.231154 1.4680359 9.9473834e-39
-1.3671653 -4.2601633 1.4679375 9.6718825e-39
-1.3424913 -4.3091235 1.4677774 1.0039576e-38
-1.2804644 -4.4316378 1.4673793 9.856994e-39
-1.3858075 -4.2540903 1.4678169 9.8559094e-39
-1.4038031 -4.2597427 1.4676107 9.8555563e-39
-1.4016891 -4.29356 1.4673656 1.0039576e-38
-1.3264455 -4.2050338 1.468735 9.8555535e-39
-1.3089272 -4.2291012 1.4687048 9.9477435e-39
-1.3387152 -4.2006779 1.4686583 9.8555535e-39
-1.3260933 -4.2227225 1.4685999 9.9477477e-39
-1.3249979 -4.2373066 1.468496 9.9477477e-39
-1.3197597 -4.2510939 1.4684354 1.0039938e-38
-1.3076545 -4.2604184 1.4684716 9.8555549e-39
-1.3413786 -4.2292991 1.4684108 9.8559192e-39
-1.3346871 -4.2423291 1.4683695 9.9477477e-39
-1.3277502 -4.2552347 1.4683311 1.0039938e-38
-1.3208266 -4.2681465 1.4682926 1.0039579e-38
-1.3125408 -4.280365 1.4682719 9.7637208e-39
-1.3047001 -4.2896996 1.4682696 9.671528e-39
-1.3410516 -4.2621422 1.4681573 9.9477477e-39
-1.3366064 -4.2765298 1.4680851 1.0039578e-38
-1.3159755 -4.3165412 1.4679583 9.8551948e-39
-1.3079352 -4.3274422 1.4679457 1.0131056e-38
-1.3255767 -4.2864361 1.468107 9.7637236e-39
-1.3180051 -4.2995944 1.4680725 9.671528e-39
-1.3063676 -4.3101768 1.4680946 9.671528e-39
-1.3250748 -4.336329 1.4677218 9.8555521e-39
-1.3348799 -4.3057561 1.4678723 1.0039943e-38
-1.3067257 -4.3569641 1.467726 9.6726028e-39
-1.3000295 -4.3735175 1.467657 9.6725986e-39
-1.3015333 -4.3568959 1.4677733 9.4882115e-39
-1.3131369 -4.3954334 1.4673678 1.0131777e-38
-1.3095049 -4.4107795 1.4672805 9.7647956e-39
-1.3350465 -4.3415422 1.4675913 9.9473904e-39
-1.327368 -4.3534207 1.4675677 9.671528e-39
-1.3198457 -4.3661532 1.4675361 9.5796911e-39
-1.3106287 -4.3783884 1.4675235 9.6726028e-39
-1.3154932 -4.3640571 1.4675916 9.5800484e-39
-1.3113396 -4.3718123 1.4675684 9.4882115e-39
-1.3211218 -4.4003372 1.4672574 9.6726028e-39
-1.3148075 -4.413559 1.467211 9.6726e-39
-1.3078903 -4.4264517 1.4671726 9.7647956e-39
-1.3023974 -4.440115 1.4671154 9.8569898e-39
-1.2962505 -4.4549661 1.4670548 9.764797e-39
-1.3347549 -4.3744264 1.4673371 9.6715294e-39
-1.327418 -4.3871055 1.4673041 9.7637236e-39
-1.3070489 -4.4757543 1.4667952 9.948468e-39
-1.2908984 -4.5001445 1.4667501 9.9491897e-39
-1.3302418 -4.4215722 1.4670094 9.7644411e-39
-1.321918 -4.4341311 1.4669863 9.6726028e-39
-1.3129604 -4.4456 1.4669775 9.7647956e-39
-1.3095928 -4.4603515 1.4668925 9.6726e-39
-1.2971923 -4.4869118 1.4667969 9.7647984e-39
-1.3231109 -4.46737 1.4667159 9.6726e-39
-1.3168383 -4.4806137 1.466669 9.6726e-39
-1.3104889 -4.4938178 1.4666231 9.856994e-39
-1.3055835 -4.5077572 1.4665585 9.7647984e-39
-1.2982262 -4.5222492 1.4665116 1.0040666e-38
-1.2888459 -4.5320783 1.4665192 1.0500203e-38
-1.3241748 -4.4991627 1.466458 9.948468e-39
-1.3130691 -4.5116577 1.4664605 9.9491897e-39
-1.3255033 -4.0961194 1.4695942 9.6711622e-39
-1.3219194 -4.1036525 1.4695677 9.6711679e-39
-1.3371563 -4.144958 1.4691077 9.763718e-39
-1.3307458 -4.1582489 1.4690617 9.671528e-39
-1.3495116 -4.1505818 1.4689525 9.7633635e-39
-1.3314594 -4.3207803 1.4677858 9.9477491e-39
-1.1840142 -3.9496245 1.4720132 1.0039942e-38
-1.1916238 -3.9699817 1.4717857 9.8555479e-39
-1.2229441 -3.9863226 1.4713759 9.9470219e-39
-1.2059708 -4.0105219 1.4713398 9.8555479e-39
-1.2276582 -4.0013599 1.471216 9.9470247e-39
-1.2089353 -4.0433974 1.4710563 9.8555479e-39
-1.2083644 -4.0283136 1.4711794 9.8555479e-39
-1.2469333 -3.998775 1.4710625 9.8551794e-39
-1.2366745 -4.0099726 1.4710674 9.9473778e-39
-1.2305652 -4.0245872 1.4710084 9.9470247e-39
-1.2155396 -4.0515857 1.470933 9.8555479e-39
-1.2214867 -4.035131 1.4710078 9.8555479e-39
-1.257514 -4.00425 1.4709244 9.3027244e-39
-1.2524418 -4.0244288 1.4708126 1.0039573e-38
-1.2397159 -4.0445476 1.4707701 9.9470247e-39
-1.2279466 -4.0702777 1.4706751 9.7633523e-39
-1.2456195 -4.031116 1.4708217 9.9473778e-39
-1.2310151 -4.0400534 1.4708835 9.9470247e-39
-1.2303519 -4.0540285 1.4707804 9.8551878e-39
-1.2236598 -4.0694313 1.4707204 9.8555479e-39
-1.2619542 -4.0380321 1.4706205 9.9473764e-39
-1.2529564 -4.0514245 1.4705969 9.9473778e-39
-1.2463992 -4.0629053 1.4705663 9.854829e-39
-1.241642 -4.0785384 1.4704871 9.854829e-39
-1.2356818 -4.0919409 1.4704361 9.7633523e-39
-1.2418958 -4.0622287 1.4706122 9.854829e-39
-1.2704444 -4.060482 1.4703686 9.8555409e-39
-1.2549217 -4.0854349 1.4703135 9.854829e-39
-1.2490476 -4.0988817 1.4702615 9.854829e-39
-1.2423379 -4.1119022 1.4702202 9.7633523e-39
-1.2607977 -4.0554976 1.4704944 1.0039571e-38
-1.2604684 -4.0718217 1.4703699 9.9473778e-39
-1.1708078 -4.2439489 1.4698333 8.8439323e-39
-1.2735654 -4.0786262 1.4701988 1.0039571e-38
-1.2674896 -4.09197 1.4701494 9.9473778e-39
-1.2626669 -4.1056871 1.4700856 1.0039219e-38
-1.2536613 -4.1191697 1.4700615 1.0039219e-38
-1.2473276 -4.1310163 1.470026 9.8555479e-39
-1.2795745 -4.0652485 1.4702492 1.0131766e-38
-1.1856087 -4.2463336 1.4696814 9.3045545e-39
-1.2801543 -4.0985537 1.4699837 1.0039571e-38
-1.2734292 -4.1133971 1.4699285 9.9473806e-39
-1.2689601 -4.1270461 1.4698621 9.7637222e-39
-1.1924593 -4.2584019 1.4695253 9.3967502e-39
-1.1838149 -4.279624 1.4694375 8.937916e-39
-1.2602012 -4.1704278 1.4696021 9.9477449e-39
-1.2174028 -4.2515678 1.469354 9.4885787e-39
-1.1966157 -4.2862768 1.4692702 9.1212353e-39
-1.1901215 -4.299408 1.4692262 8.937916e-39
-1.2378752 -4.2416725 1.469247 9.3045461e-39
-1.2261624 -4.2676473 1.4691496 9.1212311e-39
-1.2155367 -4.284759 1.4691117 9.3045545e-39
-1.3096671 -4.1458473 1.4693485 9.5796897e-39
-1.299952 -4.1583529 1.4693384 9.39566e-39
-1.2131437 -4.3278666 1.4687964 9.3049105e-39
-1.3071045 -4.1794634 1.4691091 9.7640795e-39
-1.2993286 -4.1915922 1.4690844 9.8562766e-39
-1.252447 -4.2822356 1.4687986 9.3967418e-39
-1.35932 -4.1216063 1.4690905 9.7647984e-39
-1.299198 -4.223989 1.4688324 9.7637236e-39
-1.2603115 -4.2863188 1.4686959 9.5800512e-39
-1.3614355 -4.1427207 1.4689064 9.6722454e-39
-1.364125 -4.1751313 1.468629 9.6722469e-39
-1.3553137 -4.1870828 1.4686151 9.6715308e-39
-1.3502215 -4.2009506 1.4685527 9.6715308e-39
-1.2929358 -4.3051896 1.4682546 9.5800498e-39
-1.3633608 -4.1912723 1.4685099 9.6722469e-39
-1.1667473 -3.891114 1.472626 9.9477463e-39
-1.1800306 -3.8980129 1.4724524 9.9477463e-39
-1.2052338 -3.8849607 1.4723274 9.855185e-39
-1.193298 -3.9049037 1.472279 9.854829e-39
-1.1879685 -3.9206595 1.472204 9.9473848e-39
-1.1988775 -3.8913074 1.472335 9.9473806e-39
-1.207086 -3.9132504 1.4720895 9.855185e-39
-1.1903552 -3.943229 1.4720061 9.8555479e-39
-1.1873765 -3.9546146 1.471944 9.8555479e-39
-1.1876942 -3.9845078 1.4717077 9.8555479e-39
-1.2139382 -3.932121 1.4718804 9.855185e-39
-1.2003101 -3.9580569 1.4718007 9.8555479e-39
-1.2301493 -3.9389012 1.4716815 9.8551794e-39
-1.2196367 -3.9527111 1.4716682 9.5789568e-39
-1.2114476 -3.963819 1.4716552 9.1183374e-39
-1.1925713 -4.0072417 1.4714862 9.5793155e-39
-1.2331802 -3.9586072 1.4715003 9.8551794e-39
-1.2272668 -3.974333 1.4714305 9.9470219e-39
-1.199896 -4.0246868 1.4712839 9.8555479e-39
-1.2362159 -3.9931824 1.4712027 9.9473778e-39
-1.2240466 -4.0205293 1.4710989 9.6707965e-39
-1.2079855 -4.0509138 1.4710063 9.5789568e-39
-1.2433976 -4.0137091 1.4709777 9.6711524e-39
-1.2206701 -4.0560632 1.4708517 9.7633523e-39
-1.2602942 -4.0505319 1.4705378 9.6711496e-39
-1.2514441 -4.0666027 1.470492 9.7633481e-39
-1.3142731 -4.0501862 1.4700541 9.7637166e-39
-1.3064995 -4.0956659 1.469769 1.0039571e-38
-1.3190149 -4.1561713 1.4691836 9.7637166e-39
-1.3158698 -4.1665926 1.4691306 9.7637166e-39
-1.3270658 -4.1712613 1.4689933 9.5793324e-39
-1.3208436 -4.185698 1.4689364 9.6718839e-39
-1.3122231 -4.2011518 1.4688934 9.8562766e-39
-1.3342465 -4.1926575 1.4687613 9.5793324e-39
-1.3296386 -4.2067485 1.4686928 9.6718853e-39
-1.3219681 -4.2192802 1.4686641 9.8559192e-39
-1.3165355 -4.2329574 1.4686062 9.8559192e-39
-1.3094676 -4.2440042 1.4685836 9.7637236e-39
-1.3404884 -4.1793985 1.4688087 9.5793352e-39
-1.3417907 -4.2135453 1.4685302 9.5793338e-39
-1.3291156 -4.22299 1.4685707 9.671528e-39
-1.3114315 -4.2712107 1.4683534 9.671528e-39
-1.2864646 -4.1677866 1.4693861 9.8555563e-39
-1.2721463 -4.2914 1.4685497 9.5804071e-39
-1.2804345 -4.3131943 1.4683048 9.6726014e-39
-1.2740742 -4.3263922 1.468259 9.764797e-39
-1.2680957 -4.3405838 1.468202 9.7640739e-39
-1.2791623 -4.3038034 1.4683895 9.6726028e-39
-1.2616544 -4.3363485 1.4682932 9.8569912e-39
-1.2809958 -4.1814389 1.4693289 9.9473918e-39
-1.284615 -4.062851 1.4702225 1.0039571e-38
-1.2864094 -4.0853014 1.470031 1.0131766e-38
-1.2978432 -4.1101456 1.469734 9.9473778e-39
-1.2900265 -4.1211195 1.4697186 9.8555493e-39
-1.2928082 -4.1051321 1.4698185 1.0131766e-38
-1.2864696 -4.1181402 1.4697739 7.3687924e-39
-1.288983 -4.1520538 1.4694864 9.7637194e-39
-1.2746598 -4.1801033 1.4693965 9.7640837e-39
-1.2788417 -4.1641607 1.4694833 9.580054e-39
-1.2772192 -4.1795797 1.4693774 9.580054e-39
-1.2873865 -4.1831555 1.469258 9.763725e-39
-1.2902818 -4.1729298 1.4693117 9.4878584e-39
-1.2721769 -4.2755046 1.4686735 9.5800512e-39
-1.2858866 -4.2830954 1.4684907 9.4878556e-39
-1.279599 -4.2963319 1.4684439 9.5800512e-39
-1.2864101 -4.0357184 1.4704182 1.0039573e-38
-1.304708 -4.0357704 1.470253 1.1696556e-38
-1.297714 -4.0446658 1.4702464 1.0867884e-38
-1.2925359 -4.0554104 1.4702092 1.0039573e-38
-1.258919 -4.3988605 1.4678295 1.013214e-38
-1.2607908 -4.4185095 1.4676591 9.9484708e-39
-1.2567494 -4.4659133 1.4673253 9.8577171e-39
-1.2693664 -4.4394631 1.4674183 9.9484708e-39
-1.2630583 -4.4526887 1.4673717 1.0041385e-38
-1.2498338 -4.4723911 1.467337 9.4900178e-39
-1.2655602 -4.4869809 1.4670812 9.8573528e-39
-1.2595533 -4.4835019 1.4671625 9.7655201e-39
-1.2524705 -4.4972806 1.4671187 9.2134323e-39
-1.2472782 -4.5435486 1.4668041 8.5702377e-39
-1.2660743 -4.5038071 1.4669453 9.7655187e-39
-1.2597289 -4.5170135 1.4668993 9.4900178e-39
-1.2534466 -4.530252 1.4668524 8.7535416e-39
-1.2632426 -4.5518336 1.4665956 9.2141554e-39
