# .PCD v0.7 - Point Cloud Data file format
VERSION 0.7
FIELDS x y z rgb
SIZE 4 4 4 4
TYPE F F F F
COUNT 1 1 1 1
WIDTH 934
HEIGHT 1
VIEWPOINT 0 0 0 1 0 0 0
POINTS 934
DATA ascii
-0.49370912 -2.3566494 -0.57706112 7.9972412e-39
-0.49749216 -2.3420663 -0.57623118 7.7217361e-39
-0.48848662 -2.3553107 -0.57689279 7.8139331e-39
-0.51907569 -2.3370197 -0.57627952 7.6295362e-39
-0.51476812 -2.3506365 -0.57704151 7.9061231e-39
-0.51272714 -2.3663895 -0.57797182 7.9072021e-39
-0.50191414 -2.3767138 -0.57842469 8.1812737e-39
-0.50376624 -2.3613479 -0.57751501 7.2593174e-39
-0.49562818 -2.3738501 -0.57814544 9.6628904e-39
-0.54351521 -2.3332295 -0.57645184 7.2603978e-39
-0.53653032 -2.3460479 -0.57712066 7.998316e-39
-0.52998698 -2.3591511 -0.57781428 8.1827072e-39
-0.51031345 -2.3988106 -0.57991594 7.2596761e-39
-0.52220607 -2.3714557 -0.57843858 7.9072021e-39
-0.51441181 -2.3813958 -0.57891798 7.722092e-39
-0.50768322 -2.396477 -0.57972956 7.9061231e-39
-0.5590055 -2.3410583 -0.57718712 8.6447714e-39
-0.54984963 -2.3528516 -0.57775736 8.3667383e-39
-0.54352582 -2.3669508 -0.57851559 7.9064791e-39
-0.53603536 -2.3787224 -0.57911205 7.9983146e-39
-0.53019667 -2.391681 -0.57980847 7.7228095e-39
-0.51630652 -2.4178736 -0.5811817 7.9979572e-39
-0.50609332 -2.4120574 -0.58065677 7.3529494e-39
-0.55205232 -2.3871329 -0.57989168 7.9986747e-39
-0.53272134 -2.4250612 -0.58189303 6.8937677e-39
-0.57038039 -2.3469832 -0.57773793 9.6592876e-39
-0.56249392 -2.3594422 -0.57836992 9.1997472e-39
-0.55622429 -2.3724995 -0.5790652 8.0905116e-39
-0.54389423 -2.399194 -0.58049482 7.6309712e-39
-0.53762865 -2.4124765 -0.581204 7.7235283e-39
-0.53446329 -2.460619 -0.58409792 7.3543857e-39
-0.57464254 -2.3821459 -0.57996017 8.0890725e-39
-0.56411093 -2.3931229 -0.58045775 7.9979558e-39
-0.5585072 -2.4078214 -0.58126456 8.4589354e-39
-0.55276173 -2.4203472 -0.58193606 7.9979572e-39
-0.54755569 -2.4301903 -0.5824523 7.8146436e-39
-0.54019511 -2.4469922 -0.58335876 7.2625502e-39
-0.52532262 -2.4718316 -0.58463287 7.8142848e-39
-0.58832592 -2.3394468 -0.57757348 1.0769237e-38
-0.58331871 -2.3535411 -0.57835323 9.5681654e-39
-0.5767312 -2.3666155 -0.5790444 1.1139099e-38
-0.5660069 -2.4351048 -0.58305836 6.8930488e-39
-0.54140812 -2.4807501 -0.58544469 6.8026496e-39
-0.52228534 -2.5202713 -0.58754694 7.9075609e-39
-0.61030132 -2.3345108 -0.57763499 1.049337e-38
-0.60378337 -2.3476303 -0.5783301 1.0121704e-38
-0.59630525 -2.3601301 -0.57897133 1.0213175e-38
-0.5894621 -2.3730397 -0.57964814 8.1812681e-39
-0.58680326 -2.3849032 -0.58033019 8.2734637e-39
-0.57660604 -2.3996789 -0.58106571 7.9972356e-39
-0.57264417 -2.4141638 -0.58188659 7.7217305e-39
-0.56661081 -2.4275961 -0.58260876 8.0897913e-39
-0.52303696 -2.5050473 -0.58662778 9.0121092e-39
-0.59929866 -2.3949213 -0.58114988 8.0897885e-39
-0.59399784 -2.4069595 -0.58179891 7.076717e-39
-0.58752048 -2.4220378 -0.58261454 7.7217291e-39
-0.57924318 -2.4342804 -0.5832268 7.4447834e-39
-0.57442915 -2.4480641 -0.58399069 7.813566e-39
-0.5690164 -2.4620078 -0.58475447 7.7213731e-39
-0.56103605 -2.4734507 -0.58532274 8.0905144e-39
-0.55335468 -2.4866588 -0.58600396 7.8142862e-39
-0.54739177 -2.5002766 -0.58673865 7.8146422e-39
-0.62152278 -2.3403521 -0.57817811 1.003131e-38
-0.6157068 -2.3537202 -0.57889998 1.0584849e-38
-0.60825235 -2.3663824 -0.57955158 1.0402259e-38
-0.60123396 -2.3792818 -0.58022487 9.8451166e-39
-0.53030592 -2.5221574 -0.58779502 8.9199135e-39
-0.59920192 -2.4446988 -0.58419454 7.9050371e-39
-0.59203893 -2.4574678 -0.58485746 7.9046798e-39
-0.57944328 -2.4839234 -0.58626807 7.9054015e-39
-0.56882149 -2.4947419 -0.58675444 7.8139275e-39
-0.56448114 -2.5092216 -0.5875687 7.9061217e-39
-0.55953306 -2.5230334 -0.58833212 7.6302523e-39
-0.55121469 -2.5351334 -0.58893496 7.9975971e-39
-0.54334742 -2.5468826 -0.58952385 7.0763625e-39
-0.63827038 -2.3489764 -0.57898295 1.0494085e-38
-0.63560957 -2.3642292 -0.57987237 9.1986598e-39
-0.62848884 -2.3770096 -0.58053666 9.0146301e-39
-0.62216741 -2.3901205 -0.58123446 8.8298829e-39
-0.61343342 -2.4020784 -0.58182174 7.4455023e-39
-0.60764396 -2.4158406 -0.58256817 7.9975915e-39
-0.60057747 -2.4286063 -0.58323246 7.9975943e-39
-0.53766423 -2.5476708 -0.58947808 9.3794497e-39
-0.56546515 -2.5427616 -0.58963764 8.0908689e-39
-0.55912781 -2.5559974 -0.5903427 7.4469358e-39
-0.55245537 -2.5690174 -0.59102905 6.9823676e-39
-0.63483495 -2.396945 -0.58186156 7.7213717e-39
-0.62861145 -2.4102542 -0.58257318 7.7213703e-39
-0.62144798 -2.4229572 -0.58323205 7.9968754e-39
-0.61782593 -2.4375248 -0.58406353 7.0770757e-39
-0.6109246 -2.4508176 -0.58476293 7.8132002e-39
-0.59471792 -2.475805 -0.58602393 7.9968768e-39
-0.59071189 -2.4897509 -0.58681113 7.9043225e-39
-0.58306664 -2.5022678 -0.58745068 7.813566e-39
-0.57702255 -2.5155685 -0.58816463 7.7217305e-39
-0.57000881 -2.528368 -0.5888319 7.6306124e-39
-0.6597923 -2.3436241 -0.57901144 9.3819749e-39
-0.65308994 -2.3543994 -0.57955998 7.0749261e-39
-0.6470747 -2.3701921 -0.58042693 7.9053973e-39
-0.64091587 -2.3835433 -0.58114207 7.446217e-39
-0.54193866 -2.5653014 -0.59062773 9.1043034e-39
-0.5985648 -2.5268857 -0.58921349 7.2603922e-39
-0.58705729 -2.5373852 -0.58966571 7.6295348e-39
-0.56578857 -2.5759132 -0.59167165 7.537335e-39
-0.67408371 -2.3511784 -0.57971007 7.9043211e-39
-0.66700435 -2.3639359 -0.5803737 7.7213675e-39
-0.66206169 -2.3780718 -0.58115709 7.4458596e-39
-0.65445149 -2.3904862 -0.58179086 7.905763e-39
-0.64811409 -2.4037225 -0.58249605 7.9061161e-39
-0.6445505 -2.4183073 -0.58332962 7.7217277e-39
-0.63636309 -2.4306753 -0.58395112 8.0894312e-39
-0.62949562 -2.4444818 -0.5846824 7.9046826e-39
-0.61524171 -2.4717815 -0.58611727 8.0894312e-39
-0.60867625 -2.4839609 -0.58675396 7.9050413e-39
-0.60369247 -2.496336 -0.58742881 7.7206515e-39
-0.58989412 -2.5220833 -0.58877623 7.9053987e-39
-0.68010467 -2.3377383 -0.57898724 1.0583406e-38
-0.56117183 -2.6230359 -0.59447902 6.8930488e-39
-0.63709986 -2.4641259 -0.58601034 7.9050441e-39
-0.63036883 -2.479496 -0.58683956 7.627374e-39
-0.61690307 -2.5034549 -0.58808303 7.5344609e-39
-0.61202854 -2.5172246 -0.58884507 7.4444233e-39
-0.5997954 -2.5440066 -0.59028161 7.1685567e-39
-0.59300691 -2.5569515 -0.59096152 7.8139247e-39
-0.58068693 -2.5836525 -0.59239173 7.5369805e-39
-0.69681603 -2.3464112 -0.57979441 9.6607254e-39
-0.68756193 -2.3580847 -0.58035576 7.9061231e-39
-0.68114954 -2.3726513 -0.58114111 7.6284544e-39
-0.67254663 -2.3852744 -0.58177125 7.4451436e-39
-0.66755402 -2.3996398 -0.58256781 7.6288132e-39
-0.65930694 -2.4095297 -0.5830366 7.3533067e-39
-0.65662736 -2.4247503 -0.5839237 7.5376951e-39
-0.64864296 -2.4369235 -0.58453655 7.9979516e-39
-0.64263976 -2.4503751 -0.58526051 8.2731036e-39
-0.60162836 -2.5797112 -0.59249699 7.3529466e-39
-0.57413197 -2.6297569 -0.59510469 7.171428e-39
-0.69005805 -2.3925555 -0.58250648 7.7199326e-39
-0.68270385 -2.4051352 -0.58315468 7.7210088e-39
-0.67673057 -2.418606 -0.58388025 7.6291719e-39
-0.6699264 -2.431541 -0.58455926 7.9054015e-39
-0.6632483 -2.4445574 -0.58524531 8.0887095e-39
-0.65605718 -2.4572423 -0.58590269 8.0890697e-39
-0.6499874 -2.4706509 -0.58662277 7.9975971e-39
-0.64327383 -2.4836442 -0.58730692 7.813566e-39
-0.63776904 -2.4981954 -0.58810627 7.9046812e-39
-0.633205 -2.5117979 -0.58886325 7.8128443e-39
-0.62437516 -2.5230002 -0.58940274 7.9972384e-39
-0.61711204 -2.5368702 -0.5901314 7.7217305e-39
-0.61275625 -2.5505788 -0.59089822 7.5369791e-39
-0.60357141 -2.5618472 -0.59143591 7.6298922e-39
-0.58398545 -2.6005027 -0.59347749 8.0015572e-39
-0.57653183 -2.6147718 -0.59422743 8.5558085e-39
-0.71466511 -2.3391321 -0.57964426 1.0491931e-38
-0.70809531 -2.3522182 -0.58033639 1.0029506e-38
-0.6979512 -2.3633945 -0.58085245 1.0306816e-38
-0.69565433 -2.3788409 -0.58175981 7.8114066e-39
-0.64534605 -2.5178411 -0.58943391 7.9061245e-39
-0.64263117 -2.5330231 -0.59031814 7.5369791e-39
-0.63327342 -2.5459738 -0.59095585 7.5369791e-39
-0.6253323 -2.5573268 -0.59151924 7.2596719e-39
-0.60241055 -2.6114137 -0.59445 6.801572e-39
-0.59322876 -2.6229451 -0.59500378 7.907921e-39
-0.72958916 -2.346971 -0.58037078 1.1136218e-38
-0.72539663 -2.3612752 -0.58117682 9.1057509e-39
-0.71921718 -2.374516 -0.58188486 8.828441e-39
-0.71251523 -2.387548 -0.58257157 7.628453e-39
-0.70484257 -2.4000745 -0.58321124 7.6280929e-39
-0.69790941 -2.412945 -0.58388412 7.6284572e-39
-0.69005507 -2.4271827 -0.58462548 7.8124842e-39
-0.68124884 -2.4400077 -0.58526468 7.6288118e-39
-0.67814648 -2.4521034 -0.58595359 7.8124842e-39
-0.67067218 -2.4647453 -0.58660364 7.7206473e-39
-0.66418493 -2.4778237 -0.58729666 7.9965139e-39
-0.65638465 -2.4898913 -0.58790612 8.180908e-39
-0.6509468 -2.5041299 -0.58868748 8.1809066e-39
-0.61835122 -2.6196623 -0.59521848 7.0774401e-39
-0.60827667 -2.6307335 -0.59572929 7.5394972e-39
-0.60239792 -2.6443872 -0.59646761 6.8944879e-39
-0.58981383 -2.6712375 -0.59790266 8.9242309e-39
-0.71142489 -2.4200861 -0.58454478 7.5366217e-39
-0.70608002 -2.4339628 -0.58530551 7.7206473e-39
-0.69832695 -2.446285 -0.5859313 7.7210102e-39
-0.69267136 -2.4599612 -0.58667475 7.8121268e-39
-0.67908657 -2.485846 -0.58803409 8.1801849e-39
-0.67184532 -2.4984987 -0.58868861 7.9050385e-39
-0.66519064 -2.5136793 -0.58950746 7.4440632e-39
-0.65759087 -2.524374 -0.59003621 7.3515088e-39
-0.6551497 -2.5397015 -0.59093386 7.168914e-39
-0.64652497 -2.5523281 -0.59156388 7.6291747e-39
-0.64047295 -2.5648818 -0.59223205 7.8132044e-39
-0.6338746 -2.5779495 -0.59292257 7.7210116e-39
-0.62606412 -2.590235 -0.5935452 8.0901543e-39
-0.59266543 -2.6553104 -0.59697509 1.0491915e-38
-0.74776244 -2.3422816 -0.58038449 9.7522021e-39
-0.74259818 -2.3545046 -0.58104712 7.7213731e-39
-0.7376712 -2.3677206 -0.58177429 7.4444261e-39
-0.7309252 -2.380693 -0.58245659 7.8121268e-39
-0.72441357 -2.3938167 -0.58315206 7.8121254e-39
-0.71798539 -2.4069943 -0.58385205 7.7199298e-39
-0.68420982 -2.4718263 -0.5872609 7.9972328e-39
-0.67495656 -2.5333664 -0.59087384 6.9841668e-39
-0.66280961 -2.5604916 -0.59233284 7.35079e-39
-0.65318972 -2.5796714 -0.59334743 7.4436988e-39
-0.62048477 -2.6372287 -0.59632879 6.893046e-39
-0.61851102 -2.6497636 -0.59706318 7.7260465e-39
-0.60953242 -2.6643708 -0.59780854 8.8331129e-39
-0.60249496 -2.6774032 -0.5984897 1.0125292e-38
-0.75808114 -2.3617744 -0.58174807 7.4444247e-39
-0.75211293 -2.3752489 -0.58247393 7.4440646e-39
-0.744362 -2.3875725 -0.58309984 7.5366203e-39
-0.7381438 -2.4008856 -0.58381176 7.4437044e-39
-0.73482364 -2.4156582 -0.58466083 7.5362602e-39
-0.72433496 -2.4266257 -0.58515847 7.5362588e-39
-0.72023791 -2.4411092 -0.58597708 7.4444247e-39
-0.71322995 -2.4539392 -0.58664626 7.6284544e-39
-0.70759875 -2.4675808 -0.58738792 7.5359015e-39
-0.69763416 -2.478698 -0.58790338 7.3515102e-39
-0.69184154 -2.4920559 -0.58862513 7.4440632e-39
-0.68299067 -2.506392 -0.58935601 7.8124814e-39
-0.67968422 -2.5200615 -0.5901379 7.2603908e-39
-0.66587508 -2.5448313 -0.59142524 7.1685581e-39
-0.65265596 -2.5709524 -0.59280503 7.5376951e-39
-0.76314104 -2.3477139 -0.5809713 1.0860353e-38
-0.64086336 -2.6478405 -0.59731531 6.8944893e-39
-0.60247833 -2.7185733 -0.60100889 1.0402598e-38
-0.72919303 -2.4626377 -0.5874427 7.4437073e-39
-0.72042996 -2.4742913 -0.58801085 7.5358987e-39
-0.7166822 -2.4888532 -0.58884001 7.075645e-39
-0.71373886 -2.503926 -0.58971369 6.7994224e-39
-0.69489306 -2.5277483 -0.59085983 7.1674749e-39
-0.68226928 -2.5518658 -0.59212691 7.0759981e-39
-0.67570806 -2.5667109 -0.5929268 7.0774387e-39
-0.66741878 -2.5789094 -0.5935362 7.1674749e-39
-0.62294704 -2.6712685 -0.59845263 9.9398206e-39
-0.60293525 -2.7103314 -0.60051209 9.8497858e-39
-0.78387123 -2.3419743 -0.58096296 9.8454726e-39
-0.77702701 -2.3548832 -0.58163983 7.6295376e-39
-0.77240288 -2.3691041 -0.58243358 7.3529466e-39
-0.7655983 -2.3820422 -0.58311272 7.4440632e-39
-0.75866693 -2.3933961 -0.58369291 7.4444261e-39
-0.75009525 -2.4071174 -0.58439076 7.5362602e-39
-0.74659222 -2.4218714 -0.58523577 7.5359015e-39
-0.73606211 -2.4327927 -0.5857299 7.6273754e-39
-0.7331844 -2.4478705 -0.58660501 7.5369805e-39
-0.70618194 -2.4831274 -0.5883159 7.6284586e-39
-0.70573008 -2.4994564 -0.58930779 7.8110492e-39
-0.69964647 -2.5128562 -0.59002715 7.5366189e-39
-0.68548733 -2.5383704 -0.59135425 7.9043183e-39
-0.67683423 -2.6002972 -0.59500086 6.432442e-39
-0.66916806 -2.612942 -0.59564787 6.8930516e-39
-0.66499174 -2.6266942 -0.59642035 7.2600279e-39
-0.63834435 -2.6808047 -0.59929091 7.3576241e-39
-0.62921017 -2.6949251 -0.6000039 1.0127809e-38
-0.61802626 -2.7180095 -0.60123163 1.0035615e-38
-0.78439683 -2.392065 -0.58403707 7.4437044e-39
-0.77327114 -2.4026449 -0.58450043 7.3525892e-39
-0.76763058 -2.4163306 -0.58524472 7.5373392e-39
-0.75954455 -2.4284384 -0.58585185 7.5366217e-39
-0.75322556 -2.4416862 -0.58655804 7.5351826e-39
-0.74707448 -2.4550424 -0.58727366 7.4437073e-39
-0.74110723 -2.4702907 -0.58810812 7.3518676e-39
-0.73264545 -2.4826095 -0.58872199 7.5362574e-39
-0.72887939 -2.4964759 -0.5895083 7.0760051e-39
-0.71454066 -2.5192165 -0.59066272 7.4433457e-39
-0.70761371 -2.5335758 -0.59142691 7.4440646e-39
-0.70148718 -2.546751 -0.59213185 7.6280943e-39
-0.6961543 -2.557101 -0.592677 7.536256e-39
-0.68953973 -2.5738454 -0.59359229 7.3522235e-39
-0.68060225 -2.585104 -0.59413344 7.7217333e-39
-0.79545146 -2.3480084 -0.58152384 1.0676672e-38
-0.79035157 -2.3617258 -0.58227891 1.0399011e-38
-0.78604013 -2.3762336 -0.58309543 7.4455023e-39
-0.63293254 -2.7261064 -0.60197371 9.7586663e-39
-0.62627691 -2.7391372 -0.60266101 1.0035615e-38
-0.72467303 -2.542424 -0.59225065 6.8916139e-39
-0.71576798 -2.5572901 -0.59301299 7.1667574e-39
-0.70442957 -2.5795188 -0.59418583 7.2596677e-39
-0.7008692 -2.5962744 -0.59515226 7.3522263e-39
-0.69139934 -2.6038008 -0.59545618 7.445145e-39
-0.68397963 -2.6196337 -0.59630233 7.1681966e-39
-0.67875081 -2.6343939 -0.59711915 6.5239132e-39
-0.66977286 -2.6440756 -0.59756309 7.6334921e-39
-0.66533601 -2.6582308 -0.59835601 7.3561864e-39
-0.65662807 -2.6747961 -0.5992257 8.6472867e-39
-0.64884168 -2.6843958 -0.5996843 1.0314721e-38
-0.64336985 -2.6957946 -0.60029137 1.0032378e-38
-0.63847357 -2.7123566 -0.60122389 9.5735562e-39
-0.61850446 -2.7514472 -0.60328579 1.022217e-38
-0.81398743 -2.3580537 -0.5824452 8.4596627e-39
-0.80487037 -2.3730063 -0.58320946 8.4607388e-39
-0.79898679 -2.3831866 -0.58373505 6.8001371e-39
-0.79478389 -2.3974104 -0.58453602 7.4433443e-39
-0.7858761 -2.4092593 -0.58511382 6.9841654e-39
-0.7819159 -2.4212949 -0.58578479 7.2600349e-39
-0.7743578 -2.4334748 -0.5864051 7.4455023e-39
-0.76553398 -2.4481423 -0.58715677 7.9050427e-39
-0.75956297 -2.461467 -0.5878734 7.5359015e-39
-0.75430679 -2.4752438 -0.5886296 7.5359001e-39
-0.74852794 -2.4888401 -0.58936608 7.3525864e-39
-0.7422421 -2.5021093 -0.59007406 7.4444247e-39
-0.73540163 -2.5150211 -0.59075105 7.1674805e-39
-0.72413385 -2.5254967 -0.59120572 7.2600321e-39
-0.70834339 -2.5668623 -0.593476 7.9968782e-39
-0.81839716 -2.3433459 -0.58161807 9.3819749e-39
-0.69556224 -2.6432149 -0.59793711 7.1699972e-39
-0.65919352 -2.70661 -0.601215 9.6686329e-39
-0.65199316 -2.7192893 -0.60187185 1.0038134e-38
-0.64584446 -2.7326472 -0.60258758 1.0591665e-38
-0.63974655 -2.7440019 -0.6031816 1.0036328e-38
-0.63174915 -2.7585516 -0.60393965 9.7583076e-39
-0.79506826 -2.4304538 -0.58656287 7.2600335e-39
-0.79215276 -2.4456122 -0.58744228 7.2596747e-39
-0.784877 -2.4583554 -0.58810174 7.3522291e-39
-0.77480477 -2.4693542 -0.58860821 7.4433485e-39
-0.77072936 -2.4817448 -0.58929902 6.7068681e-39
-0.76446241 -2.4930322 -0.58988613 7.2596761e-39
-0.75641823 -2.5094659 -0.59075874 7.5359015e-39
-0.75009435 -2.522753 -0.59146732 7.2596733e-39
-0.74139303 -2.5348094 -0.59206116 6.8912523e-39
-0.73784232 -2.5494554 -0.59289867 6.7075827e-39
-0.7313447 -2.562588 -0.59359491 6.9820158e-39
-0.72315425 -2.574609 -0.59419507 7.3515144e-39
-0.71485341 -2.5902257 -0.59501344 7.5369777e-39
-0.7078132 -2.59938 -0.5954572 9.4770404e-39
-0.7025708 -2.6127653 -0.59618962 6.5235516e-39
-0.69662017 -2.6268084 -0.59695059 7.3525934e-39
-0.68447995 -2.6517804 -0.59827793 8.7437983e-39
-0.67758822 -2.662786 -0.59883744 1.0032016e-38
-0.66780144 -2.6815286 -0.59982246 9.7575915e-39
-0.66134584 -2.6919737 -0.60035491 9.8533829e-39
-0.8412751 -2.3387218 -0.58171356 9.7525581e-39
-0.83520252 -2.3520119 -0.58242637 7.722092e-39
-0.82717013 -2.3625274 -0.58293706 7.8132044e-39
-0.81952578 -2.3768966 -0.58368999 7.5362588e-39
-0.81329823 -2.3902404 -0.58440351 7.628453e-39
-0.80778742 -2.4040101 -0.58515501 7.1681966e-39
-0.8014434 -2.4172418 -0.58585978 7.4440646e-39
-0.79933316 -2.4660654 -0.58881271 7.3522291e-39
-0.76113826 -2.5451279 -0.59301925 6.7068611e-39
-0.7538172 -2.5569875 -0.59362394 6.9830878e-39
-0.73398936 -2.5971546 -0.59575397 7.3486334e-39
-0.72527933 -2.6090887 -0.5963403 6.9827263e-39
-0.72042191 -2.6187627 -0.59685189 7.5380525e-39
-0.70626569 -2.648627 -0.59844536 6.8919712e-39
-0.67243832 -2.7129147 -0.60181993 1.012709e-38
-0.66456103 -2.7281559 -0.60262233 1.0128533e-38
-0.65889895 -2.7403131 -0.60327268 9.9459401e-39
-0.65396148 -2.7534192 -0.603993 9.6675525e-39
-0.83454967 -2.3848374 -0.58442444 7.6291747e-39
-0.82125282 -2.410908 -0.58579987 7.5355371e-39
-0.81487948 -2.4265413 -0.58665115 7.0749247e-39
-0.80581391 -2.4361293 -0.58708793 6.7068639e-39
-0.80413657 -2.4518394 -0.58802158 7.0756436e-39
-0.78978693 -2.4759438 -0.58925933 7.3511515e-39
-0.78146994 -2.4910226 -0.5900445 7.3515116e-39
-0.77422589 -2.5021074 -0.59060305 7.2596803e-39
-0.76899755 -2.5157831 -0.59135348 7.4433471e-39
-0.76338714 -2.5294974 -0.59209991 7.5355413e-39
-0.74205923 -2.5670743 -0.59404671 7.7210102e-39
-0.73567837 -2.5822625 -0.59487063 8.0915934e-39
-0.71595389 -2.6036751 -0.5958547 7.1685553e-39
-0.70902073 -2.633019 -0.59753573 9.8469019e-39
-0.69567764 -2.65906 -0.59890866 9.3909656e-39
-0.68811727 -2.6715069 -0.59954524 9.1179801e-39
-0.68072689 -2.6852822 -0.6002661 9.5771547e-39
-0.67403495 -2.6996672 -0.60103565 9.8551794e-39
-0.85387903 -2.3453341 -0.58232671 1.122949e-38
-0.84668076 -2.3580143 -0.58298361 8.3678215e-39
-0.84034657 -2.3712525 -0.58368897 8.5522184e-39
-0.82721025 -2.3974266 -0.58507341 7.5362602e-39
-0.72195601 -2.6569002 -0.59921116 7.0813959e-39
-0.67519921 -2.7480068 -0.60401309 9.9463016e-39
-0.81419712 -2.4734886 -0.58951294 7.2607621e-39
-0.80617702 -2.4847279 -0.59006798 6.3402394e-39
-0.79705316 -2.4978406 -0.59071952 6.4317175e-39
-0.79354775 -2.5102096 -0.5914185 6.8912551e-39
-0.78589356 -2.524833 -0.59218675 6.983092e-39
-0.77813548 -2.5372233 -0.59281677 7.4433485e-39
-0.77203327 -2.5506108 -0.59353501 7.8110492e-39
-0.76364696 -2.5625246 -0.59412545 7.8117695e-39
-0.7601999 -2.5749061 -0.59482604 6.4324322e-39
-0.75485933 -2.5911427 -0.59573138 7.0756436e-39
-0.74542779 -2.6027443 -0.59628528 7.0745646e-39
-0.73860627 -2.6156547 -0.59696257 7.2593146e-39
-0.72822285 -2.6285317 -0.59757882 7.1681952e-39
-0.72331983 -2.640455 -0.59822732 9.4799172e-39
-0.72144455 -2.6482685 -0.59867442 7.0813959e-39
-0.71252894 -2.6659708 -0.59961033 8.7452361e-39
-0.70408213 -2.6800172 -0.60033017 9.3023699e-39
-0.68917716 -2.7050502 -0.60161555 9.855178e-39
-0.68559879 -2.719775 -0.60245746 9.486757e-39
-0.67833966 -2.7315209 -0.60305619 9.6693518e-39
-0.86751646 -2.3523431 -0.58298123 8.8295186e-39
-0.8601951 -2.364944 -0.58363122 9.0142728e-39
-0.85526514 -2.3790815 -0.58441484 7.4447834e-39
-0.84897602 -2.3922272 -0.58511531 7.5362588e-39
-0.84106266 -2.40733 -0.58590859 7.4440646e-39
-0.833323 -2.4195018 -0.58652544 7.4440646e-39
-0.82813305 -2.4323244 -0.58722436 7.3515088e-39
-0.82298684 -2.4448867 -0.58790797 7.3515088e-39
-0.81547511 -2.457365 -0.58854735 7.445152e-39
-0.69466776 -2.691268 -0.60086298 9.7633411e-39
-0.80793917 -2.5200129 -0.59225655 6.889816e-39
-0.77537054 -2.5872774 -0.59583414 6.7994168e-39
-0.76703596 -2.5977142 -0.59633493 7.0756422e-39
-0.7618705 -2.6116149 -0.5971002 6.7072212e-39
-0.75511581 -2.625499 -0.59783804 6.9830864e-39
-0.74814725 -2.6401145 -0.5986172 6.9830864e-39
-0.73455238 -2.6633658 -0.59981525 7.0778016e-39
-0.72880518 -2.6755183 -0.60046387 8.924947e-39
-0.72121477 -2.6914449 -0.60131294 7.5409335e-39
-0.70746028 -2.7140055 -0.60246605 1.0035976e-38
-0.70063245 -2.7281477 -0.60321856 1.0035976e-38
-0.86404461 -2.4002879 -0.58585793 7.6280929e-39
-0.85661 -2.4128156 -0.58650148 7.628453e-39
-0.84997249 -2.4258585 -0.58718985 7.7202927e-39
-0.84326178 -2.4388533 -0.58787411 7.5362602e-39
-0.83956778 -2.4535937 -0.58871514 7.442987e-39
-0.83145577 -2.4666994 -0.58938289 7.1674847e-39
-0.82641017 -2.4799554 -0.59011072 6.8930614e-39
-0.82024032 -2.4932995 -0.59082526 6.8908964e-39
-0.81201422 -2.505317 -0.59142458 7.2603992e-39
-0.80021584 -2.5323546 -0.592884 6.7065066e-39
-0.79132366 -2.543735 -0.59343332 7.1682008e-39
-0.78335762 -2.5561271 -0.59405988 7.3522305e-39
-0.77736002 -2.5715654 -0.5949055 7.260395e-39
-0.76815999 -2.587724 -0.59574217 7.627737e-39
-0.7644341 -2.5977185 -0.59629214 7.8160841e-39
-0.75148869 -2.6179843 -0.59731817 8.3717746e-39
-0.74528039 -2.6333835 -0.59815782 7.4490994e-39
-0.73502201 -2.6465104 -0.59879148 9.7568657e-39
-0.71389514 -2.6849811 -0.60079628 9.119415e-39
-0.70816499 -2.6985607 -0.60153252 8.9361041e-39
-0.7037456 -2.712286 -0.60229933 9.2112505e-39
-0.88867086 -2.3468771 -0.58299667 1.0214975e-38
-0.8789838 -2.3583117 -0.58353615 1.003166e-38
-0.87284333 -2.3716037 -0.58424807 7.7228039e-39
-0.86903179 -2.3861804 -0.58507699 7.7217277e-39
-0.84925485 -2.4717298 -0.58998513 7.441908e-39
-0.84323931 -2.4887359 -0.59092641 7.0745674e-39
-0.8218447 -2.5278444 -0.59296578 6.523553e-39
-0.81253433 -2.5427349 -0.593723 7.1664029e-39
-0.80741763 -2.5535569 -0.59430063 6.7987036e-39
-0.8050344 -2.5677578 -0.59513026 6.7065051e-39
-0.79210454 -2.5812447 -0.59574175 6.9838095e-39
-0.79111534 -2.593569 -0.59647959 6.9838081e-39
-0.78217095 -2.6055467 -0.59706455 6.6153871e-39
-0.77460515 -2.6161067 -0.59758574 7.2607509e-39
-0.76483482 -2.6357026 -0.59862334 6.8916097e-39
-0.75395107 -2.6596696 -0.59990996 8.5579679e-39
-0.74505395 -2.6682227 -0.60028619 9.2108875e-39
-0.73801666 -2.6844914 -0.60116535 9.0221789e-39
-0.73596793 -2.6970105 -0.6018976 9.3852021e-39
-0.72552794 -2.7079551 -0.60239458 1.0035969e-38
-0.71372151 -2.734632 -0.60383189 8.9353867e-39
-0.7072053 -2.7477524 -0.604527 8.9353867e-39
-0.90938598 -2.3411274 -0.58298743 8.4611004e-39
-0.9044863 -2.353492 -0.58366311 7.3507886e-39
-0.89703107 -2.3686771 -0.58446908 7.6291733e-39
-0.88971722 -2.3804121 -0.5850662 7.721006e-39
-0.88297659 -2.3933878 -0.58574873 7.5366161e-39
-0.87858725 -2.4076805 -0.58655077 7.5366175e-39
-0.86997432 -2.4196484 -0.58714074 7.6284544e-39
-0.86363387 -2.4349716 -0.58797359 7.627737e-39
-0.85587138 -2.4454391 -0.58848578 7.6277398e-39
-0.83048904 -2.4969928 -0.59122074 7.4437044e-39
-0.82201362 -2.5108972 -0.59193152 7.5355413e-39
-0.79485863 -2.5621293 -0.59461749 7.7188536e-39
-0.76230705 -2.6274812 -0.59807831 9.5728345e-39
-0.78280222 -2.6553669 -0.60012388 6.7072198e-39
-0.7487455 -2.7034647 -0.6025039 9.302723e-39
-0.74405897 -2.7158093 -0.60318184 7.2657872e-39
-0.72924578 -2.7430923 -0.60460645 1.0404756e-38
-0.8947798 -2.4161744 -0.58733845 7.9954335e-39
-0.88149244 -2.442529 -0.58873147 7.5351798e-39
-0.87252086 -2.4541516 -0.58929431 7.7199326e-39
-0.8638007 -2.4662271 -0.58988905 7.4433485e-39
-0.86265182 -2.4820063 -0.59083569 7.6273796e-39
-0.85508275 -2.4922159 -0.5913353 6.7987022e-39
-0.84611505 -2.5081277 -0.5921607 6.8901747e-39
-0.83931047 -2.5193484 -0.59273481 7.3525864e-39
-0.83319628 -2.5327287 -0.59345245 7.3522305e-39
-0.82736284 -2.5450013 -0.59410697 7.3511529e-39
-0.82118016 -2.5596259 -0.59489977 7.2585999e-39
-0.81538844 -2.5732138 -0.59563541 6.7065051e-39
-0.80687809 -2.5842853 -0.59617221 6.8926929e-39
-0.80017543 -2.5980482 -0.59690356 7.1685567e-39
-0.79191089 -2.6101651 -0.59750831 7.632053e-39
-0.78500789 -2.6233654 -0.59820199 7.4433429e-39
-0.77794176 -2.6387727 -0.59902799 7.8214805e-39
-0.77283549 -2.6519289 -0.59974867 8.5572463e-39
-0.76421922 -2.6614733 -0.60019016 9.4871143e-39
-0.75854725 -2.6740799 -0.60086781 1.0310398e-38
-0.75067312 -2.6877635 -0.60157496 9.392039e-39
-0.9244284 -2.3473747 -0.58361864 7.9064847e-39
-0.91571158 -2.3621032 -0.5843758 7.5377021e-39
-0.91095555 -2.3750002 -0.58508635 7.4447849e-39
-0.9018082 -2.3866477 -0.58564782 7.6291719e-39
-0.89679509 -2.3994842 -0.58635044 7.5366175e-39
-0.88080972 -2.4252367 -0.58766192 7.7210088e-39
-0.75889462 -2.7255483 -0.60402322 8.843191e-39
-0.83035982 -2.5800815 -0.5963034 6.7983406e-39
-0.82426 -2.5944729 -0.59708321 6.6146711e-39
-0.81779432 -2.6048067 -0.59760863 6.7997826e-39
-0.8097502 -2.6197608 -0.5983907 6.7100953e-39
-0.80367625 -2.633167 -0.59911066 6.8001343e-39
-0.7946915 -2.6491039 -0.59993726 6.7072198e-39
-0.79137528 -2.6598802 -0.60054189 6.7072198e-39
-0.7813493 -2.6710656 -0.60106057 6.7072198e-39
-0.7767303 -2.684993 -0.60183644 8.557605e-39
-0.76867378 -2.6974201 -0.60246366 7.7256863e-39
-0.76082182 -2.7098434 -0.60309404 1.0312923e-38
-0.75007182 -2.7371805 -0.60458916 8.9353839e-39
-0.94724298 -2.3442047 -0.5838021 9.8447579e-39
-0.937828 -2.3558986 -0.58436191 9.1983039e-39
-0.92912501 -2.3845267 -0.58596987 7.3533095e-39
-0.92147774 -2.3970032 -0.58660692 7.2611153e-39
-0.91123486 -2.4080403 -0.5871129 7.6280943e-39
-0.90485018 -2.4212458 -0.5878154 7.5373378e-39
-0.89796579 -2.4341288 -0.58848989 7.352948e-39
-0.8951568 -2.4492579 -0.5893693 7.3522263e-39
-0.88610351 -2.4606273 -0.58991528 7.3522277e-39
-0.87738389 -2.4766836 -0.59075361 7.351513e-39
-0.85985303 -2.5134881 -0.59271598 7.0752877e-39
-0.85091913 -2.52613 -0.59334183 7.167119e-39
-0.84731156 -2.5397043 -0.59411287 7.3525906e-39
-0.83856279 -2.5532711 -0.59479839 7.1674791e-39
-0.83337587 -2.5657046 -0.59547347 7.1674791e-39
-0.82605577 -2.577256 -0.59605926 7.7210088e-39
-0.81854898 -2.5912981 -0.59679437 7.8150037e-39
-0.81044209 -2.6032479 -0.59739161 7.351869e-39
-0.78984654 -2.6419597 -0.59941995 8.0040767e-39
-0.77265936 -2.6659257 -0.60060227 9.0261376e-39
-0.93083686 -2.3687129 -0.58503044 7.168921e-39
-0.78394592 -2.7052715 -0.6031968 9.0261376e-39
-0.92185581 -2.430428 -0.58865863 7.7206487e-39
-0.90752417 -2.4558311 -0.58997613 7.4440618e-39
-0.89415753 -2.4818568 -0.59134769 7.0760051e-39
-0.8906517 -2.496629 -0.59219378 6.9834508e-39
-0.88213354 -2.5087657 -0.59279561 7.2596789e-39
-0.87609988 -2.521384 -0.59346795 6.7990637e-39
-0.87511319 -2.5380001 -0.59446841 7.0756492e-39
-0.86298227 -2.5482361 -0.59489417 7.3522333e-39
-0.85344195 -2.5595362 -0.59542793 7.2596747e-39
-0.84909582 -2.5738428 -0.59623152 6.8905377e-39
-0.84361786 -2.5878477 -0.59699798 6.8905419e-39
-0.8366589 -2.6006825 -0.59766829 6.7050688e-39
-0.82788926 -2.6161485 -0.59846973 6.9834494e-39
-0.82007957 -2.6246352 -0.59885991 9.2036905e-39
-0.81618601 -2.6392505 -0.5996899 7.2690228e-39
-0.80640459 -2.6542299 -0.60044473 7.4548574e-39
-0.80315763 -2.6656919 -0.60109246 6.2520038e-39
-0.79641551 -2.6786671 -0.60177499 8.9285469e-39
-0.78958684 -2.6907084 -0.60239893 9.3934795e-39
-0.96059602 -2.3514738 -0.58446777 1.1689749e-38
-0.95361906 -2.3627284 -0.58504111 8.6451315e-39
-0.94704801 -2.3770657 -0.58580983 7.5369805e-39
-0.94072437 -2.3854849 -0.58622044 7.4455037e-39
-0.93354046 -2.4033172 -0.58719289 6.9856088e-39
-0.92627871 -2.4140959 -0.58773237 7.4444247e-39
-0.9178139 -2.4276919 -0.58842432 7.7206487e-39
-0.91236997 -2.4414878 -0.58917856 7.3522263e-39
-0.90795428 -2.4483635 -0.5895263 7.4440618e-39
-0.89910823 -2.4677258 -0.59056485 7.3525864e-39
-0.88547206 -2.4771366 -0.5909152 7.0760051e-39
-0.86557722 -2.532716 -0.59398735 6.9841696e-39
-0.86444849 -2.5859458 -0.59722614 8.0833173e-39
-0.85228413 -2.6108928 -0.59855157 6.706145e-39
-0.83654982 -2.6334722 -0.59967309 7.077796e-39
-0.83013928 -2.646661 -0.60037416 6.0665251e-39
-0.82308179 -2.6594322 -0.60103899 8.928184e-39
-0.81623417 -2.6784582 -0.60209 6.7072198e-39
-0.81068885 -2.6863775 -0.60248291 6.7072198e-39
-0.8052876 -2.6974776 -0.60307288 8.0065906e-39
-0.98126042 -2.3456917 -0.58445579 1.04894e-38
-0.97388601 -2.3582585 -0.5851028 9.4738062e-39
-0.96025246 -2.3841119 -0.58645946 7.8135688e-39
-0.95582181 -2.4011962 -0.58743167 7.0763639e-39
-0.9481681 -2.4111269 -0.5879128 6.3395261e-39
-0.94327182 -2.4234643 -0.58858675 7.0767254e-39
-0.93450773 -2.4354391 -0.58917457 6.5242719e-39
-0.92819381 -2.450459 -0.5899893 6.6153843e-39
-0.92042631 -2.4623656 -0.59058952 7.0770827e-39
-0.91657323 -2.4769506 -0.59141833 7.5369763e-39
-0.90651643 -2.4913929 -0.59213573 6.9838109e-39
-0.90308958 -2.5031548 -0.59279883 6.5231957e-39
-0.89690095 -2.5164866 -0.59351236 7.0752905e-39
-0.88876289 -2.5285609 -0.59411657 7.3511529e-39
-0.88296759 -2.5421467 -0.59485215 7.0756492e-39
-0.86788434 -2.5670156 -0.59612459 7.0760009e-39
-0.85956669 -2.5790226 -0.59672171 6.6175395e-39
-0.8558293 -2.5899773 -0.59733027 7.2593146e-39
-0.847561 -2.6056135 -0.59815043 7.4458624e-39
-0.84290648 -2.6202486 -0.59896898 6.4317161e-39
-0.82993072 -2.6298079 -0.59933943 7.077796e-39
-0.81498706 -2.6550288 -0.60063559 8.928184e-39
-0.81577837 -2.672045 -0.60169005 8.7427179e-39
-0.80707276 -2.6833661 -0.60223883 8.748829e-39
-0.96622151 -2.3706384 -0.58573365 8.3689062e-39
-0.93937039 -2.4738464 -0.59160542 8.1783856e-39
-0.92795277 -2.4931874 -0.59260017 8.0869103e-39
-0.90421385 -2.5531762 -0.5958786 6.5228356e-39
-0.88611931 -2.5766618 -0.59701651 6.9841696e-39
-0.87241852 -2.60267 -0.59838152 6.8916181e-39
-0.86241746 -2.6137223 -0.59889245 6.9856018e-39
-0.85766554 -2.6279812 -0.59968638 6.7083016e-39
-0.85098094 -2.6407552 -0.60035753 6.7065066e-39
-0.83872002 -2.6512187 -0.60079503 6.5242733e-39
-0.83810574 -2.6675229 -0.60178262 7.6345711e-39
-0.82853997 -2.6789141 -0.60232145 6.0665265e-39
-0.82502651 -2.693547 -0.60315883 8.8367142e-39
-0.81988692 -2.7044294 -0.60373986 9.3005636e-39
-0.81056255 -2.7191961 -0.60448921 8.7491919e-39
-0.995588 -2.3491867 -0.58490664 8.6458476e-39
-0.98890728 -2.3651707 -0.5857743 9.8443922e-39
-0.97940105 -2.377713 -0.58638459 7.2603922e-39
-0.96970618 -2.3891253 -0.58692259 7.629532e-39
-0.96278542 -2.4186063 -0.58861232 7.2600391e-39
-0.94923061 -2.4445105 -0.58997327 7.1689196e-39
-0.93346488 -2.4692125 -0.59122413 7.443703e-39
-0.92072749 -2.4957652 -0.59263837 7.3525892e-39
-0.91442615 -2.5086789 -0.59332442 7.2607537e-39
-0.90848601 -2.5221713 -0.5940519 7.1674819e-39
-0.89998603 -2.5340931 -0.59464085 7.5362658e-39
-0.89483076 -2.5480106 -0.59540731 7.7206557e-39
-0.88734204 -2.5598891 -0.59601027 7.1685567e-39
-0.87232131 -2.5857499 -0.59734446 7.2607509e-39
-0.86843503 -2.6002796 -0.59816927 7.0763611e-39
-0.89999658 -2.5842037 -0.59770757 6.8008602e-39
-0.87447011 -2.6371505 -0.6005255 6.7061436e-39
-0.84471512 -2.6944995 -0.60354286 6.6150256e-39
-0.83963245 -2.701441 -0.60388362 6.6150256e-39
-0.83205611 -2.7140045 -0.60452706 6.1583606e-39
-1.0048845 -2.3746645 -0.58661956 9.7511175e-39
-0.99651521 -2.3895631 -0.58739287 6.799777e-39
-0.99006444 -2.4031005 -0.58811462 7.9975859e-39
-0.97691464 -2.4261267 -0.58930624 6.6157487e-39
-0.97065598 -2.4382377 -0.58994389 6.9845284e-39
-0.96387535 -2.4521694 -0.59068424 7.5376993e-39
-0.95518452 -2.4677749 -0.59149545 7.9043197e-39
-0.94436771 -2.4903545 -0.59269834 8.2716616e-39
-0.93699771 -2.5068495 -0.59358585 7.0760023e-39
-0.93010437 -2.5177281 -0.59413761 6.7079429e-39
-0.92572677 -2.5310731 -0.59488183 7.6284544e-39
-0.9165324 -2.5414588 -0.59536523 6.6157501e-39
-0.91173333 -2.5571265 -0.59624469 6.5228356e-39
-0.90149575 -2.568233 -0.59675509 6.6150312e-39
-0.88843733 -2.5943575 -0.59813774 6.708666e-39
-0.87268186 -2.6191216 -0.59939265 6.5224754e-39
-0.87065715 -2.6347764 -0.60031712 7.1725112e-39
-0.8624267 -2.6501594 -0.60112238 6.8012119e-39
-0.85526943 -2.6605122 -0.60163754 8.5579623e-39
-0.85173774 -2.6743414 -0.60242546 9.4784795e-39
-0.84440219 -2.6869333 -0.60307461 9.3884419e-39
-1.0146235 -2.3463128 -0.5850457 1.048905e-38
-1.002028 -2.356214 -0.58544326 8.64477e-39
-1.001299 -2.3701069 -0.58628136 7.0774401e-39
-0.99579483 -2.3795986 -0.58677113 7.2621873e-39
-0.98890603 -2.3990192 -0.58784568 7.7217277e-39
-0.9681859 -2.4876928 -0.59292942 7.9043211e-39
-0.95964158 -2.4996226 -0.5935182 8.0883494e-39
-0.95577323 -2.514056 -0.59433746 7.0752835e-39
-0.93855345 -2.537991 -0.59551734 7.628453e-39
-0.89436549 -2.6142936 -0.59945589 6.708666e-39
-0.89438623 -2.6306567 -0.60045749 6.339882e-39
-0.87228429 -2.6684833 -0.6024068 9.1100557e-39
-0.86740786 -2.6824076 -0.60317826 8.8349094e-39
-0.85922337 -2.6955125 -0.60384482 8.9317811e-39
-0.84527129 -2.7200799 -0.6051175 9.1143731e-39
-1.0281341 -2.35324 -0.58569312 6.5235558e-39
-1.0217309 -2.3666751 -0.58640933 9.1986696e-39
-1.0177464 -2.3817518 -0.58726609 7.6291705e-39
-1.0050685 -2.4069054 -0.58859569 7.537335e-39
-0.99700785 -2.4197803 -0.58925021 7.5373364e-39
-0.99016261 -2.4326639 -0.58992541 7.5376951e-39
-0.98460662 -2.446157 -0.59065926 7.2611083e-39
-0.97565103 -2.4570277 -0.59117633 7.4451422e-39
-0.96918619 -2.4713697 -0.59194708 7.4447863e-39
-0.94424534 -2.5243385 -0.59477597 7.4451408e-39
-0.92950356 -2.5494769 -0.59607053 7.444066e-39
-0.9242931 -2.5634401 -0.59683889 7.3515214e-39
-0.91580194 -2.5752861 -0.59742332 7.0749303e-39
-0.90986496 -2.5887806 -0.59815097 7.0752891e-39
-0.90171385 -2.599705 -0.59868461 7.356901e-39
-0.89499521 -2.6138473 -0.59943897 8.1891798e-39
-0.88758564 -2.6265075 -0.60009116 8.1898987e-39
-0.88385415 -2.637053 -0.60067475 6.9863192e-39
-0.87574124 -2.6533885 -0.60154027 9.2036905e-39
-0.85585088 -2.7451913 -0.60682929 9.2072876e-39
-0.850541 -2.7566142 -0.60744041 9.3909586e-39
-1.0459133 -2.3629212 -0.58657968 8.0919703e-39
-1.0049889 -2.4392376 -0.59057295 9.0099399e-39
-0.99936229 -2.454098 -0.59138936 7.0763625e-39
-0.99353242 -2.4694836 -0.59223443 8.1798219e-39
-0.97319204 -2.5040376 -0.59401256 8.1798247e-39
-0.96696335 -2.5197246 -0.59486949 6.8912523e-39
-0.96166748 -2.5334942 -0.59562457 7.4433457e-39
-0.95275319 -2.543843 -0.5961104 6.8004986e-39
-0.94417918 -2.5592794 -0.59691316 6.7072226e-39
-0.93682295 -2.5697343 -0.59743136 7.5369861e-39
-0.9306699 -2.5830891 -0.5981468 7.1689196e-39
-0.92330557 -2.5956624 -0.59879434 7.2611153e-39
-0.91894495 -2.6097283 -0.59958309 6.7997812e-39
-0.90623659 -2.6201887 -0.60001296 6.1544132e-39
-0.91133577 -2.6390414 -0.60125107 6.7118889e-39
-0.8997969 -2.6462128 -0.60149902 7.3597807e-39
-0.89194322 -2.6620748 -0.60233986 7.4519749e-39
-0.88501865 -2.674978 -0.60301489 7.0813959e-39
-0.87176609 -2.7011037 -0.6043945 9.0228964e-39
-0.86688375 -2.7151835 -0.60517538 8.7441515e-39
-0.85830265 -2.7267985 -0.60574418 9.0250558e-39
-1.0496833 -2.3477774 -0.58571523 7.3540396e-39
-1.0389347 -2.3627872 -0.586456 7.3544011e-39
-1.035707 -2.3761222 -0.58721864 6.9834508e-39
-1.0037466 -2.4396646 -0.59057856 7.5373364e-39
-0.99524873 -2.5016916 -0.59423381 7.5358987e-39
-0.95980555 -2.5734484 -0.59803879 8.0854711e-39
-0.94885266 -2.5921032 -0.5989992 7.6270209e-39
-0.92675084 -2.6329458 -0.60113305 6.6146697e-39
-0.91878843 -2.6521511 -0.60217661 5.9711009e-39
-0.88150358 -2.7219715 -0.60583258 9.4795585e-39
-0.86920661 -2.7330906 -0.60630959 9.7565041e-39
-0.86309487 -2.762924 -0.60803419 8.4733211e-39
-1.0663041 -2.3563008 -0.58651185 1.0768163e-38
-1.0628948 -2.3715692 -0.58738983 6.4306399e-39
-1.0524189 -2.3836641 -0.58795667 7.2582384e-39
-1.018697 -2.4486363 -0.59137493 7.7206459e-39
-0.99915284 -2.4868853 -0.59339237 7.0763625e-39
-0.98313111 -2.5116146 -0.59464061 7.629532e-39
-0.98048967 -2.526819 -0.59552741 7.5362602e-39
-0.9659189 -2.5520673 -0.59683144 7.2589559e-39
-0.95856124 -2.5646451 -0.59747946 7.4437073e-39
-0.95214158 -2.5772884 -0.59814698 7.0767254e-39
-0.94195306 -2.5889628 -0.59869289 7.6284671e-39
-0.93632585 -2.6025903 -0.59943378 7.2596845e-39
-0.93172652 -2.6166308 -0.60021693 7.2607579e-39
-0.92438477 -2.6290157 -0.60085338 7.9129517e-39
-0.91863275 -2.6427031 -0.60159588 8.1920525e-39
-0.91064745 -2.6570978 -0.60234463 9.0232565e-39
-0.90601408 -2.6693406 -0.60301721 9.1125738e-39
-0.8985756 -2.6814539 -0.60363549 8.6548341e-39
-0.89257485 -2.6953197 -0.60438472 8.3789647e-39
-0.88603795 -2.7084267 -0.6050787 8.3811255e-39
-1.0563118 -2.3678403 -0.5870527 6.6153913e-39
-0.8830592 -2.75669 -0.60798299 8.9342993e-39
-0.8781907 -2.7673454 -0.6085546 9.4806375e-39
-1.0133648 -2.4967184 -0.59422916 8.4556886e-39
-1.0018421 -2.519027 -0.59540379 8.3613349e-39
-0.99566919 -2.5306134 -0.59601074 7.2596761e-39
-0.97929209 -2.5589058 -0.59747124 7.1671232e-39
-0.97500807 -2.5734513 -0.5982905 7.1674805e-39
-0.96817648 -2.5863895 -0.59896922 6.4313588e-39
-0.94882303 -2.6258068 -0.60106128 6.9834564e-39
-0.93605411 -2.6481137 -0.60221517 6.4306455e-39
-0.92081124 -2.6781278 -0.60379982 6.7129693e-39
-0.91504729 -2.6905129 -0.60446233 9.2108819e-39
-0.90550822 -2.7018743 -0.60499978 9.8548108e-39
-0.90045559 -2.7144301 -0.60568464 9.111855e-39
-0.89587498 -2.7303088 -0.60658056 8.286769e-39
-0.8886565 -2.7429764 -0.60723633 8.7470283e-39
-1.0852517 -2.3485408 -0.58635038 7.6313453e-39
-1.0797606 -2.360384 -0.58698434 9.1993955e-39
-1.0062021 -2.5069687 -0.59473795 7.7213633e-39
-0.98529512 -2.545454 -0.59674728 7.3518704e-39
-0.96448958 -2.5840049 -0.59876233 7.0760051e-39
-0.95729923 -2.5966907 -0.59941965 7.1699944e-39
-0.95054209 -2.6096559 -0.60010129 7.1689168e-39
-0.93760246 -2.6359568 -0.60149676 8.6530292e-39
-0.95093292 -2.659797 -0.6031763 6.6168263e-39
-0.94689757 -2.6745777 -0.60401404 7.4473044e-39
-0.92732775 -2.7117188 -0.60596323 9.945926e-39
-0.90856093 -2.7367039 -0.60718179 8.3818457e-39
-0.90534705 -2.7515836 -0.60803914 9.1172472e-39
-0.89815766 -2.7659299 -0.60879821 8.7495465e-39
-1.0922197 -2.3868563 -0.58881044 6.0625833e-39
-1.0814258 -2.3977394 -0.58929783 6.2469689e-39
-1.0267416 -2.50401 -0.59489661 7.1681952e-39
-1.0219916 -2.5151494 -0.59549975 7.6291719e-39
-1.0160117 -2.525136 -0.596012 7.3522235e-39
-1.0057226 -2.539844 -0.59674186 7.5355357e-39
-0.99974012 -2.5531828 -0.59745926 7.4447849e-39
-0.99211174 -2.5657294 -0.59810084 7.0756492e-39
-0.98824334 -2.5802162 -0.59892339 6.7061492e-39
-0.97548443 -2.6041412 -0.60017645 6.7100939e-39
-0.96625561 -2.6187587 -0.60091835 6.615034e-39
-0.9593727 -2.6308885 -0.60154676 9.3945487e-39
-0.95344186 -2.6443377 -0.60227174 8.6551886e-39
-0.94509119 -2.6565127 -0.60287869 8.4700785e-39
-0.94067115 -2.6707385 -0.60367608 8.2864075e-39
-0.93266559 -2.6853008 -0.60443479 9.6714986e-39
-1.1058037 -2.344218 -0.58642578 9.0153602e-39
-1.094619 -2.3547552 -0.58688563 5.7874327e-39
-1.0896531 -2.3686247 -0.58765227 6.1551334e-39
-1.0852851 -2.3829541 -0.58845687 6.0632993e-39
-0.9455747 -2.706821 -0.60596532 1.0405824e-38
-0.9388299 -2.7197938 -0.60664761 1.0223951e-38
-1.0059522 -2.5894368 -0.59978062 6.5231943e-39
-0.99483442 -2.6002412 -0.60025787 6.6153885e-39
-0.98905617 -2.6136005 -0.60097986 6.710454e-39
-0.97137225 -2.6532514 -0.60311383 7.8196742e-39
-0.96087348 -2.6711807 -0.60403734 6.3409666e-39
-0.95525211 -2.6784146 -0.60438699 9.2112393e-39
-1.1194198 -2.3519087 -0.58712173 1.0121712e-38
-1.1162243 -2.3660886 -0.58793664 5.419732e-39
-1.1061125 -2.3791766 -0.5885703 6.0629406e-39
-1.0211368 -2.5476744 -0.59747607 7.4437059e-39
-1.0144718 -2.5606992 -0.59816289 7.7206501e-39
-1.0076346 -2.5736127 -0.59884006 7.3515144e-39
-0.97946113 -2.6247344 -0.60150242 6.8937663e-39
-0.96957207 -2.6361177 -0.60203546 7.0824651e-39
-1.0497166 -2.5297925 -0.59685457 7.4444219e-39
-1.0421627 -2.5462327 -0.59773564 7.2607495e-39
-1.0377872 -2.5563426 -0.59828192 7.2603936e-39
-1.0291867 -2.5699134 -0.59897012 7.3522305e-39
-1.0221663 -2.5813043 -0.59955114 7.5348267e-39
-1.0167938 -2.5950572 -0.60030389 6.3380898e-39
-1.0067496 -2.6063099 -0.60082638 6.9830934e-39
-0.99990159 -2.6192389 -0.60150433 6.4306427e-39
-0.99187523 -2.6315243 -0.60212332 6.2480437e-39
-0.98837578 -2.6473539 -0.6030342 6.4331567e-39
-0.98343378 -2.6598904 -0.60371965 7.7325121e-39
-0.97562855 -2.6719604 -0.60432917 7.5448838e-39
-0.96876889 -2.6863573 -0.6050967 9.3949103e-39
-1.1412262 -2.3461678 -0.58713108 6.6171976e-39
-1.1322262 -2.3579516 -0.58770341 6.0625819e-39
-1.1269974 -2.3716371 -0.58845437 5.3275378e-39
-1.1173352 -2.3830073 -0.58899033 5.6952385e-39
-1.0391327 -2.5914667 -0.60045367 7.9965083e-39
-1.0313115 -2.6054406 -0.60117954 7.1689182e-39
-1.0273087 -2.6172397 -0.60183537 7.4447849e-39
-1.0140799 -2.6269555 -0.60221106 7.1707091e-39
-1.0149999 -2.6380143 -0.60290307 6.4310015e-39
-1.1561623 -2.3540149 -0.58785844 5.9700303e-39
-1.1513776 -2.3679364 -0.58863115 6.0615057e-39
-1.1408722 -2.3819299 -0.58931381 6.7965456e-39
-1.0431658 -2.5756326 -0.59955144 7.5366189e-39
-1.009478 -2.6405215 -0.60296512 6.3427505e-39
-1.0017829 -2.6528816 -0.60359424 6.6200492e-39
-1.0341768 -2.6373429 -0.60317916 7.8196658e-39
-1.0793612 -2.5450974 -0.59828156 7.1685609e-39
-1.0698812 -2.5601456 -0.59904563 8.2723763e-39
-1.058735 -2.5845399 -0.60035414 7.4447834e-39
-1.0453669 -2.6095567 -0.60166389 7.0770813e-39
-1.0363631 -2.6240759 -0.60240346 7.173223e-39
-1.0249621 -2.6466851 -0.60359848 7.6349298e-39
-1.0179329 -2.661922 -0.60441458 7.1750279e-39
-1.0125002 -2.6753314 -0.60514534 5.9750498e-39
-1.0802801 -2.5786743 -0.60035157 7.9961538e-39
-1.0565884 -2.6324837 -0.60325253 7.2607481e-39
-1.0505272 -2.6447997 -0.60390598 8.7398257e-39
-1.0277392 -2.6835103 -0.60589796 5.9721771e-39
-1.080876 -2.562201 -0.59935325 7.3533109e-39
-1.0537162 -2.6219094 -0.6025579 6.9856032e-39
-1.0514916 -2.6293118 -0.60297412 7.2665061e-39
-1.0433716 -2.6414866 -0.60358483 7.6374424e-39
-1.0369678 -2.6512904 -0.60407889 6.7108141e-39
-1.1006844 -2.573561 -0.60037619 7.1685581e-39
-1.096113 -2.5867164 -0.60110557 6.9848899e-39
-1.0857451 -2.5977352 -0.6016084 6.8008574e-39
-1.0776553 -2.6123822 -0.60237092 7.6298922e-39
-1.0676419 -2.6365271 -0.60368282 6.8004958e-39
-1.0622848 -2.6500275 -0.60442048 9.7543391e-39
-1.0551393 -2.6646128 -0.60519481 1.1602564e-38
-1.041949 -2.6907523 -0.6065762 6.7104526e-39
-1.0722008 -2.673588 -0.60602629 1.1324902e-38
-1.0939882 -2.6020789 -0.60201061 7.536626e-39
-1.0910767 -2.6170406 -0.60287803 7.9043197e-39
-1.0753378 -2.6448655 -0.60432041 7.0788778e-39
-1.073236 -2.6570158 -0.60502923 7.6396004e-39
-1.0645783 -2.6690459 -0.60562223 8.6530306e-39
-1.0599271 -2.6810815 -0.60628182 6.1630382e-39
-1.1173292 -2.6136634 -0.6031056 7.2650697e-39
-1.1110377 -2.6257203 -0.60373938 6.7079485e-39
-1.0959052 -2.6526384 -0.60513639 8.463243e-39
-1.0769328 -2.690613 -0.60714644 8.2838908e-39
-1.0700828 -2.703506 -0.60782212 1.1051548e-38
-1.1219149 -2.6327827 -0.60435152 6.0683328e-39
-1.1084487 -2.6590188 -0.60573429 7.1753866e-39
-1.1297354 -2.6368759 -0.60473138 5.8846492e-39
-0.49561748 -2.3216879 -0.57495314 7.7228179e-39
-0.51732302 -2.3195353 -0.57518047 8.6465678e-39
-0.50686705 -2.3304892 -0.57567787 7.9050483e-39
-0.53060329 -2.326689 -0.57583797 6.708303e-39
-0.55052644 -2.3204286 -0.57578444 7.4451464e-39
-0.56302041 -2.3266997 -0.57637483 1.0398292e-38
-0.57504398 -2.3308694 -0.57682896 1.0122431e-38
-0.59705627 -2.327755 -0.57700247 9.5678151e-39
-0.61890274 -2.3226259 -0.57705003 1.0215703e-38
-0.63193542 -2.329354 -0.57767731 1.0030592e-38
-0.65269828 -2.3236356 -0.57767087 1.0676682e-38
-0.64539498 -2.3362484 -0.57832181 1.0585204e-38
-0.6650511 -2.3310182 -0.578327 9.4752607e-39
-0.68724722 -2.3250217 -0.57832718 1.0122068e-38
-0.70017242 -2.3342257 -0.57910424 8.9246079e-39
-0.72272944 -2.3270104 -0.57903582 1.0491572e-38
-0.7360366 -2.333806 -0.57967186 1.002879e-38
-0.75813353 -2.3289485 -0.57974011 8.0908787e-39
-0.76993549 -2.3347731 -0.58029181 1.0768876e-38
-0.79188311 -2.3298187 -0.58035165 1.0860343e-38
-0.80122089 -2.3344829 -0.58079153 1.0676679e-38
-0.82540208 -2.3305404 -0.58095026 1.1226976e-38
-0.86184561 -2.3331492 -0.58171278 1.0860702e-38
-0.88185477 -2.3269444 -0.58166414 9.4752481e-39
-0.87786484 -2.3412647 -0.58247441 9.6614386e-39
-0.89317238 -2.332638 -0.58219975 1.1781585e-38
-0.91944611 -2.3299713 -0.58247125 1.058196e-38
-0.93167371 -2.3363929 -0.5830664 1.1319885e-38
-0.95485741 -2.3322363 -0.58319557 9.5710549e-39
-0.96631229 -2.337837 -0.58372778 1.0583039e-38
-0.98816353 -2.3347943 -0.58390307 7.3543969e-39
-1.0040717 -2.341295 -0.58456403 1.1137663e-38
-1.0228498 -2.3342957 -0.58444631 1.1780512e-38
-1.0368866 -2.3415623 -0.58512324 8.2759959e-39
-1.0577123 -2.3358841 -0.58512026 1.030754e-38
-1.0738205 -2.3410006 -0.5856998 9.2930303e-39
-1.0938629 -2.3383038 -0.58586633 8.2745525e-39
-1.1295426 -2.3400245 -0.58656186 6.1558579e-39
-0.51981497 -2.311667 -0.57474017 1.1602953e-38
-0.57074434 -2.313982 -0.57572436 1.1784113e-38
-0.58420628 -2.3189766 -0.5762527 9.8458411e-39
-0.60448164 -2.3152208 -0.5763582 1.0120633e-38
-0.63887346 -2.3165057 -0.5770058 9.0150042e-39
-0.67445815 -2.3185601 -0.57772017 8.6469406e-39
-0.70854461 -2.3199921 -0.57837164 9.5696158e-39
-0.74641013 -2.3204701 -0.5790273 8.5536604e-39
-0.77777326 -2.322505 -0.57967067 1.0584122e-38
-0.80984992 -2.3224659 -0.58019888 1.0583047e-38
-0.84582442 -2.3256121 -0.58098656 1.0858913e-38
-0.9033944 -2.3217268 -0.58170116 7.8128485e-39
-0.97468489 -2.3259141 -0.58313662 1.0859629e-38
-1.0106202 -2.3281951 -0.58387077 1.1413531e-38
-1.0427936 -2.3306673 -0.5845542 9.3848644e-39
-1.0776459 -2.329989 -0.58508927 9.2951925e-39
-1.1150581 -2.332864 -0.58588415 1.0122432e-38
