# .PCD v0.7 - Point Cloud Data file format
VERSION 0.7
FIELDS x y z rgb
SIZE 4 4 4 4
TYPE F F F F
COUNT 1 1 1 1
WIDTH 1072
HEIGHT 1
VIEWPOINT 0 0 0 1 0 0 0
POINTS 1072
DATA ascii
2.0838919 1.6289827 0.81030011 1.3731696e-38
2.0936165 1.6174858 0.810404 1.2072175e-38
2.1006043 1.6045971 0.81058896 1.2255486e-38
2.1073456 1.5915972 0.81078088 1.0504849e-38
2.1245432 1.5511047 0.81144553 1.1978895e-38
2.1323586 1.5388067 0.81160194 1.7782894e-38
2.1385469 1.525377 0.81181389 1.5021348e-38
2.1460629 1.5135603 0.81196409 1.8059837e-38
2.1523738 1.4995446 0.81218785 1.5571643e-38
2.1601279 1.4869957 0.81235135 1.8059841e-38
2.1654069 1.4733098 0.81258535 1.7967284e-38
2.1148028 1.5789211 0.81095266 9.9513168e-39
2.1217535 1.5660158 0.81113869 1.1979621e-38
2.175957 1.4621396 0.81266683 1.7875808e-38
2.1851497 1.450305 0.81278807 1.7692144e-38
2.1919763 1.4365368 0.81299692 1.8703419e-38
2.1969318 1.4233698 0.81322414 1.2164731e-38
2.2044129 1.4129225 0.81334221 1.8887808e-38
2.2130113 1.3964078 0.81358558 1.5478739e-38
2.216074 1.3838243 0.8138321 1.852011e-38
1.8100082 2.1142025 0.80352473 1.3373426e-38
1.8291932 2.073457 0.80416054 1.3924083e-38
1.8422949 2.0488772 0.80451727 1.4659111e-38
1.8553718 2.0236101 0.80489093 2.0559278e-38
1.8630465 2.009799 0.8050859 1.4292483e-38
1.9243746 1.8930961 0.80679518 1.0876198e-38
1.9381814 1.8672428 0.80716997 1.0505616e-38
1.8013293 2.1364937 0.80314499 1.0791594e-38
1.8063253 2.1286905 0.80324358 1.0791594e-38
1.8165699 2.1071615 0.8035776 1.3097188e-38
1.8236586 2.0916393 0.80382371 1.042172e-38
1.8524773 2.0369885 0.80462241 1.751537e-38
1.8722893 1.9979306 0.80520695 1.3830785e-38
1.8785285 1.9868023 0.80536312 9.2224399e-39
1.8848962 1.9713817 0.80561942 8.480556e-39
1.8922502 1.9587226 0.80579251 1.4104131e-38
1.9021317 1.9472322 0.80589348 5.9051894e-39
1.9086663 1.9341388 0.80609131 8.0210072e-39
1.9143569 1.9211241 0.80630213 9.0337326e-39
1.91819 1.906348 0.8065874 8.3897967e-39
1.9455097 1.8545084 0.80734533 7.0039672e-39
1.9553585 1.838975 0.80754328 8.5712915e-39
1.9617783 1.8297688 0.80765039 9.0329731e-39
1.9690868 1.8170253 0.80782628 7.6500456e-39
1.9761505 1.8041712 0.80800915 1.2997752e-38
1.9830965 1.7912638 0.80819535 1.2533173e-38
2.0304842 1.700354 0.80953366 1.1888143e-38
2.1386292 1.4924828 0.81259739 1.4834075e-38
1.8579191 2.0396338 0.80446392 8.6685612e-39
1.8739368 2.0149624 0.80477172 5.1665468e-39
1.9024552 1.9637786 0.80549294 1.337341e-38
1.990446 1.7785389 0.80837011 1.3178178e-38
1.9974059 1.7656379 0.8085559 1.3915376e-38
2.0046554 1.7528678 0.80873346 1.2717902e-38
2.0113561 1.7398494 0.80892664 1.4837324e-38
2.0191665 1.7269311 0.80909795 1.2348761e-38
2.0250502 1.7139453 0.80930465 1.2348759e-38
2.0376461 1.687544 0.80971378 1.2810458e-38
2.0444019 1.6745508 0.80990529 1.3180316e-38
2.0511506 1.6615542 0.81009698 1.2440953e-38
2.0584092 1.6487881 0.81027442 1.4558582e-38
2.0683827 1.6374032 0.81037116 1.1979255e-38
2.0722191 1.6229362 0.8106491 1.3546946e-38
2.0822883 1.6116483 0.81074184 1.4282346e-38
2.0891106 1.5986997 0.81093127 1.1794146e-38
2.093617 1.5844073 0.81119323 1.2809017e-38
2.1013558 1.5720085 0.81135339 1.2808295e-38
2.1069047 1.5583172 0.81158274 1.2623904e-38
2.1134996 1.5453131 0.81177747 1.3729527e-38
2.1199367 1.5326401 0.81196696 1.5481244e-38
2.1267142 1.519192 0.81216902 1.4652923e-38
2.133167 1.5060614 0.81236911 1.2808658e-38
2.1475136 1.4804523 0.81272864 1.2991964e-38
2.1529739 1.4668728 0.81295693 1.8059119e-38
2.1611097 1.4545226 0.81310898 1.7691058e-38
2.1663198 1.4406477 0.81334865 1.7968008e-38
2.1735315 1.4278979 0.81352651 1.7599947e-38
2.1809406 1.4152761 0.8136977 1.7231888e-38
2.1835673 1.4001212 0.81401324 1.8611219e-38
2.1967909 1.3903971 0.81401342 1.8152043e-38
2.2031631 1.3772302 0.8142159 1.852011e-38
2.2141111 1.3662609 0.81428564 1.9072549e-38
1.790939 2.1207061 0.80370384 1.7243493e-38
1.7960844 2.1069648 0.80394155 2.2866678e-38
1.809739 2.0810623 0.80432022 1.5490305e-38
1.8170334 2.0683122 0.80449653 1.0789777e-38
1.8263005 2.0566447 0.80461246 1.2541858e-38
1.8300726 2.0407057 0.80492657 1.1892149e-38
1.8431942 2.0172279 0.80525672 1.3738582e-38
1.864122 1.9772671 0.80584329 7.6551141e-39
1.9065781 1.8934621 0.80709851 1.0416647e-38
1.9249556 1.8603405 0.80756658 8.9407817e-39
1.9313996 1.8472061 0.80776697 7.2791149e-39
1.9397002 1.8349115 0.80791479 7.0954341e-39
1.7796152 2.1476159 0.80326033 1.5215536e-38
1.7870334 2.1366165 0.80339277 1.8349121e-38
1.8019511 2.1096382 0.80377489 7.6543883e-39
1.8059552 2.0968454 0.80400997 1.3463097e-38
1.823382 2.054852 0.80470639 1.1526245e-38
1.8341053 2.0438564 0.80478072 1.4291057e-38
1.8535174 2.0045691 0.80537778 9.1270198e-39
1.8596348 1.9912868 0.80558741 8.4834371e-39
1.8730829 1.9652712 0.8059724 8.2025258e-39
1.8809429 1.9527773 0.80613267 1.4744097e-38
1.8894702 1.9390438 0.80631089 1.1523005e-38
1.8958772 1.927434 0.80647558 1.1893936e-38
1.9014026 1.9139066 0.80670142 9.0344402e-39
1.9068904 1.900317 0.80692947 8.7629022e-39
1.9465961 1.8238364 0.80805814 8.2932529e-39
1.9555174 1.8107979 0.80821288 7.5582228e-39
1.9614937 1.7980008 0.80841339 1.1338595e-38
1.9681078 1.7834889 0.8086437 7.374179e-39
1.977236 1.7716439 0.80876631 1.0043518e-38
1.9842709 1.7587767 0.80894995 1.6501919e-38
1.9912033 1.745863 0.80913651 1.5391953e-38
1.9978178 1.7328057 0.80933213 1.4008662e-38
2.0043857 1.7197274 0.80952895 1.262571e-38
2.0116541 1.7069658 0.80970609 1.0689602e-38
2.0175326 1.6935756 0.80992246 1.1980698e-38
2.0242176 1.68055 0.81011605 1.27179e-38
2.0310349 1.6675847 0.81030589 1.6034789e-38
2.0450399 1.6418208 0.81067508 1.2993408e-38
2.0520551 1.6289448 0.81085926 1.3638419e-38
2.0653715 1.6028697 0.811248 1.225476e-38
2.0719862 1.5898124 0.81144351 1.1794146e-38
2.1189296 1.4987013 0.81279445 1.3269274e-38
2.1256716 1.4857017 0.81298637 1.4466739e-38
2.1314447 1.4722637 0.81320584 1.5387611e-38
2.1388695 1.4595729 0.81337845 1.2991609e-38
2.1601026 1.4210297 0.8139258 1.833499e-38
2.0388136 1.6550539 0.81046849 1.5758195e-38
2.0594244 1.6162288 0.81103349 1.2164011e-38
2.079901 1.5773432 0.81160229 1.23484e-38
2.086575 1.5643129 0.81179619 1.1979978e-38
2.0940602 1.5516493 0.81196707 1.2530987e-38
2.1002905 1.5384182 0.8121736 1.3084881e-38
2.1075263 1.5256418 0.81235152 1.5021707e-38
2.1131976 1.5121579 0.81257391 1.2716821e-38
2.1471729 1.4472797 0.81352621 1.7691062e-38
2.1534705 1.4340789 0.81373072 1.8152041e-38
2.1673996 1.4082811 0.81410211 1.7691785e-38
2.1746831 1.3955263 0.81427866 1.8611219e-38
2.184526 1.3816482 0.81443727 1.842755e-38
2.1883714 1.369507 0.81465954 1.7139693e-38
2.1952033 1.3565582 0.81484872 1.8244236e-38
2.2013085 1.3432319 0.8150596 1.833643e-38
1.7812618 2.0993595 0.80438292 1.964021e-38
1.7639177 2.1396623 0.80372542 1.7612986e-38
1.7686402 2.1256192 0.80397767 1.6598118e-38
1.7765012 2.1124303 0.80415457 1.6228971e-38
1.7902424 2.0895114 0.80446047 1.3739328e-38
1.7970257 2.0743418 0.80470347 1.281809e-38
1.8078958 2.0635712 0.80476987 1.3833331e-38
1.8071336 2.0548775 0.80499071 1.1158215e-38
1.8132398 2.0332756 0.80539906 1.5031503e-38
1.8239872 2.0224407 0.80546916 1.8159309e-38
1.8490554 1.9693791 0.80629563 1.0598899e-38
1.8591542 1.958051 0.80638891 1.2811963e-38
1.8732758 1.9323399 0.80675483 7.9309597e-39
1.8929323 1.8942035 0.80732012 1.3086361e-38
1.9038211 1.8659101 0.80780435 1.5576383e-38
1.9097673 1.8541723 0.80798012 8.940074e-39
1.9182218 1.8402989 0.80816287 6.9124932e-39
1.9270909 1.8282881 0.80829394 5.6213985e-39
1.94094 1.8024539 0.80866754 9.2173643e-39
1.8115911 2.0567892 0.80486691 1.1526245e-38
1.8341695 2.0109465 0.80556488 9.2213735e-39
1.8401686 1.997611 0.80577791 1.0880163e-38
1.8482864 1.9854987 0.80592453 1.0419185e-38
1.8678015 1.9459131 0.8065269 1.5485622e-38
1.8841504 1.9213752 0.8068257 1.1253626e-38
1.8875072 1.9066788 0.80711758 2.0647467e-38
1.9348726 1.8157587 0.80845648 8.108863e-39
1.9484425 1.7897983 0.80883795 8.5730753e-39
1.9553173 1.7768586 0.80902618 6.546226e-39
1.9634352 1.7646079 0.80917615 1.2167283e-38
1.9711233 1.7519096 0.80934429 8.4794588e-39
1.9772862 1.7386925 0.8095516 1.4009015e-38
1.9846423 1.7259262 0.80972731 1.1797051e-38
1.9885914 1.7114882 0.81000257 1.2718279e-38
1.9964266 1.6990781 0.81016129 1.4285246e-38
2.0035849 1.6884543 0.81028926 1.400828e-38
2.0107076 1.6734583 0.8105222 1.3731695e-38
2.0185571 1.6593859 0.81072032 1.3270355e-38
2.023371 1.6470691 0.81092983 1.1978903e-38
2.0297298 1.633859 0.8111335 1.1610837e-38
2.0369463 1.6211181 0.81131095 1.216509e-38
2.0421965 1.6072924 0.81154877 1.2072537e-38
2.0600264 1.5834829 0.81180429 1.4377069e-38
2.0661232 1.5701913 0.81201458 1.2071816e-38
2.1004593 1.5054761 0.81295663 1.3360397e-38
2.10675 1.4922724 0.81316143 1.1428246e-38
2.1123528 1.4787574 0.81338567 1.2164734e-38
2.1176858 1.4650277 0.81361973 1.1518644e-38
2.1247959 1.4522258 0.81380057 1.4557854e-38
2.1392276 1.4266748 0.81415713 1.8059123e-38
2.1467137 1.4140536 0.81432706 1.5018834e-38
2.1542287 1.4014037 0.81449717 1.7140414e-38
2.1606147 1.3882428 0.81469917 1.7875456e-38
2.1677208 1.3754078 0.81488085 1.7967648e-38
2.1746681 1.362501 0.81506699 1.7691424e-38
2.1817122 1.3496381 0.8152504 1.8336069e-38
2.053463 1.5965632 0.8116073 1.1518282e-38
2.0750458 1.5581781 0.81214476 1.1610477e-38
2.0820258 1.5452861 0.81232995 1.1979258e-38
2.0874715 1.5316999 0.81255865 1.0689961e-38
2.0946708 1.5189071 0.8127377 1.3916449e-38
2.134984 1.4408464 0.81389338 1.2532067e-38
2.1888878 1.3368345 0.8154301 1.9164385e-38
2.1972659 1.324861 0.81556886 1.7876168e-38
2.2035072 1.3112746 0.81578362 1.8152041e-38
1.7621076 2.1058249 0.8045646 1.4937872e-38
1.7893031 2.0531857 0.80534369 1.7335301e-38
1.7947501 2.0383692 0.80560178 1.1895044e-38
1.8013951 2.0273004 0.8057493 1.5031503e-38
1.8837692 1.8719693 0.80801129 1.4655501e-38
1.7507381 2.1300554 0.80418575 1.5953466e-38
1.7558476 2.1190429 0.8043589 1.7520435e-38
1.772193 2.0907929 0.80474639 1.6412998e-38
1.7792597 2.081485 0.80484462 1.0696497e-38
1.7856878 2.0683434 0.80504537 1.0880529e-38
1.7908678 2.0562057 0.80524421 1.3646035e-38
1.8003213 2.0380113 0.80551261 1.5031503e-38
1.8126217 2.0128105 0.80589825 1.2171992e-38
1.8377337 1.9648303 0.80660278 1.0232996e-38
1.8448116 1.951954 0.80678588 1.0601781e-38
1.8535206 1.9385337 0.80695337 1.0604295e-38
1.8639356 1.9109442 0.80742913 1.3184679e-38
1.8749177 1.8964647 0.80758202 1.0601763e-38
1.8780451 1.8854295 0.80779046 1.0232625e-38
1.8909912 1.8591868 0.80818969 7.5578668e-39
1.8982619 1.8464262 0.80836666 8.3865373e-39
1.9072831 1.8310066 0.80857641 7.4653055e-39
1.9144665 1.8216578 0.8086735 6.7327753e-39
1.9216815 1.8088721 0.80885214 9.9556735e-39
2.0028987 1.6530178 0.81114686 1.2071816e-38
1.8212725 2.0041931 0.80595213 9.7749004e-39
1.8347148 1.980186 0.80628926 1.0328074e-38
1.8614284 1.9260612 0.80711234 8.0231736e-39
1.929086 1.7961721 0.80902535 1.0321936e-38
1.9368014 1.7836128 0.80918968 8.7538681e-39
1.945152 1.7678123 0.80942029 9.5857853e-39
1.9497691 1.7572298 0.80959183 8.8482301e-39
1.9585621 1.7473835 0.80967259 7.8369452e-39
1.9634572 1.7314728 0.80996639 1.2811213e-38
1.9740506 1.7204406 0.81004393 1.2349507e-38
1.9769566 1.7054806 0.81034988 1.3362933e-38
1.9834294 1.6923591 0.81054956 1.8340065e-38
1.9902145 1.679379 0.81074029 1.4007564e-38
1.9969058 1.6663562 0.81093371 1.4652934e-38
2.0101869 1.6402652 0.81132329 1.336112e-38
2.0172677 1.6274188 0.81150573 1.3269995e-38
2.0237029 1.6142803 0.81170636 1.2994129e-38
2.0310707 1.6015638 0.81188065 1.3916089e-38
2.0390613 1.589052 0.81203902 1.3822809e-38
2.0438039 1.5750613 0.81228977 1.3546225e-38
2.0528929 1.5639671 0.81239504 1.400828e-38
2.0601459 1.5505184 0.81258881 1.3916802e-38
2.0669274 1.5375366 0.81277966 1.225584e-38
2.073493 1.5244571 0.8129766 1.3915722e-38
2.0805569 1.511603 0.81315947 1.1518998e-38
2.0842359 1.4970392 0.81344247 1.2347319e-38
2.09358 1.4872615 0.81351185 1.4097236e-38
2.1017184 1.4731795 0.81370521 1.5664562e-38
2.105386 1.458637 0.81398791 1.1610481e-38
2.1124926 1.4458022 0.81416953 1.483444e-38
2.1214159 1.4339073 0.8142969 1.4097595e-38
2.1265912 1.4200808 0.81453609 1.4558573e-38
2.1356606 1.4083148 0.81465781 1.7875452e-38
2.1420667 1.3951576 0.81485939 1.8151319e-38
2.1481001 1.3817543 0.81507343 1.7783258e-38
2.1547577 1.3670366 0.81530792 1.778362e-38
2.161068 1.3554293 0.81547421 1.7598865e-38
2.1666827 1.3418661 0.81569946 1.5479449e-38
2.1752298 1.3297366 0.81583893 1.8336067e-38
2.1823277 1.3168982 0.81602085 1.8243873e-38
2.1895907 1.304134 0.81619799 1.833607e-38
1.7425313 2.1120994 0.80475807 1.475456e-38
1.7480671 2.098973 0.80497426 1.79807e-38
1.7541723 2.0844026 0.80521488 1.650592e-38
1.7702967 2.0604615 0.80550337 1.6874691e-38
1.7796234 2.037379 0.80589062 1.3553495e-38
1.7893772 2.0205939 0.8061201 1.5767265e-38
1.7964315 2.008086 0.80629486 1.0051122e-38
1.808633 1.9815178 0.80671489 1.2444611e-38
1.851155 1.9044449 0.80780834 1.3461621e-38
1.8701355 1.864162 0.80843663 1.0048595e-38
1.8776059 1.8522123 0.80859083 8.6663654e-39
1.8848256 1.8394288 0.80876929 5.5306462e-39
1.7316294 2.1376052 0.80434066 1.6416247e-38
1.7367622 2.1255393 0.80453861 1.659956e-38
1.7657315 2.0741754 0.80525625 1.32787e-38
1.778407 2.0645709 0.8052631 1.6874691e-38
1.7782588 2.0480139 0.80566078 1.3922628e-38
1.791099 2.0381522 0.80567092 2.2127331e-38
1.7924094 2.0234439 0.80599892 1.1986523e-38
1.802644 1.9966737 0.80645823 1.0325915e-38
1.8313911 1.9465024 0.80715132 1.2447856e-38
1.8424602 1.930107 0.80734843 9.8670932e-39
1.8462682 1.9172109 0.80758941 1.1248935e-38
1.8587219 1.8933614 0.80794013 7.9288088e-39
1.8667442 1.8800551 0.80811697 9.6812418e-39
1.8935812 1.82734 0.80890423 6.2667637e-39
1.901916 1.8140438 0.8090753 8.0199142e-39
1.9088601 1.8021526 0.80923724 6.4536745e-39
1.9142919 1.7899595 0.80943304 9.2166609e-39
1.9203845 1.7792778 0.80958104 9.2184742e-39
1.9275632 1.7626499 0.80985194 8.3865401e-39
1.9354618 1.7499881 0.8100155 8.388331e-39
1.9496907 1.724326 0.81037831 7.099397e-39
1.9568065 1.7114954 0.81055975 1.3273626e-38
1.9702692 1.6854864 0.81094432 1.3088528e-38
1.9765778 1.6722907 0.81114852 1.3180339e-38
1.984064 1.6596277 0.81131935 1.198143e-38
1.9901272 1.6463209 0.81153059 1.2717184e-38
1.9945296 1.6321779 0.81179088 1.2255853e-38
2.0037577 1.6203879 0.81191039 1.4378862e-38
2.0109825 1.6076066 0.81208867 1.3088489e-38
2.0915127 1.4514416 0.81440288 1.2900854e-38
2.1253867 1.3865176 0.81535804 1.7599223e-38
1.8086615 1.9975688 0.8063314 1.0418836e-38
1.943626 1.737632 0.81016725 7.7443937e-39
1.9646358 1.6989876 0.81072086 7.8391158e-39
2.0181332 1.5947919 0.81226909 1.1151301e-38
2.0252435 1.5819588 0.81245065 1.354586e-38
2.0325024 1.5691929 0.81262791 1.3084886e-38
2.0389571 1.5560634 0.812828 1.262391e-38
2.049377 1.5449312 0.81291091 1.4561447e-38
2.0537024 1.5304784 0.81317997 1.3914283e-38
2.0632341 1.5191196 0.81328386 1.2993048e-38
2.0690958 1.5056587 0.81350225 1.2347676e-38
2.072845 1.4911455 0.81378281 1.2438435e-38
2.0797493 1.4782193 0.81397027 1.3452947e-38
2.0856042 1.4648184 0.81418729 1.2993411e-38
2.0991144 1.438831 0.81457049 1.5573443e-38
2.1060352 1.4259121 0.81475741 1.2161847e-38
2.113023 1.4130236 0.81494242 1.3451507e-38
2.1191807 1.3997597 0.81515092 1.3269631e-38
2.1334651 1.3741223 0.81551218 1.4558931e-38
2.1413791 1.3616529 0.81567091 1.3821727e-38
2.1508141 1.350083 0.81578159 1.7598865e-38
2.15343 1.3350053 0.81609547 1.8427186e-38
2.164113 1.3240159 0.81617039 1.8336067e-38
2.1670668 1.3107138 0.81643599 1.5756755e-38
2.1767766 1.297418 0.81658298 1.8059485e-38
2.1811066 1.2832229 0.81684577 1.7048575e-38
2.1858439 1.2691954 0.81709743 1.7416636e-38
2.1966634 1.2569599 0.81719965 1.2071473e-38
2.2018821 1.2445767 0.81740361 8.0155996e-39
2.2093587 1.2319094 0.81757474 1.3176009e-38
2.2169995 1.2176145 0.81778187 1.5018478e-38
1.7242609 2.1189649 0.80491465 1.4201028e-38
1.7294737 2.107641 0.80509347 1.5768709e-38
1.7345412 2.091516 0.8053894 1.5122627e-38
1.7416916 2.0819345 0.80549264 1.3555295e-38
1.7640253 2.0406556 0.806086 1.1435148e-38
1.7673587 2.0290782 0.80630374 1.7333506e-38
1.7748812 2.0134673 0.8065443 1.4017351e-38
1.7841663 1.9996319 0.80671167 1.2078712e-38
1.7906549 1.9885039 0.80686343 1.0046084e-38
1.8164347 1.93663 0.80764914 1.1432983e-38
1.8388697 1.8979681 0.80817831 1.3184314e-38
1.8586843 1.8570225 0.80880785 9.5890405e-39
1.8647205 1.8448486 0.80899251 7.100483e-39
1.8729041 1.8331164 0.80912888 7.0046889e-39
1.712621 2.1477425 0.80443215 1.4757084e-38
1.7182289 2.1322854 0.80470264 1.6140018e-38
1.7516184 2.0671422 0.80567151 1.364785e-38
1.7598758 2.0547969 0.8058213 1.1065999e-38
1.7969017 1.984638 0.80684614 8.1121294e-39
1.8201458 1.9399019 0.80750602 1.0235873e-38
1.8259563 1.9242254 0.80777818 1.1065289e-38
1.8334788 1.9115789 0.80794805 1.0419177e-38
1.8463761 1.8853143 0.8083486 8.5745327e-39
1.8536038 1.8725343 0.80852681 7.1004802e-39
1.8809144 1.8206905 0.80928493 7.6514904e-39
1.8885422 1.8080865 0.809452 7.1894402e-39
1.8971642 1.7961011 0.80958676 9.5901294e-39
1.9028227 1.7837322 0.80978268 7.4685607e-39
1.9110743 1.7701358 0.80996239 1.8485915e-39
1.9162004 1.7564051 0.8102001 6.1778275e-39
1.9226874 1.7432902 0.81039935 9.8634849e-39
1.9309748 1.7309896 0.81054759 6.8228129e-39
1.9366771 1.7175196 0.81076896 1.2995967e-38
1.9380391 1.7017409 0.81112158 1.0046406e-38
1.9578583 1.6789527 0.81131774 1.0142223e-38
1.9617121 1.6633475 0.81162262 1.1337511e-38
1.9715546 1.6532307 0.8116914 1.2349851e-38
1.9784447 1.6402996 0.81187916 1.4100852e-38
1.9818703 1.6256169 0.81216943 1.336148e-38
1.9925673 1.6146346 0.81224388 1.4745846e-38
1.9965578 1.6002591 0.81251693 1.4377074e-38
2.0032156 1.5871055 0.81271404 1.1150943e-38
2.0115314 1.5748366 0.81286103 1.2348761e-38
2.0186129 1.5619905 0.81304336 9.7676487e-39
2.0250742 1.5488638 0.81324333 1.2992692e-38
2.0324376 1.5361452 0.81341761 1.1426806e-38
2.0593879 1.4841387 0.81418598 1.4375624e-38
2.0659921 1.4710767 0.8143819 1.5756756e-38
2.0721796 1.457826 0.81458956 1.548089e-38
2.0780983 1.4445785 0.81480187 1.3269636e-38
2.0856383 1.4318153 0.81497419 1.2808657e-38
2.0920408 1.418662 0.81517583 1.7046052e-38
2.0990865 1.4057997 0.81535912 1.5941143e-38
2.1059988 1.3928772 0.81554627 1.6124457e-38
2.1120987 1.3795868 0.8157565 1.2162927e-38
2.1197593 1.3670028 0.81592238 1.7414837e-38
2.1401296 1.3280691 0.81649423 1.7691423e-38
2.1463084 1.3148148 0.81670213 1.3360752e-38
2.1675804 1.276289 0.81724846 1.851974e-38
2.1945469 1.2242897 0.81801635 1.7877253e-38
2.0394268 1.5232573 0.81360257 1.4097951e-38
2.0462277 1.5102843 0.81379294 1.4744043e-38
2.053314 1.4974405 0.8139751 1.216329e-38
2.1274486 1.3544319 0.81608754 1.7690345e-38
2.1340151 1.3413527 0.81628448 1.4741525e-38
2.1543887 1.3024204 0.81685621 1.7415194e-38
2.1646066 1.291144 0.81694609 1.8243873e-38
2.1746178 1.2634228 0.81743199 1.7416636e-38
2.1835365 1.2508526 0.81757551 1.3361839e-38
2.1886399 1.237667 0.8178007 1.0504868e-38
2.2044001 1.2103341 0.81817657 1.5572368e-38
2.2084916 1.1983571 0.81839055 1.7691794e-38
2.2136903 1.1845425 0.81862903 1.8887445e-38
2.2184362 1.170489 0.81888121 1.1516859e-38
1.760583 2.0060799 0.80697131 1.493751e-38
1.7645066 1.9916418 0.80724704 1.3924078e-38
1.6918255 2.151521 0.80470663 1.6691767e-38
1.7100438 2.1133502 0.80529797 1.8075402e-38
1.7163732 2.0999391 0.80550694 1.3186874e-38
1.7246649 2.0842078 0.8057369 1.2909564e-38
1.7323081 2.0737379 0.80585271 1.4384701e-38
1.7373881 2.0591817 0.80611098 1.4108471e-38
1.7505322 2.0340376 0.80648047 1.3092507e-38
1.7559658 2.020041 0.80671924 1.5395954e-38
1.7782795 1.9815478 0.80724639 1.0970934e-38
1.8113579 1.9170995 0.80820417 1.0971279e-38
1.8189526 1.9023824 0.80842215 1.0787236e-38
1.8261621 1.8913001 0.80856019 2.9520468e-39
1.8302178 1.8769583 0.80883133 7.1930318e-39
1.8493384 1.8413185 0.80934644 7.7436986e-39
1.8611629 1.8244214 0.8095423 5.7143214e-39
1.8801547 1.7873285 0.8100943 8.0202953e-39
1.8874584 1.774583 0.81027043 5.9005119e-39
1.6987247 2.1385925 0.80489409 1.7336415e-38
1.705435 2.1255786 0.80508697 1.3279789e-38
1.8080375 1.9312497 0.80792475 7.6507939e-39
1.8404444 1.8656621 0.80892158 1.152514e-38
1.8473505 1.8527366 0.80910885 7.8373376e-39
1.8678588 1.8138652 0.80967677 8.1121196e-39
1.8758775 1.8015915 0.809829 5.0711086e-39
1.8986191 1.7638023 0.81033188 5.6268061e-39
1.9030577 1.749916 0.81058544 5.2580222e-39
1.9108963 1.7370368 0.81075531 7.655833e-39
1.9170049 1.7237506 0.81096524 8.8536615e-39
1.9243292 1.7110144 0.81114072 1.1431901e-38
1.929551 1.6988721 0.8113389 1.0323353e-38
1.9496247 1.6600488 0.81191331 1.01415e-38
1.9563231 1.6452397 0.81214917 1.7702639e-38
1.9627862 1.6321141 0.81234902 1.7516082e-38
1.9689814 1.6188669 0.81255645 1.5485601e-38
1.9763129 1.6061339 0.81273174 1.5667467e-38
1.9832126 1.5932056 0.81291926 1.6220634e-38
1.9898434 1.5801556 0.8131144 1.1426813e-38
2.0001552 1.568964 0.81320059 1.0782158e-38
2.006763 1.5558883 0.81339675 1.0873275e-38
2.0133848 1.5403289 0.81365192 1.4466739e-38
2.0156605 1.5274215 0.81391996 1.2993411e-38
2.025923 1.5162292 0.8140071 1.3179243e-38
2.0305271 1.5021484 0.81426233 1.5113548e-38
2.0405633 1.4907531 0.81435829 1.1243133e-38
2.0460746 1.4771967 0.81458509 1.6586158e-38
2.0528078 1.464193 0.81477731 1.4006484e-38
2.058356 1.4494236 0.81503242 1.400684e-38
2.0644424 1.4373572 0.81521368 1.3730253e-38
2.0744131 1.4260172 0.81530941 1.3453666e-38
2.0810988 1.4129757 0.81550336 1.6769828e-38
2.0874603 1.3997747 0.81570679 1.6768746e-38
2.0913556 1.387058 0.81594193 1.3821368e-38
2.0992229 1.3727778 0.8161447 1.2807219e-38
2.1071358 1.3592418 0.81632894 1.3729173e-38
2.1104667 1.3456202 0.81659561 1.262211e-38
2.1174314 1.3327464 0.81678069 1.1608679e-38
2.1238146 1.3195728 0.81698298 1.5019549e-38
2.1314163 1.3070191 0.81714928 1.2715744e-38
2.1404455 1.2951936 0.81727314 1.3544786e-38
2.1480412 1.2825801 0.81744087 1.4926275e-38
2.1512444 1.2678118 0.81773716 1.5756755e-38
2.1592755 1.2554986 0.81789017 1.5204664e-38
2.1647851 1.2418057 0.81812024 1.5296861e-38
2.1815362 1.2174845 0.81840682 1.7508472e-38
2.1882851 1.204488 0.81859863 1.7691423e-38
2.1942694 1.1911455 0.81881201 1.7691794e-38
2.1988697 1.1770266 0.81906831 1.8887445e-38
2.1765172 1.2312639 0.81816614 1.7599593e-38
2.2096064 1.1659845 0.81914347 1.1516859e-38
2.216439 1.1543367 0.81930161 1.5938638e-38
2.219306 1.1378332 0.81964517 1.1884565e-38
1.7498724 1.9964317 0.80738938 1.2908843e-38
1.7643259 1.9663985 0.80785257 1.0046084e-38
1.8170183 1.8701948 0.80922413 7.5632534e-39
1.8368063 1.8309978 0.80981243 6.2682154e-39
1.8436995 1.8180664 0.81000018 7.373121e-39
1.6777328 2.1439075 0.80513537 1.5676528e-38
1.682664 2.130229 0.80537534 1.3740432e-38
1.6910673 2.1154053 0.80558163 1.4016997e-38
1.6969092 2.1047528 0.80573338 1.4754553e-38
1.7010396 2.0903687 0.80600417 1.1526989e-38
1.7073137 2.077131 0.80621004 1.5030781e-38
1.7164128 2.0654271 0.80632979 1.3094316e-38
1.725172 2.0500953 0.80654198 1.2818448e-38
1.7429818 2.0137844 0.80709612 1.3001752e-38
1.7539761 1.9857842 0.80757153 8.9462159e-39
1.7690361 1.9678237 0.80773598 6.6402433e-39
1.792145 1.9231994 0.80839556 6.3618488e-39
1.797223 1.9093885 0.80863607 8.4830601e-39
1.8040749 1.8964387 0.8088249 1.3185409e-38
1.8139485 1.8849816 0.80892515 8.9447628e-39
1.8248613 1.8576324 0.80938637 8.7585582e-39
1.8338579 1.8458143 0.80951059 9.498633e-39
1.8540301 1.8068298 0.81008708 1.0046431e-38
1.8605806 1.793689 0.81028581 1.0600323e-38
1.8683467 1.7795998 0.81048578 1.0877286e-38
1.8709229 1.7659788 0.81076568 8.6663948e-39
1.879298 1.753859 0.81090796 6.1788939e-39
1.9452505 1.6230339 0.81287318 9.5916105e-39
1.9528958 1.6105393 0.81303728 1.3552379e-38
1.9629499 1.5991695 0.81313229 1.2811565e-38
1.8897876 1.7426181 0.81099224 4.3357015e-39
1.9191302 1.6881835 0.8117767 1.0600674e-38
1.9396122 1.6528915 0.81225961 9.2180972e-39
1.9455371 1.6391752 0.81248295 9.0394947e-39
1.970041 1.5863278 0.81331438 1.1981794e-38
1.977424 1.5736181 0.81348813 1.2350216e-38
1.98473 1.5608736 0.81366414 9.8602044e-39
1.9923376 1.5482655 0.81383157 1.16112e-38
1.9980537 1.5348017 0.81405258 1.4189073e-38
2.0050042 1.5218964 0.81423867 1.2071456e-38
2.0145772 1.5103352 0.81434667 1.4100475e-38
2.0184219 1.4958671 0.81462455 1.686346e-38
2.0262294 1.4823585 0.81480992 1.317816e-38
2.0341706 1.4709914 0.81494194 1.1426083e-38
2.0422716 1.4587277 0.81509244 1.4743686e-38
2.0453136 1.4438341 0.81539452 1.6678351e-38
2.0510597 1.4303838 0.8156147 1.3638778e-38
2.0580232 1.4174843 0.81580037 1.4836964e-38
2.0651999 1.4046814 0.81598008 1.400576e-38
2.0714598 1.3914635 0.81618565 1.3544781e-38
2.0784445 1.3785735 0.81637079 1.3636976e-38
2.0858376 1.3658684 0.81654429 1.3637337e-38
2.0925331 1.3528478 0.81673753 1.2161492e-38
2.0993857 1.3398981 0.81692642 1.2437718e-38
2.1062627 1.3269595 0.81711459 1.2530274e-38
2.1133118 1.3140988 0.81729782 1.6586153e-38
2.1193271 1.3007705 0.81751037 1.1886345e-38
2.1294787 1.2894777 0.81760186 1.594151e-38
2.1349866 1.2758205 0.8178311 1.3269636e-38
2.1402054 1.2620665 0.81806785 1.7322997e-38
2.1457946 1.2485454 0.81829244 1.7323723e-38
2.1527259 1.2356315 0.81847906 1.7139691e-38
2.1611059 1.2235615 0.81862015 1.5757837e-38
2.1669147 1.2098395 0.81884569 1.7967288e-38
2.1748796 1.1974407 0.81900185 1.3359315e-38
2.1816709 1.1828697 0.8192305 1.8150604e-38
2.1873741 1.1710575 0.81941229 1.8887805e-38
2.1940653 1.1614063 0.81952524 1.5203234e-38
2.2038436 1.1464087 0.81971169 1.9715408e-38
2.2098389 1.1330712 0.81992483 1.1884565e-38
2.2168276 1.1201832 0.82010978 1.2069314e-38
2.2250607 1.1243118 0.8198669 1.2069314e-38
1.6676435 2.123951 0.80578852 1.4937525e-38
1.6732574 2.1108518 0.80600262 1.5859488e-38
1.6800474 2.0961292 0.8062349 1.3924071e-38
1.7102585 2.0456738 0.80690908 1.2264191e-38
1.74464 1.9787627 0.80790269 1.5489956e-38
1.7448121 1.964781 0.80823338 1.2263817e-38
1.754159 1.9542284 0.80832124 1.4565127e-38
1.7700565 1.911813 0.80905461 5.7164724e-39
1.7798837 1.9004052 0.80915439 1.5120071e-38
1.78739 1.8878069 0.80932349 1.1802106e-38
1.8047829 1.8637404 0.80959272 1.032661e-38
1.8246481 1.8245784 0.81017888 1.1155286e-38
1.6644922 2.1381369 0.80550528 1.5860913e-38
1.6866496 2.1006823 0.80601043 1.0236247e-38
1.7034541 2.0623157 0.80663121 1.7243115e-38
1.7117077 2.045188 0.8068952 1.0142968e-38
1.7330416 2.0057878 0.80746126 9.4979491e-39
1.7403842 1.9926648 0.80764562 9.4057563e-39
1.7585564 1.9554839 0.80821419 8.0217317e-39
1.7840677 1.9089158 0.808878 1.4198112e-38
1.799614 1.8774517 0.80935615 9.407529e-39
1.8107665 1.852851 0.80974764 8.0210002e-39
1.8188789 1.8394958 0.80992407 6.8231787e-39
1.8326404 1.8121442 0.81033534 1.0324812e-38
1.8408052 1.7997639 0.81048757 8.1124783e-39
1.8470786 1.7865766 0.81069231 8.7578534e-39
1.8536812 1.7735138 0.81088817 1.115531e-38
1.8600239 1.7603335 0.81109154 9.8645821e-39
1.8688173 1.7447107 0.81131005 5.0736281e-39
1.8727669 1.7338145 0.81150085 5.6264291e-39
1.933965 1.6193491 0.81315899 6.1814554e-39
1.940733 1.6042494 0.81340063 1.5859453e-38
1.9512383 1.593172 0.81348073 1.3365459e-38
1.957171 1.5797384 0.81369722 1.2811204e-38
1.9625379 1.5656276 0.81393987 1.3549125e-38
1.9702108 1.5533861 0.8140974 1.2811916e-38
1.9765543 1.5402062 0.8143006 1.2256938e-38
1.9846551 1.5278214 0.81445408 1.3362557e-38
1.9903768 1.5143602 0.81467503 1.1796307e-38
1.9980658 1.5017887 0.81484014 1.2440237e-38
2.0046275 1.4887074 0.81503725 1.1333891e-38
2.0313902 1.4366159 0.81581086 1.3085965e-38
2.0378294 1.4234793 0.81601149 1.3454026e-38
2.0441535 1.4102906 0.81621522 1.2624629e-38
2.0476882 1.3956406 0.81650287 1.2992692e-38
2.0554485 1.3831837 0.81666404 1.3361469e-38
2.0644984 1.3713454 0.81678778 1.1885622e-38
2.0718412 1.3586175 0.81696278 1.5940067e-38
2.0792384 1.3459144 0.81713617 1.3176002e-38
2.0857947 1.3328308 0.8173334 1.3544063e-38
2.1062641 1.2939419 0.81790245 1.4926277e-38
2.132956 1.2418183 0.81867802 1.7414836e-38
2.1466997 1.2159364 0.81905466 1.732372e-38
2.1534512 1.2029411 0.81924635 1.8059122e-38
2.160048 1.1898757 0.81944245 1.9071475e-38
2.1669974 1.1769699 0.81962854 1.7507038e-38
1.8835622 1.7228329 0.81157357 4.8892312e-39
1.8904057 1.709879 0.81176269 1.0053633e-38
1.9313042 1.6320832 0.81290179 9.5926643e-39
2.013083 1.4764831 0.81518066 1.5113186e-38
2.0195448 1.4633567 0.81538051 1.5020989e-38
2.0254269 1.449968 0.81559688 1.5389774e-38
2.0936174 1.3203199 0.81749475 1.8243876e-38
2.0998225 1.3070773 0.81770194 1.5756396e-38
2.1140044 1.2813936 0.81806606 1.7782902e-38
2.1210182 1.2685169 0.81825036 1.7231165e-38
2.1272521 1.2552875 0.81845671 1.815168e-38
2.1402066 1.2290486 0.81885564 1.4097955e-38
2.1747832 1.1644424 0.81979096 1.8150969e-38
2.182723 1.1520594 0.81994724 1.5940792e-38
2.1916883 1.1401944 0.82007307 1.1608693e-38
2.1984465 1.1272169 0.82026422 1.1700531e-38
2.2054837 1.1120207 0.82050347 1.3174219e-38
2.2078269 1.0989169 0.82077509 1.5202155e-38
2.2179751 1.0876838 0.82086515 1.1884924e-38
1.6592537 2.1019294 0.8064611 1.4843544e-38
1.7370124 1.9443115 0.80885851 1.4562601e-38
1.6506852 2.1301525 0.80593789 1.0788346e-38
1.6558031 2.1156566 0.80619407 1.3922287e-38
1.6687016 2.0901539 0.80657643 1.189576e-38
1.6741108 2.0800736 0.80672204 1.3739691e-38
1.6904542 2.0518453 0.807109 1.5856938e-38
1.7175896 1.9999225 0.80787218 8.6678213e-39
1.7394886 1.9542462 0.80857807 1.3917233e-38
1.7470373 1.9397177 0.80879235 1.392118e-38
1.7630986 1.9093524 0.80923527 5.4388093e-39
1.7694175 1.8949715 0.80946767 1.604239e-38
1.7761538 1.8819693 0.80965978 1.1893218e-38
1.7823471 1.8708583 0.8098163 9.4071646e-39
1.790833 1.8566699 0.81000602 9.3128194e-39
1.7953185 1.8423128 0.81026995 7.1008431e-39
1.8113143 1.8176272 0.81057853 9.3131683e-39
1.8184391 1.8048006 0.8107596 8.481614e-39
1.8259484 1.792148 0.81092989 6.1781708e-39
1.8324503 1.7790397 0.81112862 6.5491239e-39
1.8391652 1.7660279 0.81132138 1.1435141e-38
1.8458107 1.7529845 0.81151605 1.3924058e-38
1.8533106 1.7403277 0.81168658 9.7741661e-39
1.7393492 1.9616172 0.80840462 1.2816625e-38
1.8119045 1.8253633 0.81038362 9.3131683e-39
1.860819 1.7276747 0.81185681 6.0874059e-39
1.8714416 1.7166505 0.81193358 4.7044784e-39
1.8735516 1.703765 0.81220412 5.5349608e-39
1.877056 1.6864568 0.81255561 5.4420533e-39
1.9209356 1.6141108 0.8135125 1.032699e-38
1.9281608 1.5976428 0.8137787 1.2357446e-38
1.9357543 1.5850283 0.8139466 1.2077242e-38
1.9428455 1.5721867 0.81412864 1.1430068e-38
1.9490138 1.5589274 0.8143369 1.1798134e-38
1.9557847 1.5473557 0.81449425 1.1613372e-38
1.9639208 1.5360391 0.81462163 1.4745153e-38
1.9708043 1.5206776 0.81486744 1.5941162e-38
1.978097 1.5068294 0.81507003 1.6402477e-38
1.9820228 1.4934479 0.81532049 1.2348405e-38
1.9878057 1.4799511 0.81554109 1.3086327e-38
1.9991719 1.4692707 0.81559664 1.0505211e-38
2.0060863 1.456349 0.81578374 1.2256203e-38
2.0117664 1.4428689 0.81600583 1.2901576e-38
2.0153933 1.4282825 0.81629026 1.327036e-38
2.0248678 1.414483 0.8164534 1.5297579e-38
2.0322895 1.4041027 0.816571 1.7508112e-38
2.037293 1.3902184 0.81681448 1.3545504e-38
2.0437262 1.377079 0.81701523 1.3361469e-38
2.0538232 1.3658116 0.81710702 1.2439513e-38
2.0587604 1.3510423 0.81737292 1.2899413e-38
2.0657558 1.3388959 0.81753999 1.7598507e-38
2.0722132 1.3257674 0.81774014 1.7691416e-38
2.0798597 1.3131771 0.81790644 1.7599946e-38
2.0861874 1.2999898 0.81811011 1.7506671e-38
2.0925963 1.2868395 0.81831157 1.7874736e-38
2.0999391 1.2741117 0.81848645 1.7415559e-38
2.1068556 1.2611909 0.81867349 1.7047135e-38
2.1142032 1.2484653 0.81884831 1.5757837e-38
2.116261 1.2331212 0.81917834 1.7138249e-38
2.1236703 1.220467 0.81935036 1.6307771e-38
2.1328754 1.2068588 0.81951368 1.6123738e-38
2.1396577 1.1958332 0.81965786 1.7966928e-38
2.1464019 1.1828326 0.81984979 1.8980002e-38
2.1511528 1.1708543 0.82005233 1.7322646e-38
2.1602993 1.156971 0.82022321 1.7046778e-38
2.1675882 1.1442187 0.82039964 1.7783259e-38
2.1742301 1.1311737 0.82059449 1.7323364e-38
2.1804483 1.1179372 0.82080132 1.8887805e-38
2.1897504 1.1060956 0.82092071 1.7875818e-38
2.1960082 1.0928769 0.8211264 1.9900876e-38
2.20643 1.0817494 0.82120913 1.1792368e-38
2.2084348 1.0690939 0.82147598 1.1700887e-38
1.7259004 1.9386549 0.80918843 1.4932817e-38
1.7537566 1.8869928 0.80993259 7.2859603e-39
1.7691271 1.8618217 0.81026375 1.1438338e-38
1.635903 2.1224642 0.80638057 1.5489227e-38
1.640113 2.1107669 0.80658585 1.4567652e-38
1.6492895 2.0939403 0.80682641 1.1986533e-38
1.6568842 2.081917 0.80698013 1.1432635e-38
1.6638672 2.0706728 0.80712605 1.2540064e-38
1.677776 2.0451906 0.80749011 9.5905063e-39
1.7113075 1.9791031 0.80847913 1.0972723e-38
1.718572 1.9673485 0.80863225 8.9436908e-39
1.7287048 1.9406832 0.80909079 1.0696118e-38
1.7378434 1.9278299 0.80923724 7.7426252e-39
1.7390679 1.9120216 0.80959302 6.1749422e-39
1.7547102 1.9012367 0.80957609 1.3554546e-38
1.7636468 1.8753922 0.810036 8.1128371e-39
1.7773658 1.8494992 0.81041336 1.0885179e-38
1.7836457 1.8362905 0.81061834 7.4699844e-39
1.792789 1.8235087 0.810763 8.3901428e-39
1.7925389 1.8077729 0.81114292 1.078435e-38
1.8063384 1.7984073 0.81112438 8.4794714e-39
1.8134903 1.7855929 0.81130475 9.7745458e-39
1.8171262 1.7710396 0.81158823 6.6413294e-39
1.8238145 1.7580078 0.81178194 9.4096968e-39
1.8327051 1.7451921 0.81193179 1.2356375e-38
1.8383666 1.7325997 0.81213301 7.4703571e-39
1.8437034 1.7188152 0.81236833 9.7759584e-39
1.8544885 1.7078421 0.81244111 5.3487674e-39
1.9218556 1.5778215 0.81436223 1.0691428e-38
1.9347628 1.5515612 0.81476259 1.1799578e-38
1.9418085 1.5386989 0.81494588 1.2813005e-38
1.9490222 1.5259129 0.81512451 1.4101594e-38
1.801396 1.8122209 0.81088144 6.8235304e-39
1.8620044 1.6951926 0.8126111 5.8115449e-39
1.8688407 1.6822356 0.81280041 5.4420533e-39
1.9126036 1.6040646 0.81389827 9.7709095e-39
1.9167944 1.5915817 0.81412268 9.5861567e-39
1.9292963 1.5651381 0.81453443 1.2352401e-38
1.9563209 1.5131649 0.8153007 1.364132e-38
1.9630537 1.5001613 0.81549287 1.4467821e-38
1.9704555 1.4874599 0.8156662 1.2348765e-38
1.9794775 1.4723214 0.81586927 1.4744408e-38
1.9858495 1.4623246 0.81599605 1.6770907e-38
1.9918346 1.4471259 0.81625378 1.3730615e-38
2.0003085 1.4369099 0.81634891 1.2071097e-38
2.0048673 1.4227791 0.81660616 1.2440599e-38
2.0110466 1.4095249 0.81681406 1.4652931e-38
2.0170345 1.3961843 0.81702739 1.5941868e-38
2.0236108 1.3831096 0.81722409 1.3361113e-38
2.0308781 1.3703474 0.81740117 1.6125537e-38
2.0384972 1.3577445 0.81756824 1.6770545e-38
2.0453687 1.3448035 0.81775659 1.7229724e-38
2.0514674 1.3337733 0.81791282 1.7507396e-38
2.0588436 1.3187492 0.818142 1.7968009e-38
2.0661197 1.3060391 0.81831765 1.7231886e-38
2.073117 1.2922829 0.81852323 1.7783621e-38
2.0819285 1.2812885 0.81863105 1.7874735e-38
2.0879931 1.2679387 0.81884325 1.74152e-38
2.0928524 1.2543582 0.81908202 1.6032261e-38
2.0996985 1.2403852 0.81929547 1.6678713e-38
2.1056824 1.2276417 0.81949461 1.7322639e-38
2.1120539 1.2144744 0.81969708 1.4372744e-38
2.1185501 1.2013636 0.81989598 1.4188352e-38
2.1258469 1.1886148 0.82007229 1.3820291e-38
2.131999 1.1753484 0.82028091 1.7966932e-38
2.1392176 1.1625644 0.82045943 1.7323006e-38
2.1490078 1.1511061 0.82056111 1.74152e-38
2.1544583 1.1374092 0.82079238 1.7875455e-38
2.1623917 1.1225879 0.82100695 1.9347704e-38
2.1676631 1.1112341 0.82118541 1.7138977e-38
2.1749296 1.0984716 0.8213625 1.7323369e-38
2.1810508 1.0852255 0.82157123 1.206967e-38
2.1887372 1.0726187 0.82173729 1.7599228e-38
2.1963816 1.0600274 0.82190365 1.1700884e-38
2.2098117 1.0340035 0.82228917 1.1884559e-38
1.6141928 2.1278551 0.80663264 1.5763623e-38
1.6213512 2.1150439 0.80681276 1.4013736e-38
1.627354 2.1017816 0.807024 1.5858028e-38
1.720291 1.9355619 0.8093605 1.3829705e-38
1.7217788 1.9192611 0.80972344 1.1153872e-38
1.7294043 1.9071311 0.80987912 6.1749422e-39
1.7349683 1.8909388 0.81016791 1.1064178e-38
1.7406983 1.8801409 0.81032509 1.1339688e-38
1.7492224 1.8680644 0.81046385 1.3461265e-38
1.753022 1.8556883 0.81069249 1.10692e-38
1.7703682 1.8293647 0.81101644 1.0145456e-38
1.6435652 2.0754414 0.80736822 1.1432992e-38
1.6968448 1.9741637 0.80885059 9.2195644e-39
1.703643 1.9632808 0.80899101 9.0348088e-39
1.7234552 1.9211941 0.80964792 7.5604074e-39
1.7384081 1.8953902 0.81000143 8.3912274e-39
1.7638324 1.8424578 0.81081861 8.7632442e-39
1.7781361 1.8168291 0.81117934 1.2170521e-38
1.7843697 1.8035994 0.81138575 1.078435e-38
1.7950703 1.7925931 0.81146067 9.2177483e-39
1.8010138 1.7791551 0.81167716 6.0852647e-39
1.804975 1.7647722 0.81195086 6.0885185e-39
1.8115835 1.751712 0.81214654 9.4089807e-39
1.8179779 1.7385551 0.81234843 8.0260407e-39
1.8251806 1.7257638 0.81252736 8.0235337e-39
1.8319124 1.7127595 0.81271958 9.5915699e-39
1.8413849 1.7011024 0.81283164 6.547312e-39
1.8456805 1.6886228 0.81305414 6.1803274e-39
1.8519691 1.6734998 0.81330466 5.0721834e-39
1.854827 1.6585039 0.8136124 9.5872553e-39
1.9065577 1.5698835 0.81481993 1.2446048e-38
1.9138137 1.5571562 0.81499636 1.21691e-38
1.9213228 1.5418265 0.81523049 1.0508117e-38
1.9302334 1.5327405 0.81529111 1.0875812e-38
1.9361762 1.5170105 0.81556219 1.1887445e-38
1.9422569 1.5058835 0.81572109 1.4933869e-38
1.9494482 1.4930871 0.81590027 1.4193057e-38
1.9974332 1.4024473 0.8172217 1.6586518e-38
2.0035725 1.3891748 0.81743068 1.4374546e-38
2.0101438 1.3760982 0.81762755 1.4744769e-38
2.0176628 1.3634498 0.81779748 1.5388335e-38
2.0310764 1.3374187 0.81818336 1.7507397e-38
2.037883 1.3244482 0.81837356 1.7231528e-38
2.0449576 1.3115991 0.81855613 1.6862379e-38
2.0914848 1.2202998 0.81991881 1.6586521e-38
2.0986984 1.2075136 0.82009733 1.6308852e-38
2.104517 1.1940961 0.82031542 1.7138609e-38
2.1117868 1.1813351 0.82049251 1.6677628e-38
2.1180186 1.1681048 0.82069892 1.7414474e-38
2.1255229 1.1554499 0.82086933 1.7414836e-38
2.132534 1.1425719 0.82105362 1.7598864e-38
2.1389227 1.1294124 0.82125562 1.7598865e-38
2.1461551 1.1166346 0.82143372 1.7506674e-38
1.9035698 1.5846798 0.81451929 1.2909911e-38
1.9574244 1.4806458 0.81605732 1.1519005e-38
1.9644493 1.467774 0.81624126 1.2532794e-38
1.9753803 1.4568784 0.81630957 1.3270002e-38
1.9788008 1.4421672 0.81660062 1.4559292e-38
1.9848669 1.4288616 0.81681174 1.5941148e-38
1.9914794 1.4158034 0.81700736 1.6218452e-38
2.024967 1.3507044 0.81797349 1.4926996e-38
2.0518353 1.2986608 0.81874418 1.6770908e-38
2.0586195 1.2856803 0.81893498 1.7139691e-38
2.065315 1.2726595 0.81912827 1.4188714e-38
2.0721257 1.2596909 0.81931823 1.4004678e-38
2.0789359 1.2467222 0.81950837 1.3912482e-38
2.0866947 1.2341825 0.81967151 1.6310652e-38
2.1576655 1.1059923 0.82148576 1.7138977e-38
2.1633966 1.0924598 0.8217082 1.6862744e-38
2.1672812 1.078043 0.82198411 1.8704127e-38
2.1767669 1.0663974 0.82209563 1.1516856e-38
2.1837494 1.051795 0.82232165 1.1516496e-38
2.1832433 1.0366844 0.82269108 1.9163304e-38
2.1939547 1.0257012 0.82276535 1.9900874e-38
2.2007589 1.0127332 0.82295543 1.9531732e-38
1.6254934 2.0678494 0.80786628 1.0787962e-38
1.5937912 2.133739 0.80684996 1.714474e-38
1.5990305 2.1199133 0.80708796 1.7881231e-38
1.6074896 2.1072516 0.80724174 1.5947292e-38
1.6131492 2.0943646 0.80745006 1.6317887e-38
1.6203753 2.0851786 0.80754256 1.1985791e-38
1.6292558 2.0723193 0.8076936 9.6819803e-39
1.6315473 2.0615695 0.80790997 1.2999601e-38
1.6984252 1.9328549 0.80980855 9.4046773e-39
1.7032897 1.9265962 0.80987263 8.4827154e-39
1.7083461 1.9147804 0.81006587 8.5734887e-39
1.7154239 1.9020218 0.81024623 1.4198493e-38
1.7210753 1.8863944 0.81052005 1.0788668e-38
1.7279246 1.8734431 0.81070894 6.455115e-39
1.7335918 1.8599573 0.81093138 7.1001299e-39
1.7411671 1.8473346 0.81109971 1.0236578e-38
1.7476343 1.8358287 0.81126088 9.9617859e-39
1.7571222 1.8224531 0.81141365 1.383004e-38
1.7707714 1.7965286 0.81179291 8.9418761e-39
1.77808 1.7837852 0.8119688 1.0691088e-38
1.7844943 1.7706374 0.81217003 9.1280792e-39
1.791508 1.7577605 0.81235433 9.8649324e-39
1.7981552 1.7447181 0.81254894 1.0330938e-38
1.8042784 1.7314384 0.81275851 1.0056148e-38
1.8116294 1.7187142 0.81293321 1.0331653e-38
1.8187765 1.7058978 0.81311369 8.9454872e-39
1.8250363 1.69268 0.81331927 8.7621595e-39
1.9065267 1.5369494 0.8156063 1.0325176e-38
1.9127959 1.5237359 0.81581169 9.6765544e-39
1.7656134 1.8102448 0.81155604 9.5890335e-39
1.8329381 1.6802051 0.81347841 5.9041034e-39
1.8401206 1.6674045 0.81365794 8.4830531e-39
1.8466015 1.654287 0.81385726 9.5872553e-39
1.8543237 1.6449448 0.81394482 6.549861e-39
1.8887427 1.5770564 0.81496119 9.4072053e-39
1.8949006 1.5637891 0.81516975 1.3091781e-38
1.9004776 1.5502625 0.8153947 1.3921546e-38
1.9213052 1.5115356 0.81595355 1.170595e-38
1.9282588 1.499741 0.81611311 1.2076523e-38
1.9376867 1.4868472 0.81625545 1.5762558e-38
1.9440688 1.4736845 0.81645757 1.5669643e-38
1.9513868 1.4609455 0.81663322 1.5758934e-38
1.9643621 1.4347161 0.81703156 1.5850744e-38
1.9715037 1.4218972 0.81721228 1.8150603e-38
1.9783773 1.408957 0.81740046 1.520467e-38
1.9835019 1.3952256 0.81763828 1.5113912e-38
1.9897469 1.383155 0.81781679 1.5849674e-38
1.9972661 1.3693932 0.81801337 1.6219178e-38
2.0051663 1.3544416 0.81823158 1.5388334e-38
2.0092156 1.3425627 0.81844401 1.8429345e-38
2.0154507 1.3292806 0.81865156 1.8520826e-38
2.0221593 1.3162673 0.8188445 1.8705216e-38
2.0307376 1.303977 0.81898731 1.6494318e-38
2.0358808 1.2904027 0.81922102 1.8521183e-38
2.0441229 1.2782198 0.81936723 1.6401767e-38
2.051316 1.2654074 0.81954682 1.7600312e-38
2.0576897 1.2521409 0.81975156 1.3912484e-38
2.0648251 1.2394195 0.81993002 1.8060564e-38
2.0710502 1.2240112 0.82018858 1.6863105e-38
2.0793655 1.2140366 0.82028067 1.6586521e-38
2.0841577 1.2000507 0.82053041 1.6770191e-38
2.0936944 1.1884813 0.82063925 1.7322281e-38
2.0988603 1.1746424 0.82087892 1.6677628e-38
2.1070671 1.1624336 0.82102627 1.6678352e-38
2.1107402 1.1491544 0.82127875 1.7414836e-38
2.1174021 1.1347282 0.82150614 1.6954937e-38
2.124984 1.1233562 0.82164454 1.7506671e-38
2.129667 1.108059 0.82192737 1.7046779e-38
2.1398866 1.0968299 0.82201618 1.6862748e-38
2.1467261 1.0838743 0.82220536 1.6954585e-38
2.1535025 1.0708904 0.8223964 1.6770555e-38
2.1612458 1.0583436 0.82255995 1.6955302e-38
2.1684754 1.0455647 0.82273811 1.6954578e-38
2.1750207 1.0324759 0.8229357 1.9163304e-38
2.1816373 1.0194194 0.8231312 1.8980714e-38
2.1883857 1.0064228 0.82332301 1.9531732e-38
2.1968842 0.99363464 0.82347912 1.916403e-38
2.206409 0.98014367 0.82363403 2.0176383e-38
2.2095487 0.96774846 0.82387471 2.0819929e-38
1.5793811 2.126318 0.80727977 1.6960348e-38
1.5860417 2.1132812 0.80747396 1.8619159e-38
1.5926859 2.1002378 0.80766875 1.7881947e-38
1.5967655 2.0859447 0.80793828 1.4656909e-38
1.5984747 2.0703144 0.80828124 1.8253968e-38
1.6909895 1.9038488 0.81063104 1.3461998e-38
1.6987194 1.8921599 0.81077445 1.5766188e-38
1.7073534 1.8792676 0.81093073 1.0329487e-38
1.7141497 1.8662925 0.81112111 1.1990796e-38
1.7202133 1.8529859 0.81133223 1.4481513e-38
1.7271308 1.8400656 0.81151932 9.2238636e-39
1.5764962 2.1418772 0.80695903 1.594584e-38
1.6068943 2.0754514 0.808011 1.1340034e-38
1.6123528 2.0632136 0.80820733 1.3460547e-38
1.6236438 2.0489769 0.80834907 1.1339317e-38
1.6499968 1.997767 0.80910885 1.1525907e-38
1.6918256 1.9193151 0.81024742 1.2539685e-38
1.7352171 1.8276742 0.81167316 7.4710718e-39
1.7423306 1.815851 0.81183052 1.2543625e-38
1.7514434 1.8029153 0.81197935 1.2168357e-38
1.7568589 1.789268 0.81221008 1.3826801e-38
1.7634616 1.7761842 0.81240648 1.1336457e-38
1.7721511 1.7641343 0.81254166 9.5901294e-39
1.7775549 1.7513658 0.81275159 8.9440551e-39
1.7852659 1.7380707 0.81293356 8.299406e-39
1.7933831 1.7258031 0.81308395 9.9625132e-39
1.7994248 1.7124195 0.81329745 9.8706749e-39
1.8054112 1.6990056 0.81351256 8.8536517e-39
1.8104727 1.6863728 0.81372517 7.9323989e-39
1.8157123 1.6712728 0.81399357 8.2118542e-39
1.8267776 1.6604493 0.81405789 7.2855987e-39
1.8330537 1.6472389 0.81426305 8.7621694e-39
1.8856831 1.5430244 0.81582689 1.2259845e-38
1.8924851 1.5294794 0.8160308 1.0139703e-38
1.8986294 1.5163604 0.81623608 1.1523358e-38
1.9047722 1.5030146 0.81644684 8.7581981e-39
2.090143 1.1536556 0.82153249 1.6862744e-38
1.8435031 1.6359961 0.8143481 6.9222322e-39
1.8745716 1.586134 0.81499302 1.1901228e-41
1.885905 1.5583873 0.81545639 1.0144053e-38
1.9155529 1.4919645 0.81652147 1.097053e-38
1.924769 1.4801699 0.81664127 1.3550221e-38
1.931494 1.4656254 0.81687039 1.4471083e-38
1.9366957 1.4533286 0.81707263 1.4748764e-38
1.9430043 1.4400808 0.81727809 1.4563999e-38
1.9501507 1.4273049 0.81745762 1.5760726e-38
1.9578918 1.4138896 0.81764197 1.6126984e-38
1.964901 1.4019949 0.81780291 1.4929521e-38
1.9707723 1.3891534 0.81800646 1.5942951e-38
1.9759877 1.3748575 0.81825602 1.658724e-38
1.9823732 1.3616966 0.81845808 1.4929882e-38
1.9897579 1.3489877 0.81863189 1.6219534e-38
1.9963509 1.3359206 0.81882811 1.8429348e-38
2.0031226 1.3229344 0.8190192 1.8337155e-38
2.0102022 1.3100874 0.81920159 1.8705216e-38
2.0173557 1.297274 0.81938189 1.8705574e-38
2.0237992 1.2841393 0.81958228 1.8428989e-38
2.0307376 1.2712284 0.81976873 1.824424e-38
2.0406771 1.2598451 0.81986606 1.8244242e-38
2.0450208 1.2455907 0.82013005 1.7968014e-38
2.0513813 1.2336931 0.82030237 1.760031e-38
2.0575471 1.2191581 0.82054108 1.7139691e-38
2.0633788 1.2057467 0.82075888 1.7047138e-38
2.0704825 1.1929107 0.82094061 1.7138973e-38
2.0768785 1.1797544 0.82114238 1.6955297e-38
2.0840807 1.166963 0.82132131 1.7691061e-38
2.0972743 1.1408324 0.82171345 1.7506671e-38
2.1046801 1.1281328 0.8218866 1.667907e-38
2.1110673 1.1149727 0.82208866 1.6678361e-38
2.1181884 1.1021445 0.82226986 1.667872e-38
2.1286573 1.0910447 0.8223511 1.6862748e-38
2.1349449 1.0777955 0.82255697 1.6954585e-38
2.1416597 1.0647807 0.82274979 1.6862749e-38
2.1453376 1.052194 0.82298565 1.7507033e-38
2.1527252 1.0374593 0.82320774 1.7874015e-38
2.1602566 1.0244087 0.82338703 1.7599233e-38
2.1673656 1.0120962 0.82355618 1.8980714e-38
2.1742706 0.99841237 0.82376164 1.9531732e-38
2.1786561 0.98487896 0.82400769 1.8795612e-38
2.1865315 0.97250813 0.82416481 1.9255501e-38
2.1953478 0.96050423 0.82429659 1.9991978e-38
1.5603788 2.1328521 0.80745703 1.705254e-38
1.565168 2.1188512 0.80770707 1.6130952e-38
1.5732296 2.1066992 0.80785573 1.7698632e-38
1.5793257 2.0933347 0.80806768 1.7144747e-38
1.5841177 2.0793927 0.80831635 1.2996672e-38
1.5908539 2.0663905 0.80850852 1.8253968e-38
1.5961444 2.0550563 0.80868614 1.5395206e-38
1.6138458 2.0286427 0.80900604 2.0279404e-38
1.6189506 2.015959 0.80921918 9.9582028e-39
1.6734402 1.912443 0.81073368 9.5887e-39
1.6791288 1.8976793 0.81098628 9.957484e-39
1.6854571 1.8844925 0.81118995 1.7518972e-38
1.6949592 1.8728859 0.81130022 1.3924385e-38
1.7002995 1.8589765 0.81153852 1.1530541e-38
1.7079164 1.8465037 0.81170255 1.3100033e-38
1.7148925 1.8336099 0.81188798 7.1022837e-39
1.7214403 1.8205225 0.81208539 9.8695945e-39
1.7494256 1.7689841 0.81282443 1.2442803e-38
1.769347 1.7298473 0.81340903 1.2168719e-38
1.7765012 1.7170341 0.81358927 1.0795144e-38
1.8779029 1.522162 0.81646109 1.1338611e-38
1.8844895 1.5090922 0.81665748 1.2167285e-38
1.6083119 2.0421889 0.80877984 9.7727129e-39
1.6210514 2.0322213 0.80879432 2.0279404e-38
1.6230317 2.0172517 0.80911678 1.3182507e-38
1.6587788 1.9510789 0.81006891 8.205767e-39
1.670621 1.9267528 0.81044167 9.7741843e-39
1.6758392 1.9142438 0.81064868 9.3139068e-39
1.6845121 1.8996056 0.81084591 7.2863204e-39
1.730378 1.8085161 0.81221515 1.2083374e-38
1.7403032 1.7971221 0.81231296 1.4475054e-38
1.7437356 1.7824596 0.8126027 1.2903394e-38
1.7603294 1.7580242 0.81289476 9.3110327e-39
1.7637428 1.7433617 0.8131848 1.5022473e-38
1.7837048 1.7042432 0.81376815 1.0519276e-38
1.7910889 1.691534 0.81394196 9.6855522e-39
1.7980486 1.678633 0.81412774 8.4852125e-39
1.8045723 1.6655344 0.81432587 7.8434304e-39
1.8120157 1.6531377 0.81449115 8.4848594e-39
1.8214891 1.6412883 0.81460786 8.296878e-39
1.8264527 1.6270174 0.81486124 7.3767154e-39
1.8561195 1.5601735 0.81593603 7.4710928e-39
1.8633872 1.5474505 0.81611222 7.5625752e-39
1.8709812 1.5385376 0.81619173 9.9567735e-39
1.8918396 1.4963675 0.81683218 8.6656465e-39
