# .PCD v0.7 - Point Cloud Data file format
VERSION 0.7
FIELDS x y z rgb
SIZE 4 4 4 4
TYPE F F F F
COUNT 1 1 1 1
WIDTH 1002
HEIGHT 1
VIEWPOINT 0 0 0 1 0 0 0
POINTS 1002
DATA ascii
-2.6361794 0.044923764 -0.55856645 1.0654357e-38
-2.6392386 0.073907688 -0.54346246 1.1023497e-38
-2.6386509 0.059921574 -0.54481518 1.1023138e-38
-2.6409976 0.059227049 -0.52900767 1.1023138e-38
-2.6432149 0.078972548 -0.51782817 1.1206812e-38
-2.642844 0.06216307 -0.51721144 1.1297931e-38
-2.6456914 0.096781753 -0.50456226 1.15738e-38
-2.6446857 0.079699583 -0.50813383 1.1391203e-38
-2.6446705 0.0691434 -0.50629157 1.1299004e-38
-2.6480348 0.10778479 -0.49092945 1.1483041e-38
-2.6469998 0.080602795 -0.49283826 1.1390843e-38
-2.6467009 0.066892371 -0.49231151 1.1483036e-38
-2.649214 0.084297523 -0.47872597 1.1391562e-38
-2.6514027 0.09879034 -0.46677002 1.1758902e-38
-2.6537166 0.10050151 -0.45162579 1.1758906e-38
-2.6580987 0.15693362 -0.43273807 1.2402838e-38
-2.6566341 0.131791 -0.43789399 1.1851821e-38
-2.6558216 0.1174046 -0.44067281 1.19433e-38
-2.6590745 0.15109901 -0.42514375 1.2035851e-38
-2.6586416 0.13332888 -0.42476234 1.2035852e-38
-2.6616304 0.15827055 -0.40938661 1.3227921e-38
-2.6609654 0.14832376 -0.41199708 1.3320115e-38
-2.6605084 0.13647565 -0.41287008 1.2495034e-38
-2.6631162 0.14695677 -0.3973771 1.3047486e-38
-2.6917226 0.40938044 -0.25456542 1.0472861e-38
-2.6911469 0.39653859 -0.25604808 1.2127707e-38
-2.6943176 0.42185137 -0.23952337 1.0381026e-38
-2.6934068 0.39472547 -0.2406147 1.1024954e-38
-2.697145 0.45181161 -0.22614963 1.093312e-38
-2.6956725 0.43761331 -0.23337337 1.1024955e-38
-2.7005537 0.46817142 -0.20638658 1.1116794e-38
-2.69911 0.45500159 -0.21360682 1.0933121e-38
-2.7030935 0.509004 -0.19693552 1.1392663e-38
-2.7025869 0.4953039 -0.19779767 1.1208632e-38
-2.7014999 0.48181596 -0.20257731 1.1024961e-38
-2.7053659 0.51216924 -0.18233632 1.1392663e-38
-2.7072473 0.51383173 -0.17007305 1.1208993e-38
-2.7091475 0.51971561 -0.15845864 1.1393023e-38
-2.7114711 0.53037643 -0.14489624 1.1484499e-38
-2.7148094 0.57318938 -0.13047519 1.1852562e-38
-2.7145262 0.55842316 -0.12964956 1.1668888e-38
-2.7137134 0.54420424 -0.1324614 1.1576693e-38
-2.7167366 0.57197094 -0.11737477 1.203659e-38
-2.7166965 0.55908155 -0.11526912 1.1484499e-38
-2.7198777 0.60243994 -0.10199898 1.1943673e-38
-2.7192123 0.59088027 -0.10431516 1.1852198e-38
-2.7189031 0.57601923 -0.10364454 1.1760368e-38
-2.7220759 0.62025762 -0.090590827 1.3967662e-38
-2.7220161 0.60725522 -0.088596933 1.1944035e-38
-2.7211339 0.59114259 -0.091524012 1.1851838e-38
-2.7239106 0.62327546 -0.078888141 1.2405014e-38
-2.7238958 0.60794359 -0.076164648 1.2863833e-38
-2.7235291 0.592408 -0.07575231 1.1852562e-38
-2.7264192 0.63836461 -0.064906739 1.3140781e-38
-2.7260866 0.6207543 -0.063885875 1.203659e-38
-2.7260771 0.6072244 -0.061458755 1.1852559e-38
-2.7287111 0.63819873 -0.049561486 1.2312817e-38
-2.7280574 0.62390035 -0.051297802 1.2404653e-38
-2.7312291 0.65303868 -0.035472233 1.2404297e-38
-2.7310064 0.63801044 -0.034190804 1.1760725e-38
-2.7334521 0.66134107 -0.022145981 1.2956392e-38
-2.7359293 0.67129457 -0.0074279914 1.2495769e-38
-2.7352834 0.65896398 -0.0094728228 1.2128429e-38
-2.7382541 0.68597871 0.0054014507 1.1944755e-38
-2.7378516 0.67125171 0.0054231444 1.2036951e-38
-2.7399988 0.68784475 0.016716218 1.2128786e-38
-2.7422407 0.70579809 0.028389063 1.0197716e-38
-2.7419307 0.68955588 0.029306917 1.1761084e-38
-2.7451658 0.73474997 0.042600054 1.1393018e-38
-2.7449985 0.71986151 0.044224579 1.2405007e-38
-2.7446103 0.70623767 0.044140667 1.1668161e-38
-2.7440777 0.69214058 0.043177474 1.1667444e-38
-2.7511845 0.84007382 0.063419692 6.6121599e-39
-2.7514098 0.82698345 0.067335047 8.2677198e-39
-2.7505968 0.81538177 0.064040057 1.1212593e-38
-2.7501192 0.79944837 0.063783482 8.9109284e-39
-2.7495265 0.78593773 0.062311199 1.0383186e-38
-2.7493625 0.77374822 0.063459247 8.1737179e-39
-2.7492566 0.76102304 0.06509757 9.0920757e-39
-2.7486851 0.74666965 0.063920572 1.056325e-38
-2.7475626 0.73224002 0.059078738 1.0746918e-38
-2.7844601 1.0375229 0.24939162 9.9445444e-39
-2.7836421 1.025241 0.2461877 1.2618564e-38
-2.7824628 1.011706 0.24080081 1.0590955e-38
-2.7823265 0.99909335 0.24221334 1.0499489e-38
-2.7808506 0.98472315 0.23499769 1.0499131e-38
-2.78123 0.97293568 0.23970255 1.0406589e-38
-2.7806866 0.95889014 0.2386604 1.077429e-38
-2.786943 1.0667014 0.26060957 8.8392254e-39
-2.7868681 1.0530738 0.26261723 9.6708161e-39
-2.7860656 1.0469254 0.25838709 1.0315123e-38
-2.7844279 1.0004207 0.25600889 1.1054126e-38
-2.7833385 0.99080575 0.25050259 1.114596e-38
-2.782258 0.94864953 0.25104573 1.2157942e-38
-2.7817457 0.935776 0.24999253 1.2064303e-38
-2.7877774 1.0427606 0.27059421 1.0600356e-38
-2.7881618 1.0305485 0.27540788 1.7608314e-38
-2.789578 1.0407927 0.28298691 1.7608314e-38
-2.7896323 1.0288594 0.28554523 2.3509163e-38
-2.7886884 1.021562 0.28058276 2.3509163e-38
-2.7916405 1.0474541 0.29553935 1.1055194e-38
-2.7915308 1.0321388 0.29762957 1.6590181e-38
-2.8046119 1.1021538 0.37213549 4.1383483e-39
-2.8045242 1.0867288 0.37439013 4.4174491e-39
-2.8074129 1.0894327 0.3931928 9.2065828e-39
-2.8086996 1.0979028 0.40023166 9.2065828e-39
-2.6220074 -0.040825676 -0.63746494 1.0101905e-39
-2.6189337 -0.13567854 -0.64053756 3.4897489e-39
-2.6183691 -0.16098799 -0.6396488 2.5713939e-39
-2.6220169 -0.10386428 -0.62579417 7.3468397e-40
-2.619765 -0.14415629 -0.63341951 1.4693679e-39
-2.6265967 -0.035882171 -0.60771233 5.4193747e-39
-2.6256833 -0.047921792 -0.61159927 4.4081066e-39
-2.6257212 -0.061987441 -0.60875672 5.8778319e-39
-2.6282465 -0.031527039 -0.59749103 8.8205222e-39
-2.6281402 -0.049081117 -0.59497035 9.0942309e-39
-2.6273746 -0.075741634 -0.59517437 9.6430886e-39
-2.6306233 -0.030998774 -0.58170736 9.4594148e-39
-2.6331029 -0.00022982602 -0.57080799 1.0562521e-38
-2.6329548 -0.016061362 -0.56887949 1.0379926e-38
-2.6361609 0.027795615 -0.55553693 1.0838388e-38
-2.6356664 0.014474415 -0.55638599 1.0746911e-38
-2.6355355 -0.0010938833 -0.55439442 1.0654717e-38
-2.6387277 0.042476434 -0.54108828 1.1022778e-38
-2.638474 0.026667524 -0.53987265 1.1022418e-38
-2.6377196 0.013656839 -0.54251707 1.102206e-38
-2.6377473 -0.00098113704 -0.53963786 1.0929865e-38
-2.6410031 0.04372891 -0.52611524 1.1114617e-38
-2.6406538 0.02809567 -0.52556962 1.1206812e-38
-2.6400645 0.015436611 -0.5271762 1.1206453e-38
-2.6397028 0.0011936157 -0.52697045 1.1021701e-38
-2.6426604 0.043303773 -0.51496422 1.1206812e-38
-2.6427696 0.029156812 -0.51162839 1.1207526e-38
-2.6450462 0.047123868 -0.49972549 1.120717e-38
-2.6481137 0.063384674 -0.482227 1.1575231e-38
-2.6470425 0.051086809 -0.48711669 1.1299009e-38
-2.6467047 0.033344183 -0.48610845 1.1299365e-38
-2.6495759 0.072018519 -0.47404554 1.1575231e-38
-2.652189 0.093061633 -0.46046084 1.2033693e-38
-2.6514935 0.0780643 -0.46234626 1.1666353e-38
-2.65466 0.092380822 -0.44382742 1.2309206e-38
-2.6538706 0.085876979 -0.44790089 1.221701e-38
-2.6562068 0.097353965 -0.43440679 1.2125894e-38
-2.6586487 0.11336108 -0.42103875 1.2219163e-38
-2.6585138 0.097129911 -0.41895011 1.2493953e-38
-2.6608455 0.11665083 -0.40696523 1.2677983e-38
-2.6643276 0.1576304 -0.39124903 1.377858e-38
-2.6653368 0.14441969 -0.38207191 1.3230079e-38
-2.6910343 0.36202991 -0.25044465 9.6459795e-39
-2.6901548 0.34772804 -0.2536889 9.6456194e-39
-2.6959126 0.41829637 -0.22821264 1.2586524e-38
-2.6945953 0.40562105 -0.23468018 1.0840563e-38
-2.6948893 0.39195785 -0.23019856 1.0932757e-38
-2.6940701 0.37845162 -0.23318711 1.0565055e-38
-2.6930971 0.3690905 -0.23796274 9.6463396e-39
-2.6974311 0.43401673 -0.22096181 1.09324e-38
-2.6973574 0.4165372 -0.21823458 1.0748726e-38
-2.7001953 0.45459569 -0.20628157 1.0932761e-38
-2.6996834 0.44651282 -0.20821428 1.0932401e-38
-2.7030272 0.47734919 -0.1915486 1.1116433e-38
-2.7023447 0.46464321 -0.19377057 1.1024598e-38
-2.7053959 0.49181637 -0.17838819 1.1116796e-38
-2.7074687 0.49515772 -0.16515154 1.1208272e-38
-2.7098274 0.50877935 -0.15190157 1.1300825e-38
-2.7121427 0.52017236 -0.13852984 1.139302e-38
-2.7141879 0.52708715 -0.12613733 1.139302e-38
-2.7166409 0.54263085 -0.11261076 1.1392303e-38
-2.7191684 0.55757952 -0.098476455 1.1576335e-38
-2.7189343 0.54253274 -0.097270176 1.120863e-38
-2.7214243 0.5745104 -0.086520649 1.1759648e-38
-2.7214224 0.5616672 -0.084167421 1.1576337e-38
-2.723244 0.57763267 -0.074937537 1.1668171e-38
-2.7232766 0.56272048 -0.07197354 1.1576335e-38
-2.7259336 0.59146053 -0.059513103 1.1943673e-38
-2.7256129 0.57720363 -0.059030008 1.1576334e-38
-2.7283344 0.60729796 -0.046387572 1.2496128e-38
-2.7281294 0.59212869 -0.04496707 1.1760362e-38
-2.7313263 0.62203556 -0.029111309 1.1944395e-38
-2.7304444 0.60820174 -0.032455035 1.2128423e-38
-2.733927 0.64819032 -0.016550027 1.231246e-38
-2.7333302 0.63455802 -0.018029882 1.2220263e-38
-2.7355189 0.63809162 -0.0040544495 1.1944038e-38
-2.7375822 0.65636504 0.0063653989 1.1944396e-38
-2.7377594 0.64199048 0.010197356 1.1944036e-38
-2.7401886 0.67077106 0.02112852 1.2219903e-38
-2.7400851 0.65464669 0.023406124 1.2219903e-38
-2.7426989 0.677706 0.036622666 1.2127347e-38
-2.7422154 0.66968691 0.034869187 1.2035151e-38
-2.7477467 0.73979193 0.058917258 1.1759636e-38
-2.7468743 0.72622782 0.055584896 1.1206817e-38
-2.7466466 0.71336913 0.056431971 1.2586873e-38
-2.7460451 0.70010155 0.054856814 1.2308127e-38
-2.7449937 0.68395507 0.050804932 1.2675113e-38
-2.7501645 0.79287517 0.065295614 7.7141817e-39
-2.7502933 0.78040606 0.068451211 8.1733592e-39
-2.7501254 0.76988292 0.069268331 9.6427271e-39
-2.7494478 0.75425285 0.067619883 1.0838033e-38
-2.7818882 0.99149799 0.24068311 1.0499131e-38
-2.7810566 0.96536928 0.23993999 1.1694435e-38
-2.7833302 1.0182947 0.24538451 1.0221823e-38
-2.7830913 1.0054235 0.24615715 1.0683878e-38
-2.7811062 0.94019777 0.24490575 1.2337643e-38
-2.7826638 0.9294135 0.25729832 1.3170289e-38
-2.7820601 0.91589803 0.25575554 1.3261035e-38
-2.7815747 0.90389651 0.25472185 1.3813124e-38
-2.7840745 0.91826278 0.2687771 1.3264278e-38
-2.7911208 1.052038 0.29122287 8.3890835e-39
-2.7905729 1.0387868 0.29000226 1.6224267e-38
-2.7955017 1.0190091 0.32657769 1.1050889e-38
-2.8097782 1.0976491 0.40748501 8.6530559e-39
-2.8116457 1.1037811 0.41883263 8.1034988e-39
-2.8144705 1.1134461 0.43592677 9.0272362e-39
-2.8138185 1.1017838 0.43371779 8.2882362e-39
-2.8131649 1.0897785 0.43156299 6.8167187e-39
-2.6208792 -0.11141682 -0.63200402 1.8367099e-39
-2.6198199 -0.1411671 -0.63360494 2.2040519e-39
-2.6197491 -0.15281118 -0.63193172 2.1122164e-39
-2.6247551 -0.08261957 -0.6114096 7.3471998e-39
-2.621726 -0.13656768 -0.62171644 3.5823018e-39
-2.627028 -0.055436436 -0.60123128 8.0833215e-39
-2.6262028 -0.068426989 -0.60435307 5.4182957e-39
-2.6256242 -0.088728845 -0.60447901 5.5101298e-39
-2.6281927 -0.063932911 -0.59188467 9.8271156e-39
-2.6279171 -0.0786658 -0.59101135 9.5523307e-39
-2.6307287 -0.05003649 -0.57749897 1.0377771e-38
-2.6332533 -0.035165071 -0.56336838 1.0104061e-38
-2.6354814 -0.017759079 -0.55168736 1.0563958e-38
-2.635556 -0.026717985 -0.54953963 9.7352801e-39
-2.6373937 -0.015281497 -0.53936672 1.0655076e-38
-2.6375146 -0.024617869 -0.53684074 9.7349227e-39
-2.6397214 -0.015451806 -0.52378213 1.074763e-38
-2.6424532 0.014598774 -0.5110625 1.120681e-38
-2.6422381 -0.0006026933 -0.50970024 1.102242e-38
-2.6420453 -0.016083768 -0.5081383 1.1023858e-38
-2.6448691 0.03033193 -0.49781752 1.1208245e-38
-2.6445179 0.015413131 -0.49741766 1.1390483e-38
-2.6444294 -0.0001294408 -0.49514624 1.1023861e-38
-2.64677 0.018002979 -0.48284575 1.1390124e-38
-2.6461253 0.0043476596 -0.48464048 1.1206812e-38
-2.6539214 0.15180421 -0.45970497 1.3225765e-38
-2.6498296 0.060903918 -0.47030503 1.1574872e-38
-2.6494701 0.047842488 -0.47030109 1.1483398e-38
-2.6481555 0.031241192 -0.47602847 1.1391201e-38
-2.6564069 0.18176116 -0.44861436 1.3961537e-38
-2.656256 0.16506121 -0.44654593 1.3961173e-38
-2.6520286 0.061153982 -0.45565724 1.1666351e-38
-2.6577494 0.18044138 -0.43940079 1.4144844e-38
-2.6544437 0.060362604 -0.43937519 1.194222e-38
-2.6616025 0.19861503 -0.41700312 1.4695857e-38
-2.6566398 0.078533545 -0.42804825 1.2309563e-38
-2.656435 0.06229078 -0.42642581 1.2217728e-38
-2.6629624 0.19419137 -0.40710032 1.4603304e-38
-2.6587873 0.082434654 -0.41441754 1.2585071e-38
-2.6608865 0.094331019 -0.40258148 1.3044609e-38
-2.6636429 0.11187278 -0.38739613 1.2770539e-38
-2.6629708 0.098107673 -0.3893525 1.2862009e-38
-2.6656477 0.12508944 -0.37643519 1.2862734e-38
-2.6681745 0.14332189 -0.36290786 1.3047127e-38
-2.6678615 0.13002878 -0.36255112 1.2862737e-38
-2.6836774 0.29203072 -0.28670821 7.6230721e-39
-2.6906188 0.32892966 -0.24712618 9.2786347e-39
-2.6937802 0.36022136 -0.23176488 9.9214874e-39
-2.693352 0.34654203 -0.23210713 9.9211259e-39
-2.6926568 0.33281192 -0.23422405 9.3701157e-39
-2.6974478 0.40060636 -0.21469715 1.0840563e-38
-2.6969504 0.38807675 -0.21571298 1.0472861e-38
-2.696306 0.37465709 -0.2175473 1.0472502e-38
-2.700037 0.43043321 -0.20288785 1.1483774e-38
-2.6997414 0.41514665 -0.20204821 1.0840205e-38
-2.699501 0.40064394 -0.20098563 1.0564339e-38
-2.7023401 0.4469521 -0.19054231 1.2127703e-38
-2.7021713 0.43118668 -0.18876731 1.0840202e-38
-2.7054234 0.47480246 -0.17507094 1.1576693e-38
-2.7055626 0.46100223 -0.1715983 1.1116072e-38
-2.704716 0.44595185 -0.17448455 1.1116071e-38
-2.7074606 0.47311211 -0.16114828 1.1208629e-38
-2.7074425 0.4597756 -0.15881313 1.1116072e-38
-2.7104888 0.49168336 -0.1443332 1.1208269e-38
-2.7097244 0.47660565 -0.14666486 1.1208269e-38
-2.7128177 0.50461346 -0.1311563 1.1300463e-38
-2.7118824 0.47720811 -0.13235734 1.1300104e-38
-2.7151091 0.52089864 -0.11884284 1.139266e-38
-2.7150028 0.50479865 -0.1165888 1.1208628e-38
-2.7171955 0.5231815 -0.10532346 1.1392301e-38
-2.7190781 0.52493376 -0.093067795 1.1300467e-38
-2.7215233 0.54079044 -0.079649344 1.1300466e-38
-2.7214189 0.52426487 -0.077304393 1.1300106e-38
-2.7236826 0.54351866 -0.065724216 1.1300466e-38
-2.7260368 0.55742282 -0.052554913 1.1484137e-38
-2.728641 0.57197642 -0.037833802 1.1484137e-38
-2.7281597 0.55823189 -0.038520563 1.1300462e-38
-2.7310915 0.58698791 -0.024227258 1.1484136e-38
-2.730617 0.57367557 -0.024944458 1.13923e-38
-2.7336268 0.61879706 -0.013143284 1.2036229e-38
-2.7330956 0.60573578 -0.014289649 1.1668528e-38
-2.7330635 0.5925864 -0.012082389 1.1667809e-38
-2.7355478 0.62121618 -0.0007557334 1.2035872e-38
-2.7352386 0.60479975 0.00020220492 1.1667811e-38
-2.7380681 0.62242556 0.015861744 1.1667807e-38
-2.7373304 0.60785931 0.013615443 1.1575615e-38
-2.7403111 0.63609922 0.028331133 1.2035151e-38
-2.7401214 0.62095582 0.02985267 1.1759285e-38
-2.7426629 0.65135324 0.041235473 1.2218825e-38
-2.7487702 0.7339415 0.06683372 1.0561082e-38
-2.748121 0.72062176 0.064948022 1.1295766e-38
-2.7476449 0.70749116 0.064184539 1.1938617e-38
-2.7470598 0.6942417 0.062716275 1.3040642e-38
-2.746556 0.68108088 0.061773501 1.3958998e-38
-2.7452474 0.66850889 0.05534327 1.4053e-38
-2.7448125 0.65291762 0.055310305 1.4238113e-38
-2.7504523 0.77361059 0.070767872 8.99988e-39
-2.7494116 0.74725252 0.068665914 9.7345626e-39
-2.780834 0.95769012 0.23986532 1.151076e-38
-2.7813923 0.9461568 0.24572124 1.2063219e-38
-2.7819397 0.93368936 0.25167313 1.2706064e-38
-2.7820554 0.92166215 0.25466016 1.3722016e-38
-2.7819395 0.90892565 0.2562311 1.3261035e-38
-2.7825756 0.89587933 0.26288471 1.4362691e-38
-2.7845359 0.90359336 0.27456123 1.3813845e-38
-2.7865169 0.90627474 0.2873053 1.3816004e-38
-2.7885501 0.90414459 0.30128258 1.3724532e-38
-2.7938008 0.9345082 0.33077332 8.9314406e-39
-2.7958136 0.94659972 0.34199387 6.7187595e-39
-2.811528 1.1023512 0.41830978 2.9394533e-39
-2.8108907 1.0919064 0.41597447 5.1557652e-39
-2.8140309 1.1313099 0.42969981 9.3942306e-39
-2.8138869 1.118481 0.4311007 5.8911582e-39
-2.8129585 1.1074271 0.42693329 7.3662953e-39
-2.8153591 1.1346229 0.43796396 3.4904691e-39
-2.8153512 1.115705 0.44139439 9.0272362e-39
-2.8169448 1.1093094 0.45322055 6.2563324e-39
-2.8190117 1.1133574 0.46628669 5.6995517e-39
-2.8187103 1.0987496 0.46696177 6.0665391e-39
-2.8206091 1.1062193 0.4782719 6.158718e-39
-2.6215751 -0.10567751 -0.62841326 2.9401708e-39
-2.6201222 -0.15643165 -0.62877196 1.4693679e-39
-2.6246109 -0.088279217 -0.61133265 5.602324e-39
-2.624558 -0.096160807 -0.61023337 3.6734198e-39
-2.6223822 -0.1396108 -0.61677158 4.4084639e-39
-2.6265407 -0.093447469 -0.59748703 6.2462515e-39
-2.6288629 -0.085235856 -0.58348423 1.019374e-38
-2.6339209 -0.048684314 -0.55641735 1.056252e-38
-2.6359334 -0.037666783 -0.54500073 1.0473917e-38
-2.6358073 -0.050403405 -0.54349887 1.056216e-38
-2.6382415 -0.037213117 -0.52966094 1.0012226e-38
-2.6379733 -0.05284046 -0.52857506 1.0838747e-38
-2.640331 -0.034084931 -0.51627725 1.0104777e-38
-2.6423051 -0.026220929 -0.50453407 9.5523293e-39
-2.6444995 -0.017441647 -0.49149001 1.1114976e-38
-2.6467144 -0.012821528 -0.47754279 1.1114256e-38
-2.6500294 0.026637061 -0.46265769 1.1482319e-38
-2.6498106 0.014336566 -0.46185541 1.1481603e-38
-2.648968 -0.00033324567 -0.46478456 1.1389767e-38
-2.6585171 0.14924625 -0.42852589 1.4052285e-38
-2.6548059 0.044855267 -0.43409947 1.194186e-38
-2.6542668 0.028070236 -0.43460888 1.185038e-38
-2.6611469 0.16108505 -0.41313466 1.4327799e-38
-2.6560943 0.04387714 -0.42531076 1.2033337e-38
-2.6637406 0.17807955 -0.39893648 1.4786985e-38
-2.6590841 0.062202133 -0.40870938 1.2493595e-38
-2.6584332 0.048342988 -0.41050589 1.2493596e-38
-2.665993 0.19562475 -0.38711646 1.4972082e-38
-2.6658225 0.17937507 -0.38526332 1.4786985e-38
-2.6614563 0.076793313 -0.3955462 1.2860938e-38
-2.660713 0.047329064 -0.39508718 1.2861298e-38
-2.6684158 0.19931118 -0.37160778 1.5063918e-38
-2.6636024 0.089947365 -0.38362956 1.2769458e-38
-2.6636434 0.076241098 -0.3808305 1.3411236e-38
-2.6697261 0.19505428 -0.36206651 1.4879531e-38
-2.6660411 0.10886202 -0.37081715 1.322972e-38
-2.6656644 0.093111984 -0.37043214 1.2861655e-38
-2.6680894 0.11039315 -0.35741374 1.286202e-38
-2.6678729 0.0958298 -0.35617861 1.3044968e-38
-2.6728346 0.12569986 -0.32852581 1.3229725e-38
-2.6841459 0.2781904 -0.28103134 8.4513992e-39
-2.6863582 0.28052384 -0.26667878 1.0473228e-38
-2.6881588 0.28241244 -0.25499594 1.1023515e-38
-2.6880057 0.26665393 -0.25311705 1.1575617e-38
-2.6907661 0.31351104 -0.24330157 8.6336268e-39
-2.6907434 0.29760107 -0.24052435 9.3697486e-39
-2.690475 0.28201652 -0.23944817 8.5435948e-39
-2.6930666 0.31225842 -0.22770092 1.001332e-38
-2.6966679 0.35439667 -0.21139939 1.065617e-38
-2.6956024 0.34096864 -0.21604532 1.1024235e-38
-2.6948659 0.32755339 -0.21849619 9.8296491e-39
-2.699651 0.38254553 -0.19665113 1.0563979e-38
-2.6988201 0.36907077 -0.19971986 1.0563618e-38
-2.6989892 0.35392103 -0.19579925 1.1850396e-38
-2.7025962 0.41165608 -0.18233316 1.1023878e-38
-2.7018166 0.39648932 -0.18474761 1.0655457e-38
-2.7019067 0.38292629 -0.18164954 1.0930958e-38
-2.7008657 0.35664889 -0.18376511 1.0379945e-38
-2.7051206 0.42608741 -0.16812323 1.0931681e-38
-2.707355 0.44090727 -0.15592286 1.0839845e-38
-2.7098117 0.45907187 -0.14285272 1.1299387e-38
-2.709569 0.4443638 -0.14176616 1.1023518e-38
-2.7126997 0.48828095 -0.12893601 1.2770194e-38
-2.7121103 0.45974451 -0.12761828 1.1391581e-38
-2.7118716 0.44376081 -0.12626991 1.2310298e-38
-2.7148511 0.48909315 -0.11470988 1.2126985e-38
-2.7144637 0.47328728 -0.1143887 1.1115715e-38
-2.7142613 0.45967785 -0.11323535 1.0840207e-38
-2.7171338 0.50575596 -0.10252876 1.1116792e-38
-2.7168112 0.49085376 -0.10193729 1.1116072e-38
-2.7168341 0.47431797 -0.098740123 1.1115715e-38
-2.7192879 0.50399846 -0.087811813 1.1116075e-38
-2.7190742 0.49127406 -0.086894467 1.1115716e-38
-2.7210793 0.50986618 -0.076920636 1.1300106e-38
-2.7210617 0.50002331 -0.075226143 1.1116073e-38
-2.7235138 0.52547139 -0.063529454 1.1300466e-38
-2.7233908 0.50969279 -0.061443873 1.1208269e-38
-2.7260609 0.54029161 -0.049240265 1.1393019e-38
-2.7257652 0.52632844 -0.048645653 1.1300465e-38
-2.7283933 0.53993267 -0.033589005 1.1208626e-38
-2.7307789 0.55591518 -0.020592472 1.1392299e-38
-2.7332046 0.57133424 -0.0072250781 1.1850759e-38
-2.7329686 0.55633539 -0.0060401652 1.1391939e-38
-2.7353778 0.58472568 0.0048276149 1.1758925e-38
-2.7355888 0.57064784 0.0088300752 1.1391584e-38
-2.7377083 0.58848417 0.019708693 1.1483059e-38
-2.7401323 0.60410774 0.033026405 1.1575254e-38
-2.7429245 0.63399452 0.046180122 1.1299025e-38
-2.7428164 0.62085378 0.04787815 1.3413401e-38
-2.7423041 0.60811353 0.046802018 1.2492891e-38
-2.7482343 0.69954437 0.069587648 1.5612397e-38
-2.7476251 0.68663061 0.067894176 1.699029e-38
-2.7464302 0.66136366 0.064563729 1.8826281e-38
-2.7453649 0.64960951 0.059609879 1.4700535e-38
-2.7442322 0.63374031 0.054964807 1.5251906e-38
-2.7503777 0.7413395 0.076210625 1.0469247e-38
-2.749753 0.72804654 0.074484915 1.1387602e-38
-2.749234 0.7148692 0.073443964 1.3224672e-38
-2.7819133 0.95306087 0.24793053 1.1786274e-38
-2.7823682 0.94025391 0.25332588 1.243092e-38
-2.781945 0.92718142 0.25290596 1.2430557e-38
-2.7823472 0.91507739 0.25782424 1.3074122e-38
-2.7821891 0.90222907 0.25913307 1.3628372e-38
-2.783339 0.89282757 0.26854914 1.4453083e-38
-2.7855482 0.90132934 0.28174293 1.3810964e-38
-2.7873516 0.89946586 0.29413575 1.4181545e-38
-2.7890701 0.89641398 0.30618057 1.3722734e-38
-2.7912557 0.90333766 0.31950864 1.317065e-38
-2.7972453 0.94391549 0.35205615 8.74922e-39
-2.7959466 0.9307307 0.34580693 9.8541158e-39
-2.799001 0.94486052 0.36361241 1.1330695e-38
-2.7980082 0.9363547 0.35854512 1.4744088e-38
-2.810648 1.1098909 0.41104242 6.161983e-39
-2.8128631 1.1198884 0.42400059 6.161983e-39
-2.8122532 1.1140641 0.42099872 6.161983e-39
-2.8127978 1.099632 0.42729357 5.1557652e-39
-2.8157053 1.1393472 0.43940738 8.7484997e-39
-2.8151498 1.1235032 0.43861395 5.8911582e-39
-2.8142571 1.1005191 0.43688288 1.0227978e-38
-2.816483 1.1158477 0.44893086 9.9495624e-39
-2.818387 1.1172029 0.46140364 5.6102455e-39
-2.816668 1.0732701 0.45800868 1.3733585e-38
-2.8189662 1.1063786 0.46726701 5.3300489e-39
-2.8196185 1.0944824 0.47381657 5.9743365e-39
-2.8187141 1.0797396 0.47048914 3.9528822e-39
-2.8217895 1.1082556 0.48578593 5.9743295e-39
-2.8200552 1.0823503 0.47896871 5.8824968e-39
-2.8231297 1.1011833 0.49604231 6.3427547e-39
-2.6195557 -0.15623866 -0.6325931 2.2962475e-39
-2.6182427 -0.16673075 -0.63943499 2.2962475e-39
-2.6156077 -0.25779307 -0.64027274 2.204412e-39
-2.6221755 -0.13549681 -0.61890978 5.3278993e-39
-2.6216135 -0.15033126 -0.61993194 4.8712372e-39
-2.6246195 -0.12308017 -0.60486692 5.6026841e-39
-2.6239886 -0.13721429 -0.60647875 5.419732e-39
-2.6236174 -0.14801449 -0.60696876 7.2564447e-39
-2.6268554 -0.10861447 -0.59259039 9.5523307e-39
-2.6290164 -0.10431737 -0.57894242 1.0285576e-38
-2.6315036 -0.08927808 -0.56509477 1.0377411e-38
-2.6335769 -0.086978689 -0.55166572 1.0469248e-38
-2.6362798 -0.070185378 -0.53669894 1.1020984e-38
-2.6358864 -0.087623514 -0.53611457 1.0561802e-38
-2.6376412 -0.067287959 -0.52813548 1.0837314e-38
-2.6377606 -0.081631891 -0.52469486 1.1020624e-38
-2.6400411 -0.051443208 -0.51501834 1.1114254e-38
-2.6399536 -0.06803754 -0.51254565 1.0929149e-38
-2.6430306 -0.039192747 -0.49729845 1.065651e-38
-2.6416049 -0.052911405 -0.50429857 1.0195178e-38
-2.645014 -0.033090129 -0.48517147 1.0933458e-38
-2.6472313 -0.024365107 -0.47196019 1.0288095e-38
-2.65381 0.095807329 -0.45013717 1.2308487e-38
-2.6490865 -0.019967236 -0.46037647 1.0839109e-38
-2.6520605 0.0086491853 -0.44577423 1.1665274e-38
-2.651473 -0.0053802957 -0.44711766 1.1848587e-38
-2.6509995 -0.018041924 -0.44794816 1.1299365e-38
-2.6591041 0.12972316 -0.42100835 1.3868257e-38
-2.6544447 0.011201014 -0.43031579 1.1757829e-38
-2.6541727 -0.0047951331 -0.42918724 1.1941501e-38
-2.6609423 0.13287807 -0.40930793 1.3868257e-38
-2.6563776 0.029167077 -0.42070848 1.2217368e-38
-2.6564276 0.018846255 -0.41847378 1.194186e-38
-2.6634901 0.16306087 -0.3978433 1.4603307e-38
-2.6631064 0.1460156 -0.39726651 1.4236315e-38
-2.6583276 0.0194492 -0.40589035 1.2493234e-38
-2.6652925 0.14953466 -0.38330919 1.4512546e-38
-2.6614232 0.059145514 -0.3925167 1.2677626e-38
-2.6608357 0.031728495 -0.39139399 1.2860218e-38
-2.6685936 0.18996875 -0.36869666 1.4787338e-38
-2.6681437 0.17668253 -0.36925754 1.4786981e-38
-2.6674037 0.15170379 -0.36960337 1.4421071e-38
-2.6631196 0.046179879 -0.37879518 1.2768742e-38
-2.6623971 0.030565156 -0.38074663 1.304389e-38
-2.6706979 0.19333915 -0.35525823 1.5063202e-38
-2.6699395 0.16768298 -0.35560179 1.4878813e-38
-2.6657803 0.077154189 -0.3667199 1.3137167e-38
-2.6657424 0.063351929 -0.36443231 1.2952418e-38
-2.6654382 0.046015985 -0.36327425 1.2861294e-38
-2.6720572 0.1826513 -0.34420958 1.4971006e-38
-2.6678493 0.078542426 -0.3531529 1.3595267e-38
-2.6748204 0.19896701 -0.32875288 1.5156113e-38
-2.68629 0.26280892 -0.26387337 1.0932768e-38
-2.6859314 0.23178267 -0.2605558 1.5890816e-38
-2.6937749 0.30199039 -0.22107789 9.5544999e-39
-2.6934268 0.29226166 -0.22161126 9.6452592e-39
-2.6921616 0.27979708 -0.22776839 1.1297946e-38
-2.696707 0.3372587 -0.20798118 1.0932044e-38
-2.6967466 0.32304788 -0.2050992 1.0749083e-38
-2.695931 0.3090919 -0.20797789 9.3697486e-39
-2.6987188 0.33904439 -0.19486886 9.9218475e-39
-2.6987081 0.32551798 -0.19244884 1.0289187e-38
-2.7032986 0.38024542 -0.17185566 1.0472499e-38
-2.7016177 0.36817673 -0.18086435 1.0471783e-38
-2.7006814 0.33839607 -0.1816342 1.028919e-38
-2.7004893 0.32632193 -0.18069507 9.5537825e-39
-2.7055478 0.40734503 -0.16181812 1.0655454e-38
-2.7046564 0.39317346 -0.16516314 1.0746926e-38
-2.7047803 0.37871119 -0.16167174 1.0563617e-38
-2.703723 0.3675487 -0.16668107 1.0930959e-38
-2.7034035 0.35570559 -0.16663484 1.0379945e-38
-2.7079284 0.42306021 -0.14880535 1.0655815e-38
-2.707613 0.40830594 -0.14819618 1.0563621e-38
-2.7099302 0.42563787 -0.13590358 1.0839486e-38
-2.7119656 0.42853391 -0.12283844 1.0839842e-38
-2.7143006 0.44345355 -0.10998232 1.1023155e-38
-2.7169974 0.4579168 -0.094628453 1.0931322e-38
-2.7190511 0.47467273 -0.083990835 1.2770197e-38
-2.7188523 0.46190384 -0.082970582 1.0931681e-38
-2.7212994 0.49157527 -0.072083764 1.0932044e-38
-2.7210178 0.47637692 -0.071164787 1.2126265e-38
-2.7235374 0.49091062 -0.057006173 1.1023518e-38
-2.7233016 0.47666517 -0.055959638 1.1298663e-38
-2.7261589 0.50611174 -0.04229074 1.1116072e-38
-2.7259495 0.49078506 -0.040869281 1.1206827e-38
-2.7285841 0.52162153 -0.028943667 1.1116071e-38
-2.7284884 0.50566071 -0.026643414 1.1299743e-38
-2.7310667 0.53702968 -0.015193836 1.1208266e-38
-2.7328556 0.53856844 -0.003522095 1.1575252e-38
-2.7354486 0.55308706 0.011127674 1.1575251e-38
-2.7350678 0.54043084 0.010915427 1.1116072e-38
-2.7379978 0.5699681 0.025051381 1.1666728e-38
-2.7400796 0.5877248 0.035692729 1.1575254e-38
-2.7401426 0.57272965 0.038873617 1.1941151e-38
-2.7443089 0.6142447 0.059067447 1.8191368e-38
-2.7437654 0.60104048 0.05786711 1.9389191e-38
-2.7424879 0.58761889 0.051803626 1.8009498e-38
-2.7421083 0.57819331 0.051002804 1.46973e-38
-2.7478137 0.6937362 0.067845084 1.6715145e-38
-2.7472382 0.68049681 0.066437379 1.7725334e-38
-2.747704 0.66926724 0.071619093 1.8367822e-38
-2.7474043 0.65212423 0.072772682 1.8091958e-38
-2.7463701 0.64133447 0.067851 1.9289781e-38
-2.7455063 0.62816375 0.064503878 1.8282841e-38
-2.7818277 0.9207322 0.25331026 1.3072684e-38
-2.7816432 0.90563416 0.25485933 1.4264732e-38
-2.7823586 0.89579576 0.26144916 1.5089796e-38
-2.7844863 0.89400417 0.27599674 1.490937e-38
-2.7862613 0.89141375 0.28833345 1.5465431e-38
-2.7876763 0.88865721 0.29829627 1.4822229e-38
-2.7896483 0.89204729 0.31084689 1.3997158e-38
-2.7924182 0.90490973 0.32698688 1.1600439e-38
-2.7944696 0.89886564 0.34180412 1.4647235e-38
-2.813885 1.1189094 0.43100885 4.5975355e-39
-2.8137343 1.1074219 0.43211791 4.047617e-39
-2.8169994 1.1470814 0.44663024 6.9024277e-39
-2.8165362 1.1345807 0.44583824 1.0132509e-38
-2.8169751 1.1224508 0.45100358 7.4599105e-39
-2.8177171 1.1125968 0.45777637 9.1151186e-39
-2.8187575 1.0984918 0.46732557 5.3358166e-39
-2.8197184 1.0853381 0.47616866 3.6752135e-39
-2.8221729 1.0908644 0.49155021 5.8821381e-39
-2.8242011 1.0937955 0.50456208 6.6186199e-39
-2.8265598 1.1061182 0.51805115 5.6073477e-39
-2.6174622 -0.20301266 -0.63796902 1.1938615e-39
-2.6154423 -0.24155889 -0.64436638 3.4908265e-39
-2.6190498 -0.19817093 -0.62825137 3.3067981e-39
-2.6161137 -0.25168759 -0.63801521 1.2856969e-39
-2.6240866 -0.16661 -0.600411 8.6346946e-39
-2.6266921 -0.14100231 -0.58771878 1.0469247e-38
-2.6262543 -0.15371934 -0.58829927 1.0469248e-38
-2.6286714 -0.13766301 -0.57510597 1.0469607e-38
-2.6312747 -0.13738212 -0.5577659 1.065292e-38
-2.6427684 -0.071972743 -0.49301413 1.1113178e-38
-2.6561422 0.081863821 -0.43198702 1.313393e-38
-2.6518843 -0.029501846 -0.43992692 1.1207893e-38
-2.658627 0.094871953 -0.41777909 1.2676549e-38
-2.654072 -0.020895999 -0.42689526 1.157487e-38
-2.6604872 0.098628402 -0.40604213 1.3867896e-38
-2.6563041 -0.020604311 -0.4120346 1.1573433e-38
-2.6633797 0.12635481 -0.39182079 1.4143408e-38
-2.6632864 0.11419575 -0.39020622 1.4143408e-38
-2.6629062 0.10233127 -0.39056107 1.3686022e-38
-2.6588347 0.0090058343 -0.40057766 1.2768023e-38
-2.6657414 0.13021661 -0.37675291 1.4419634e-38
-2.6651914 0.11635868 -0.37787542 1.3687463e-38
-2.6612051 0.012340539 -0.38535544 1.2859141e-38
-2.6605406 -0.00035352068 -0.38745779 1.2768381e-38
-2.667737 0.13287441 -0.36390716 1.42374e-38
-2.6631582 0.014639609 -0.37272879 1.3042815e-38
-2.6710958 0.17424761 -0.34908643 1.4971726e-38
-2.6699612 0.14477427 -0.35123861 1.4327443e-38
-2.6697199 0.13532025 -0.3511093 1.3961898e-38
-2.6731806 0.16379923 -0.33323231 1.5063558e-38
-2.6754084 0.19078483 -0.32331648 1.5155753e-38
-2.6744337 0.17777961 -0.32743275 1.5155753e-38
-2.6745327 0.16166995 -0.3238048 1.4878812e-38
-2.6773674 0.1937461 -0.31077069 1.5063916e-38
-2.6786427 0.18201506 -0.30009019 1.4971008e-38
-2.691678 0.24707869 -0.22497529 1.2125906e-38
-2.6911473 0.23388833 -0.2260927 1.3593825e-38
-2.694077 0.27649787 -0.2143646 9.5530678e-39
-2.6932025 0.26316878 -0.2177528 9.7370961e-39
-2.6963108 0.28951725 -0.20183782 9.5534237e-39
-2.6985097 0.30747542 -0.19045117 9.8292876e-39
-2.7015755 0.31900689 -0.17209002 9.4612253e-39
-2.7032888 0.33880949 -0.16428955 9.9211287e-39
-2.7034039 0.32812724 -0.16155408 9.6456166e-39
-2.7074072 0.39297423 -0.14674492 1.056362e-38
-2.7074077 0.37820044 -0.1440223 1.0563257e-38
-2.7064979 0.36578396 -0.14781618 1.1758204e-38
-2.7062626 0.35014349 -0.14650875 1.0196274e-38
-2.7055628 0.33730772 -0.14881894 9.829289e-39
-2.7101731 0.40503502 -0.13048655 1.0655454e-38
-2.7097692 0.39273629 -0.13091999 1.0563617e-38
-2.708523 0.36597359 -0.13432054 1.1390141e-38
-2.7083638 0.35182354 -0.13277842 1.0471423e-38
-2.7118454 0.41042081 -0.12030512 1.0655813e-38
-2.7117758 0.39611462 -0.11813682 1.0563616e-38
-2.7148962 0.42454156 -0.10252236 1.0839126e-38
-2.7142215 0.40988234 -0.10433225 1.0563618e-38
-2.7167859 0.43710384 -0.092209905 1.0930962e-38
-2.7191243 0.44100252 -0.07730332 1.074765e-38
-2.7214098 0.45477211 -0.064568214 1.0931676e-38
-2.7212214 0.44183329 -0.063443542 1.0747647e-38
-2.7233405 0.45827588 -0.052312244 1.0839842e-38
-2.7259865 0.47303867 -0.037352782 1.0839845e-38
-2.7281032 0.49158043 -0.026623826 1.1115712e-38
-2.7281651 0.48142713 -0.024339292 1.0931682e-38
-2.7316051 0.51803505 -0.0080980584 1.2309939e-38
-2.7309704 0.50457501 -0.0098592676 1.2126267e-38
-2.7304595 0.49100721 -0.010775188 1.0839488e-38
-2.7335455 0.52012157 0.0044835778 1.120719e-38
-2.7354164 0.52197385 0.016641723 1.1023515e-38
-2.738071 0.55239648 0.028776808 1.1391222e-38
-2.7378232 0.53867644 0.029648827 1.1299386e-38
-2.7403197 0.55096394 0.044065345 1.1389418e-38
-2.7401822 0.53672808 0.045768637 1.1205744e-38
-2.7461038 0.63445741 0.067336939 2.1489509e-38
-2.7456403 0.62134063 0.066655524 2.1307646e-38
-2.744976 0.60800445 0.064673692 2.2686977e-38
-2.7443707 0.59473282 0.063073739 2.0943901e-38
-2.7427917 0.56782883 0.057477321 1.5618166e-38
-2.742228 0.55442667 0.056178145 1.5253343e-38
-2.748214 0.6745947 0.074046001 1.9928667e-38
-2.7475367 0.66124403 0.071978524 2.1214363e-38
-2.7474678 0.64855874 0.073853157 1.8091958e-38
-2.7444515 0.5822112 0.065918796 1.9199388e-38
-2.7840517 0.90297115 0.27144185 1.4447309e-38
-2.7831547 0.89249265 0.26737803 1.7476779e-38
-2.7856882 0.89452118 0.28393105 1.5002289e-38
-2.7868516 0.88078141 0.29423583 1.6101797e-38
-2.7891195 0.88125199 0.30930105 1.4080338e-38
-2.7911294 0.89177889 0.32079193 1.1504268e-38
-2.7933941 0.89935887 0.3345297 1.2338349e-38
-2.7951922 0.89971077 0.34647858 1.3171009e-38
-2.7953684 0.89009386 0.34942624 1.5019993e-38
-2.7960114 0.87563634 0.35638508 1.6674446e-38
-2.7960479 0.86435544 0.35870546 1.7411293e-38
-2.8165481 1.11672 0.4492054 4.3274507e-39
-2.8164146 1.1064264 0.4502106 1.1612733e-38
-2.8192313 1.1301717 0.46465695 7.2722836e-39
-2.8199198 1.0953293 0.47567365 4.4127729e-39
-2.8209753 1.0856636 0.48450685 4.3173501e-39
-2.8236644 1.0950879 0.5007357 4.9609119e-39
-2.8252716 1.0930142 0.51185834 4.6861228e-39
-2.8275483 1.1002373 0.52573937 5.1481758e-39
-2.829268 1.0992395 0.53741306 9.6704714e-39
-2.8311009 1.0944177 0.55054826 5.3433865e-39
-2.6150737 -0.23486622 -0.6480611 3.2146025e-39
-2.6171339 -0.23424971 -0.63441032 1.1938615e-39
-2.61624 -0.249311 -0.63760877 2.2051309e-39
-2.6193111 -0.2176984 -0.62291116 4.5917748e-39
-2.6169686 -0.25772235 -0.63119191 1.102026e-39
-2.6220355 -0.1865079 -0.61045164 8.2651947e-39
-2.6220312 -0.20200598 -0.60762423 7.2557217e-39
-2.6239533 -0.18406995 -0.59808558 9.3686611e-39
-2.6238966 -0.19915769 -0.59568632 9.9193126e-39
-2.6265185 -0.16937448 -0.58365375 1.0469247e-38
-2.6263163 -0.18555805 -0.58202434 1.0469247e-38
-2.6259172 -0.19871177 -0.58226848 1.0285936e-38
-2.6284623 -0.16984899 -0.57057726 1.0652919e-38
-2.6286075 -0.18488944 -0.56683749 1.0561442e-38
-2.6312723 -0.15495743 -0.55454552 1.065292e-38
-2.6308694 -0.16808428 -0.55481923 1.083659e-38
-2.6679723 0.11357854 -0.35878322 1.4235959e-38
-2.6629295 -0.0025953299 -0.37108275 1.2676904e-38
-2.6701653 0.12702389 -0.34660524 1.4419273e-38
-2.6692936 0.10183306 -0.34779161 1.3869695e-38
-2.6723852 0.13073979 -0.33245733 1.4418917e-38
-2.6719291 0.11700583 -0.33297706 1.377822e-38
-2.6756461 0.17415112 -0.31866556 1.5155753e-38
-2.6778483 0.17453791 -0.30402187 1.5063202e-38
-2.6776359 0.16291553 -0.30330116 1.5154681e-38
-2.6767292 0.14573875 -0.30619684 1.4877736e-38
-2.6760755 0.13410084 -0.30842209 1.4327799e-38
-2.6799405 0.17732146 -0.29055557 1.5062851e-38
-2.6791184 0.1588472 -0.29264706 1.5154323e-38
-2.681556 0.17319742 -0.27900124 1.487918e-38
-2.681026 0.15965004 -0.28004816 1.4786982e-38
-2.6842062 0.19379988 -0.26508731 1.533908e-38
-2.6844606 0.18177609 -0.26117378 1.5247241e-38
-2.6832125 0.16785255 -0.26694924 1.5247603e-38
-2.6866164 0.19801292 -0.24976104 1.5522389e-38
-2.6879876 0.19370882 -0.23980568 1.5430554e-38
-2.6915839 0.21478628 -0.21965854 1.3777857e-38
-2.6902883 0.19927271 -0.22545806 1.4052294e-38
-2.6942518 0.25504193 -0.20924555 1.230922e-38
-2.6933973 0.24198933 -0.21255043 1.1942235e-38
-2.6924441 0.22833677 -0.21640646 1.3777859e-38
-2.6963456 0.27272898 -0.19851187 9.1853657e-39
-2.6963608 0.25866097 -0.19582066 1.2217387e-38
-2.6996138 0.29931244 -0.18156999 1.0013677e-38
-2.6989911 0.28530094 -0.18315205 9.7360199e-39
-2.6986227 0.27358899 -0.18345748 1.0563621e-38
-2.7017369 0.30169165 -0.16782406 9.3701087e-39
-2.7036529 0.3195149 -0.15830442 9.3690283e-39
-2.7037537 0.30519113 -0.15499309 9.4623029e-39
-2.7061574 0.31889138 -0.1414551 9.5534209e-39
-2.7102127 0.3747803 -0.12465078 1.1848238e-38
-2.7097764 0.3669492 -0.1261237 1.1941514e-38
-2.7087901 0.33539143 -0.12690298 1.0012601e-38
-2.7081668 0.32312006 -0.12880868 9.4608666e-39
-2.711616 0.37849593 -0.11595964 1.1113551e-38
-2.71122 0.36449009 -0.11602527 1.1297946e-38
-2.711076 0.34892067 -0.11411969 1.0287032e-38
-2.7107689 0.3341091 -0.11344605 9.6452578e-39
-2.7146504 0.3925041 -0.098265521 1.0654732e-38
-2.7137249 0.37960401 -0.10207196 1.0562898e-38
-2.7134421 0.3644259 -0.10116614 1.0378507e-38
-2.7131419 0.35013947 -0.10054117 1.0195193e-38
-2.7170384 0.42261106 -0.087851614 1.0746933e-38
-2.7169344 0.40681362 -0.085637763 1.0562902e-38
-2.7157354 0.37952 -0.088624969 1.0562178e-38
-2.7192314 0.4199048 -0.072702244 1.0563617e-38
-2.7192986 0.40590608 -0.069674075 1.0471063e-38
-2.7212806 0.42409161 -0.059783038 1.0563616e-38
-2.7238398 0.44051319 -0.045705702 1.0563618e-38
-2.7235472 0.42467219 -0.044743959 9.6441844e-39
-2.726229 0.45445561 -0.032310709 1.074765e-38
-2.7260907 0.43951747 -0.030483548 1.0383552e-38
-2.7288935 0.46961403 -0.01729825 1.0839485e-38
-2.7310302 0.47242188 -0.0035392046 1.0930959e-38
-2.7334657 0.50259167 0.007178525 1.1023159e-38
-2.7331917 0.48764482 0.0081001297 1.1022799e-38
-2.7356515 0.50308686 0.021690419 1.1023156e-38
-2.7379899 0.51650298 0.034845993 1.1206831e-38
-2.741065 0.54540986 0.050069928 1.1756392e-38
-2.7402825 0.5195055 0.049609549 1.3693224e-38
-2.747385 0.64149839 0.074600086 2.1581344e-38
-2.7472005 0.62868696 0.075726874 2.2503299e-38
-2.7466023 0.61542267 0.07417158 2.3055744e-38
-2.7461307 0.60229748 0.0734393 2.3053599e-38
-2.7445333 0.56272089 0.070052706 2.2605588e-38
-2.7428851 0.54830861 0.061695199 2.0130345e-38
-2.7426081 0.53663272 0.061994713 1.9859873e-38
-2.7424047 0.52436465 0.062895991 1.8945484e-38
-2.7459142 0.58945078 0.074356832 2.2319631e-38
-2.7452676 0.57613373 0.072489165 2.3154435e-38
-2.7861402 0.88583767 0.28855103 1.7849539e-38
-2.7873638 0.87133628 0.29939589 1.8770782e-38
-2.7896924 0.87734526 0.31384802 1.6012839e-38
-2.7921433 0.89295679 0.32735088 1.2520585e-38
-2.7944586 0.90077889 0.34138098 1.3537974e-38
-2.7952969 0.89565569 0.34792438 1.4370271e-38
-2.7957869 0.88328457 0.35347492 1.4553216e-38
-2.796483 0.87173331 0.36025462 1.5659575e-38
-2.796267 0.85669482 0.3615807 1.7125322e-38
-2.7967782 0.84683675 0.36681274 1.8604762e-38
-2.8224733 1.0894252 0.49382114 4.3173501e-39
-2.8246429 1.0967625 0.50696796 5.3282552e-39
-2.8263369 1.0951611 0.51858008 4.7783199e-39
-2.8286152 1.102373 0.53247505 5.516238e-39
-2.8303089 1.0977945 0.54463392 8.74995e-39
-2.8320477 1.0941925 0.55691665 9.7669788e-39
-2.8312917 1.07373 0.55563164 1.087837e-38
-2.8338625 1.0889803 0.57000142 7.7437196e-39
-2.6149988 -0.26122013 -0.6437093 2.9387373e-39
-2.6173003 -0.2512911 -0.63016206 2.2958874e-39
-2.6165113 -0.26343974 -0.63319349 1.4693679e-39
-2.6190794 -0.26552606 -0.61565131 3.9489263e-39
-2.6216228 -0.23533814 -0.60421717 8.6328968e-39
-2.624099 -0.21939258 -0.59060782 1.0469247e-38
-2.6240513 -0.23503506 -0.58804584 1.0469605e-38
-2.626188 -0.21709839 -0.57707179 1.0377411e-38
-2.6260102 -0.23288277 -0.57535297 1.0377412e-38
-2.6286185 -0.20132557 -0.56373811 1.0652918e-38
-2.6284451 -0.21727936 -0.56195986 1.083659e-38
-2.6308479 -0.20145693 -0.54881722 1.0836591e-38
-2.6703756 0.11221325 -0.34247211 1.4695138e-38
-2.6702166 0.09615647 -0.34057954 1.4235956e-38
-2.6728995 0.11146452 -0.32547286 1.4510751e-38
-2.6721709 0.097463265 -0.32776129 1.3869696e-38
-2.6747847 0.11446257 -0.31342778 1.4601871e-38
-2.6739848 0.098915488 -0.31590998 1.4053009e-38
-2.6786857 0.15588064 -0.29499081 1.4786982e-38
-2.6769826 0.12785897 -0.30120865 1.487774e-38
-2.6767316 0.11677188 -0.30084589 1.4328521e-38
-2.6803203 0.15733659 -0.28433651 1.4878818e-38
-2.6790516 0.1312295 -0.28800645 1.4329238e-38
-2.6817393 0.16234052 -0.27577683 1.4971376e-38
-2.681977 0.14687052 -0.27134016 1.5246165e-38
-2.6845746 0.17509812 -0.2591818 1.5155406e-38
-2.6839116 0.15730023 -0.26033625 1.5246165e-38
-2.6831975 0.15121843 -0.26398671 1.5246165e-38
-2.6830158 0.13436684 -0.26209635 1.4420356e-38
-2.6867723 0.18845892 -0.24695767 1.5430554e-38
-2.686655 0.17274472 -0.24484937 1.5246881e-38
-2.6858716 0.16515338 -0.24868441 1.506285e-38
-2.6855977 0.15125403 -0.24795549 1.5061414e-38
-2.6890388 0.19238825 -0.23253897 1.4511834e-38
-2.6880317 0.16605802 -0.23441841 1.5430193e-38
-2.6922948 0.21862459 -0.21561387 1.3593831e-38
-2.6914713 0.20722905 -0.21901993 1.3501638e-38
-2.6944923 0.23622051 -0.20417182 1.3777865e-38
-2.6942544 0.22121385 -0.20299828 1.359383e-38
-2.6968043 0.24704105 -0.19071721 1.3778229e-38
-2.6986232 0.25590405 -0.18019703 1.2309582e-38
-2.6986749 0.24296479 -0.17746755 1.3685672e-38
-2.7020116 0.28102326 -0.16218239 9.0020506e-39
-2.701263 0.26799265 -0.16478518 1.0471784e-38
-2.7009068 0.25587308 -0.16493279 1.2033712e-38
-2.7053719 0.29855508 -0.1429581 9.9218433e-39
-2.7041459 0.28598762 -0.14883757 8.8180167e-39
-2.7037926 0.26825932 -0.14793241 1.2860589e-38
-2.7032666 0.25515991 -0.14903517 1.2218101e-38
-2.7066894 0.301029 -0.13461167 1.0564695e-38
-2.708395 0.30169564 -0.12333783 9.4615868e-39
-2.7108016 0.31729099 -0.11012936 9.0924456e-39
-2.7133169 0.3323797 -0.096102364 9.7363745e-39
-2.716923 0.3898935 -0.082599141 1.0654734e-38
-2.7159026 0.36347476 -0.08455307 1.037851e-38
-2.7159617 0.34934524 -0.081555173 9.9193266e-39
-2.7155035 0.33659059 -0.082268849 9.8282086e-39
-2.719094 0.38675377 -0.067514889 1.0562535e-38
-2.7186375 0.37560695 -0.068512253 1.0654371e-38
-2.7179267 0.36127138 -0.07062199 1.0378505e-38
-2.7213509 0.40741041 -0.056239817 1.04707e-38
-2.7211139 0.39150786 -0.054896004 1.0745489e-38
-2.7235985 0.40655476 -0.041065823 1.0103719e-38
-2.7259405 0.42380238 -0.02859363 1.3704038e-38
-2.7253773 0.4109607 -0.029991109 1.1771884e-38
-2.7253835 0.40199867 -0.02830071 1.1403822e-38
-2.7291729 0.45066634 -0.011940887 1.0655094e-38
-2.7284091 0.43632084 -0.014403153 1.0379589e-38
-2.7278502 0.42302641 -0.015689144 1.0381391e-38
-2.7273929 0.41002753 -0.016349651 9.9258132e-39
-2.7319841 0.46412426 0.0043620812 1.0930242e-38
-2.7337916 0.47060338 0.015246652 1.0930602e-38
-2.7362862 0.48535365 0.029198281 1.1113914e-38
-2.7356887 0.47113374 0.027822418 1.1022077e-38
-2.7382772 0.49800703 0.040170487 1.120611e-38
-2.7405944 0.50258368 0.054809369 1.5812995e-38
-2.7400672 0.48955244 0.053686094 1.2675831e-38
-2.7458417 0.58016753 0.075583696 2.1593955e-38
-2.7452772 0.56917477 0.073836684 2.3339908e-38
-2.745075 0.55634367 0.074846618 2.3268927e-38
-2.7442787 0.53025335 0.074331708 2.3456207e-38
-2.7431195 0.51404613 0.069571972 2.0699709e-38
-2.7885718 0.86605078 0.30844352 1.8869444e-38
-2.792079 0.88516611 0.32835346 1.3532908e-38
-2.7903707 0.87157899 0.3194429 1.6568167e-38
-2.7934358 0.89444733 0.33571151 1.3532908e-38
-2.795639 0.9003886 0.34933764 1.1506772e-38
-2.7969158 0.88878024 0.36000654 1.2339425e-38
-2.7962847 0.87410289 0.35849208 1.5377558e-38
-2.7962289 0.86448562 0.35989171 1.7221476e-38
-2.7970579 0.85278273 0.36758643 1.8044035e-38
-2.7971137 0.84183758 0.36997312 2.0163094e-38
-2.798696 0.83706474 0.38142458 1.1783397e-38
-2.8236847 1.0920812 0.50142586 2.6632294e-39
-2.8258865 1.0961806 0.51538402 3.7652595e-39
-2.8275239 1.0942982 0.52667087 4.1355008e-39
-2.829704 1.1020586 0.53980738 4.8737637e-39
-2.8265243 1.0207986 0.53352803 2.755432e-39
-2.8314154 1.0978398 0.55201823 6.0777047e-39
-2.8332479 1.09442 0.56489378 8.6627963e-39
-2.8327985 1.0804904 0.56445479 9.2163386e-39
-2.8321352 1.0676827 0.56238157 3.4018846e-39
-2.832201 1.0535613 0.56542224 2.9398219e-39
-2.8312347 1.0411496 0.56125265 2.941254e-39
-2.6192539 -0.28159702 -0.61152679 4.9591182e-39
-2.6185384 -0.29560047 -0.61372858 4.7758059e-39
-2.6149578 -0.38755396 -0.62071955 2.9394547e-39
-2.621345 -0.26846686 -0.59997272 8.6332583e-39
-2.6239562 -0.25198293 -0.58556151 1.0285934e-38
-2.623112 -0.26581141 -0.58865452 1.0285934e-38
-2.6258628 -0.24931075 -0.57331222 1.0561082e-38
-2.6281822 -0.23559432 -0.5603413 1.0836589e-38
-2.6283193 -0.24992689 -0.55678737 1.0652918e-38
-2.6301739 -0.23331295 -0.54745448 1.083659e-38
-2.6750457 0.094502129 -0.30800843 1.4327079e-38
-2.6772618 0.10824189 -0.29573029 1.4602591e-38
-2.6771252 0.095821723 -0.29435742 1.3778944e-38
-2.684123 0.14477709 -0.25661719 1.5153251e-38
-2.6833007 0.11635957 -0.25687706 1.4236684e-38
-2.6859221 0.13183922 -0.24221341 1.4602948e-38
-2.6907713 0.18734834 -0.22003473 1.3501277e-38
-2.6894166 0.17363673 -0.22656012 1.4419639e-38
-2.6898513 0.16112264 -0.2213518 1.3225411e-38
-2.6883378 0.14806442 -0.22905956 1.4235606e-38
-2.6922119 0.19744271 -0.21226695 1.3501277e-38
-2.6897471 0.13436681 -0.21712054 1.3042815e-38
-2.6944709 0.20390475 -0.1983645 1.3594191e-38
-2.6971092 0.23389278 -0.18625912 1.3593838e-38
-2.6969175 0.21803622 -0.1846205 1.3685672e-38
-2.6990268 0.22774886 -0.17231451 1.3685674e-38
-2.7012415 0.23663926 -0.15915489 1.4053727e-38
-2.7033355 0.23935387 -0.14566197 1.3960814e-38
-2.7066834 0.28068754 -0.13090651 9.3697528e-39
-2.7060695 0.26819649 -0.13270514 1.2033349e-38
-2.7057612 0.25399271 -0.13215171 1.2860229e-38
-2.7085574 0.28343046 -0.11888919 9.185723e-39
-2.708122 0.27032438 -0.11938496 1.2124826e-38
-2.710845 0.30005661 -0.10666609 9.3701115e-39
-2.7104208 0.28522709 -0.10676972 9.4601491e-39
-2.7135339 0.31337857 -0.091153391 9.1846398e-39
-2.7128057 0.29882914 -0.093338534 1.0012959e-38
-2.715781 0.31658423 -0.076729499 9.3686696e-39
-2.7152431 0.30101985 -0.077457443 1.1942224e-38
-2.7149682 0.28617221 -0.076560169 1.2769111e-38
-2.7182901 0.34588355 -0.065361567 9.9193266e-39
-2.7178528 0.32971019 -0.065303564 9.1842797e-39
-2.7211962 0.37496659 -0.051300548 1.0470342e-38
-2.7213564 0.36040866 -0.04754848 9.8271338e-39
-2.7205241 0.34621096 -0.050494071 1.1113192e-38
-2.7199545 0.33184081 -0.05165362 9.460505e-39
-2.7240665 0.3876991 -0.034466363 1.0662298e-38
-2.7234881 0.37432882 -0.035869427 1.0751971e-38
-2.7232513 0.35968748 -0.034754168 9.1860846e-39
-2.7226877 0.34684891 -0.036155332 9.2764753e-39
-2.725795 0.38837153 -0.023039473 1.0853886e-38
-2.7256866 0.37528557 -0.021354921 1.0393268e-38
-2.7248552 0.34754962 -0.021801783 7.8063885e-39
-2.7294068 0.40614036 -0.0021794261 1.0287752e-38
-2.7277424 0.39205638 -0.010708097 1.1493507e-38
-2.7316449 0.44919321 0.0048470618 1.2675843e-38
-2.7314394 0.43268907 0.006511996 1.0930959e-38
-2.7309706 0.42021751 0.005677592 1.0471421e-38
-2.730835 0.40454865 0.0076554692 9.9196895e-39
-2.733701 0.44759721 0.018876772 1.1022439e-38
-2.7358797 0.45124158 0.032763511 1.157381e-38
-2.7356756 0.43595299 0.034215752 1.0654376e-38
-2.7391016 0.48119837 0.048775978 1.3507037e-38
-2.7380731 0.46460009 0.044959076 1.1573089e-38
-2.7380984 0.45163965 0.047513846 1.0378863e-38
-2.737576 0.43851489 0.046439976 1.102207e-38
-2.7422736 0.49587107 0.067265905 1.9413295e-38
-2.7410188 0.48573959 0.060748167 1.5625382e-38
-2.7404761 0.46979886 0.06005739 1.5263789e-38
-2.7458975 0.56292027 0.079131931 2.2155407e-38
-2.7447996 0.53656155 0.076652065 2.3458375e-38
-2.7443719 0.52020562 0.076804459 2.1628854e-38
-2.7429507 0.50922126 0.069331169 1.9778119e-38
-2.7980745 0.89553857 0.36650375 1.3169902e-38
-2.7983465 0.88505107 0.37025166 2.0270414e-38
-2.7971878 0.87394679 0.36455399 1.5469032e-38
-2.7971492 0.86103868 0.36667442 1.5098454e-38
-2.7983184 0.84801638 0.3768855 1.8964554e-38
-2.7996635 0.84045029 0.38726556 1.0306811e-38
-2.8016815 0.83941954 0.40093902 1.6203333e-38
-2.8039839 0.84816122 0.41471246 1.5096991e-38
-2.8044794 0.8413195 0.41928196 1.7405877e-38
-2.8242922 1.0934206 0.50523764 2.6632294e-39
-2.8285789 1.0940788 0.53376132 9.394637e-39
-2.8305185 1.0947299 0.54659772 3.3125953e-39
-2.828867 1.0418972 0.5452925 3.0305714e-39
-2.8280375 1.0309972 0.54176015 2.8476277e-39
-2.8271596 1.0202556 0.53787327 2.939103e-39
-2.8321083 1.0855639 0.55890954 6.266433e-39
-2.8315351 1.07196 0.5575856 2.575361e-39
-2.8313181 1.0573826 0.55882108 2.2040519e-39
-2.8301442 1.0484707 0.55261636 2.2040519e-39
-2.8299115 1.0336535 0.55378985 2.756874e-39
-2.8294985 1.0211955 0.55332536 2.2962461e-39
-2.8330917 1.0612149 0.56996477 2.9394589e-39
-2.8315887 1.0224757 0.56705606 3.7688553e-39
-2.8309343 1.0085447 0.5652473 3.4940663e-39
-2.613662 -0.39962226 -0.62715417 1.7448744e-39
-2.6131566 -0.4223628 -0.62634325 1.9285454e-39
