# .PCD v0.7 - Point Cloud Data file format
VERSION 0.7
FIELDS x y z rgb
SIZE 4 4 4 4
TYPE F F F F
COUNT 1 1 1 1
WIDTH 1030
HEIGHT 1
VIEWPOINT 0 0 0 1 0 0 0
POINTS 1030
DATA ascii
-2.4162061 0.085631602 -0.8974216 3.6892657e-39
-2.4157989 0.073367402 -0.89874655 3.6892657e-39
-2.4184384 0.14177306 -0.88466024 2.3052509e-39
-2.4181621 0.12695381 -0.88234991 3.6896217e-39
-2.4177656 0.1142849 -0.8832798 3.6892643e-39
-2.4174037 0.10434077 -0.88493228 3.5974288e-39
-2.4170175 0.09179385 -0.88573986 3.6892643e-39
-2.4166064 0.075142354 -0.88496137 3.8729367e-39
-2.4199836 0.17335151 -0.87223214 1.1989047e-39
-2.4199452 0.15861098 -0.86563402 1.290743e-39
-2.4191897 0.14462198 -0.8724345 2.1215813e-39
-2.4181986 0.10258394 -0.86963689 3.6892657e-39
-2.4208422 0.17320222 -0.85657209 1.4754916e-39
-2.4201322 0.14475013 -0.8553887 2.2141357e-39
-2.4219649 0.1907295 -0.8448627 1.2914591e-39
-2.4210758 0.15891333 -0.84526521 2.2130553e-39
-2.4209454 0.14631863 -0.84140193 2.3059669e-39
-2.4235137 0.21980204 -0.83113015 2.1205009e-39
-2.422647 0.18477166 -0.82953393 1.1992635e-39
-2.4224689 0.17674364 -0.82879555 1.8442727e-39
-2.4220116 0.16352294 -0.83056182 2.0290241e-39
-2.4247096 0.23455283 -0.81671441 1.6606059e-39
-2.4229772 0.17089456 -0.81667292 2.0290241e-39
-2.4259934 0.24822158 -0.80016613 2.0286654e-39
-2.4255662 0.2346203 -0.80120003 2.0290297e-39
-2.4251144 0.22390138 -0.80409575 2.2137769e-39
-2.4237978 0.17386971 -0.80325425 2.2126937e-39
-2.4271655 0.26262954 -0.78601545 2.0290255e-39
-2.4256189 0.22262579 -0.79430884 1.6602486e-39
-2.4253359 0.20695655 -0.79169703 2.2130581e-39
-2.424624 0.17705046 -0.78982878 2.2126937e-39
-2.4272354 0.23602013 -0.77159315 1.9371914e-39
-2.4262512 0.20778987 -0.77549148 2.2134168e-39
-2.4259312 0.20234701 -0.77861309 2.2134168e-39
-2.4255335 0.18309082 -0.77630877 2.2126979e-39
-2.4272351 0.21303442 -0.76023114 2.5811189e-39
-2.426805 0.20160462 -0.76238668 2.396729e-39
-2.4263823 0.18732373 -0.76299363 2.3048935e-39
-2.4305942 0.31190881 -0.7481513 2.4896421e-39
-2.4303603 0.29650828 -0.74478084 2.3974479e-39
-2.4276628 0.20151992 -0.74677014 2.3970878e-39
-2.4314139 0.31324342 -0.73393619 2.5811189e-39
-2.4311664 0.29956737 -0.73166436 2.3970878e-39
-2.4322164 0.31522104 -0.7203486 2.7651514e-39
-2.4319379 0.30128944 -0.71851313 2.5811189e-39
-2.4334133 0.32994351 -0.7059052 2.7658717e-39
-2.4330637 0.31606397 -0.70538455 2.6725957e-39
-2.4342422 0.32994685 -0.69085479 2.8573457e-39
-2.4354525 0.34627441 -0.67696434 2.9495441e-39
-2.4372871 0.39103189 -0.66579521 3.5023577e-39
-2.4364786 0.35995781 -0.66510552 3.2254121e-39
-2.4362915 0.34572831 -0.66146302 3.0413782e-39
-2.4380329 0.38589373 -0.6497165 3.5949107e-39
-2.4376981 0.37596819 -0.65088546 3.5023549e-39
-2.437031 0.36296216 -0.65656185 3.2261296e-39
-2.4388537 0.39233366 -0.63800764 3.5012745e-39
-2.440881 0.42199486 -0.61587632 4.2287544e-39
-2.4401343 0.40695521 -0.6219883 3.4969585e-39
-2.4418392 0.4380587 -0.60642236 3.4937145e-39
-2.4414988 0.42938817 -0.6083166 4.2287544e-39
-2.5054128 1.1918271 0.17476599 3.1390067e-39
-2.5050666 1.178532 0.17505829 1.7553547e-39
-2.5394013 1.6008431 0.58944106 3.2268751e-39
-2.5398111 1.5898395 0.60232359 3.8743899e-39
-2.5406604 1.5916754 0.61682564 3.8740269e-39
-2.542093 1.6232494 0.62721968 3.2282974e-39
-2.5417557 1.6080968 0.62858307 3.0442649e-39
-2.5430224 1.6221008 0.64465106 2.9520706e-39
-2.5426517 1.6068127 0.64548522 3.8747486e-39
-2.5444798 1.6529543 0.65585279 2.8598722e-39
-2.5441248 1.6394435 0.65608925 3.2290163e-39
-2.5438333 1.6221046 0.65937275 2.8595149e-39
-2.5456452 1.6688564 0.66914505 2.8598722e-39
-2.545305 1.6542066 0.67020708 3.6899958e-39
-2.5450203 1.6371977 0.67345446 3.5974428e-39
-2.5464334 1.6713787 0.68220097 2.8595135e-39
-2.5462015 1.657009 0.68509793 3.136822e-39
-2.5476067 1.6869974 0.69576937 2.5836454e-39
-2.5473161 1.6707628 0.69852597 2.6754823e-39
-2.5487936 1.7020875 0.70985377 2.6747635e-39
-2.5484717 1.6865426 0.71169508 2.9520692e-39
-2.5499659 1.7177286 0.72340059 2.582565e-39
-2.5496361 1.7017561 0.72531229 2.4903736e-39
-2.5493169 1.6869744 0.72682756 3.5970799e-39
-2.550765 1.7198305 0.73686695 2.3988927e-39
-2.550523 1.7050639 0.73977453 2.3985353e-39
-2.5501461 1.6879486 0.74139458 3.5052458e-39
-2.5516472 1.7191263 0.75322539 2.3063369e-39
-2.5528851 1.733852 0.76840889 2.2141385e-39
-2.5524976 1.7189752 0.76873749 2.3063383e-39
-2.553725 1.7404276 0.78040504 2.2137783e-39
-2.5547264 1.7511075 0.79329848 2.3066942e-39
-2.5559416 1.7683147 0.80685014 2.7676752e-39
-2.5554373 1.7531673 0.80518591 2.2141399e-39
-2.5570884 1.7852725 0.81928104 1.9379159e-39
-2.5569067 1.7713925 0.82284886 1.9371956e-39
-2.5579355 1.7854847 0.83455002 2.2148629e-39
-2.5591035 1.8005089 0.84831965 1.9379145e-39
-2.5603151 1.8155191 0.86289555 1.8453587e-39
-2.5615304 1.8305651 0.87750864 1.8453587e-39
-2.5625563 1.8446871 0.88914591 1.8453587e-39
-2.5634105 1.8491411 0.90244865 2.0297514e-39
-2.5650449 1.8770834 0.91829532 1.5687704e-39
-2.5645742 1.8630217 0.91670758 1.9379145e-39
-2.5662503 1.8922715 0.93266803 1.6609661e-39
-2.5659125 1.8801585 0.93252498 1.8460776e-39
-2.5655293 1.8676188 0.93177778 1.7531603e-39
-2.5677433 1.908681 0.95165068 2.1226645e-39
-2.5670402 1.8943925 0.94595873 1.6616863e-39
-2.5667024 1.878582 0.94763929 1.6609661e-39
-2.568527 1.9248466 0.95788717 1.476935e-39
-2.5682986 1.9121915 0.95999748 1.753882e-39
-2.5693645 1.9244279 0.97329342 1.8457189e-39
-2.5690575 1.9094666 0.97512126 1.5691292e-39
-2.5712981 1.9670208 0.9873265 1.845e-39
-2.5705049 1.9398286 0.98637599 1.3843792e-39
-2.5702467 1.9244888 0.98927188 1.476935e-39
-2.5724919 1.9824029 1.0013928 1.5680516e-39
-2.5721488 1.9678459 1.0023577 1.4762161e-39
-2.5718381 1.9586209 1.0012814 1.4769335e-39
-2.5713007 1.943225 0.99914354 1.4762147e-39
-2.5735638 1.9954853 1.0143766 1.4758545e-39
-2.5733454 1.9825621 1.0168072 1.1999865e-39
-2.5748067 2.0149343 1.0273188 1.1992677e-39
-2.574472 1.999891 1.0286814 1.2914619e-39
-2.5741649 1.9839103 1.031009 1.4758545e-39
-2.5756705 2.0148809 1.0430259 1.6606059e-39
-2.5753381 1.9995214 1.044585 1.3840177e-39
-2.5773361 2.0561764 1.0528346 2.2134238e-39
-2.5767667 2.0331137 1.0539063 1.1992663e-39
-2.5765574 2.0188627 1.0571558 1.6602458e-39
-2.5780091 2.0451958 1.0704805 1.6602458e-39
-2.5775151 2.0314054 1.068334 1.56769e-39
-2.5798986 2.0899611 1.0826378 1.107072e-39
-2.5795043 2.0772071 1.0817908 1.107072e-39
-2.5791435 2.0620012 1.0827624 1.107072e-39
-2.5812078 2.1005058 1.1011916 1.3833002e-39
-2.5803902 2.0887778 1.0921495 1.1067133e-39
-2.5804124 2.0770533 1.0983536 1.1989075e-39
-2.5821588 2.1127226 1.1124088 1.6598871e-39
-2.5815697 2.0921121 1.1119093 1.1067133e-39
-2.5812478 2.0759356 1.1140673 1.0152337e-39
-2.5827618 2.1071966 1.1260875 9.2268077e-40
-2.5823994 2.0923676 1.1268421 8.3084527e-40
-2.583266 2.0965834 1.1404889 1.0148764e-39
-2.5842617 2.1142261 1.1498382 6.4681135e-40
-2.5839136 2.0997357 1.1506861 8.3048374e-40
-2.5837173 2.0906036 1.1516376 1.0152351e-39
-2.5853827 2.1145458 1.1700288 5.5425698e-40
-2.5847032 2.101881 1.1639577 6.4681135e-40
-2.5863109 2.1290493 1.1797022 5.5389685e-40
-2.5874968 2.1440928 1.1937866 4.6206135e-40
-2.5887237 2.160152 1.2081172 3.6950419e-40
-2.5893533 2.1604056 1.2194223 2.7766869e-40
-2.5909724 2.1910698 1.2336466 3.6950419e-40
-2.5907507 2.1797705 1.2352087 1.8475279e-40
-2.5902424 2.1651831 1.2331953 3.6950279e-40
-2.5928419 2.2304201 1.2481203 9.2555764e-41
-2.5926623 2.2187192 1.2506454 9.2555764e-41
-2.5922961 2.2070038 1.2497925 9.2917299e-41
-2.5947154 2.2613304 1.2668414 1.4012985e-45
-2.5941172 2.2502582 1.2614592 3.5873241e-43
-2.5937722 2.2346082 1.2629336 9.2554362e-41
-2.5933232 2.2237356 1.2601621 9.219563e-41
-2.5931363 2.2126856 1.2622387 9.2557165e-41
-2.5941062 2.2232795 1.2746031 9.2197031e-41
-2.6002293 2.3304627 1.3327368 5.0693149e-39
-2.6013219 2.3386567 1.3485178 5.1604287e-39
-2.6022861 2.3507323 1.3600479 5.528128e-39
-2.6019006 2.3294752 1.3635648 6.6326791e-39
-2.602988 2.3496339 1.3733319 6.7255894e-39
-2.6024761 2.3315127 1.3730018 6.7263111e-39
-2.6039119 2.3585861 1.3856711 6.818141e-39
-2.6048458 2.3637748 1.4000622 6.7234188e-39
-2.6044171 2.3487797 1.399695 7.2798352e-39
-2.6051421 2.3489561 1.4127725 5.1578924e-39
-2.6063986 2.3660021 1.4271435 3.405102e-39
-2.6059523 2.3522234 1.4258569 2.391676e-39
-2.6059573 2.3405571 1.4317176 3.7764055e-39
-2.4017379 -0.11577237 -1.0604402 3.5959911e-39
-2.4036863 -0.086312607 -1.0396423 3.5963484e-39
-2.4030037 -0.10076975 -1.0448837 3.5963498e-39
-2.4053669 -0.044833746 -1.0296416 3.7803852e-39
-2.4050052 -0.057633858 -1.0298823 3.5963526e-39
-2.4044371 -0.069101959 -1.0345267 3.5967086e-39
-2.4041936 -0.083954297 -1.031598 3.5963484e-39
-2.4061306 -0.042281035 -1.0170467 3.4123201e-39
-2.4088094 -0.023241106 -0.97783357 3.5048759e-39
-2.4083099 -0.038003825 -0.97959834 3.5967128e-39
-2.4081354 -0.05200889 -0.97584367 3.4126802e-39
-2.4099774 -0.0094481744 -0.96345687 3.5048759e-39
-2.4096835 -0.022911668 -0.9621352 3.5967114e-39
-2.4093397 -0.037558015 -0.96113521 3.5045157e-39
-2.4111383 0.0096978582 -0.95185506 3.5048745e-39
-2.4107549 -0.0034618881 -0.95230603 3.3208433e-39
-2.4106181 -0.013334436 -0.94990826 3.5048745e-39
-2.4142725 0.089442775 -0.93439931 2.8605827e-39
-2.4120498 0.0089602554 -0.93494689 3.5048731e-39
-2.4114943 -0.0056028566 -0.93782741 3.3208433e-39
-2.4150901 0.090810314 -0.92023492 3.0449739e-39
-2.4136374 0.038231645 -0.9206056 3.5970729e-39
-2.4130743 0.022407709 -0.92299986 3.5048731e-39
-2.4128582 0.0093108993 -0.92044175 3.6892657e-39
-2.4146919 0.055248644 -0.90987504 3.5052346e-39
-2.4144607 0.041811664 -0.90743047 3.5052346e-39
-2.4138505 0.025390061 -0.91038299 3.5970701e-39
-2.4156868 0.056739263 -0.89255685 3.688907e-39
-2.4152093 0.043300651 -0.89458102 3.688907e-39
-2.4164217 0.058376189 -0.88002819 3.7807411e-39
-2.4189863 0.12811205 -0.86796254 3.7811012e-39
-2.4186504 0.11315856 -0.86666256 3.8729367e-39
-2.417907 0.085952349 -0.86670202 3.8729367e-39
-2.4175758 0.072158977 -0.86589402 3.8729367e-39
-2.4172108 0.05698758 -0.86501896 3.8729339e-39
-2.4205413 0.15694685 -0.85399783 2.1208596e-39
-2.4197807 0.13039127 -0.85466927 3.8736556e-39
-2.4194343 0.11412842 -0.85291302 3.78146e-39
-2.4192145 0.10212158 -0.85096538 3.7814586e-39
-2.4187832 0.089824237 -0.85271394 3.8732955e-39
-2.4183691 0.073157981 -0.85198879 3.8732955e-39
-2.4218383 0.16965386 -0.83673781 1.5676858e-39
-2.4206142 0.12930895 -0.83900416 3.0438935e-39
-2.4202807 0.11535371 -0.83815742 3.7818173e-39
-2.4199271 0.10187712 -0.83791137 3.8736514e-39
-2.422271 0.15619616 -0.82222956 1.1070664e-39
-2.421845 0.14453961 -0.82419401 2.213414e-39
-2.4211385 0.1160562 -0.82293737 4.057328e-39
-2.4234228 0.17537172 -0.81080222 1.3836547e-39
-2.4230592 0.16255729 -0.81106532 1.7520757e-39
-2.4227421 0.14919205 -0.81020969 2.2130538e-39
-2.4237976 0.16310242 -0.79793483 1.7517156e-39
-2.4235559 0.15405992 -0.79784709 2.0283025e-39
-2.4264703 0.23263347 -0.78380537 1.5684103e-39
-2.4262233 0.21846551 -0.78128296 2.4892848e-39
-2.4256911 0.20678642 -0.78516835 1.3829387e-39
-2.4245503 0.16488196 -0.78515404 2.2126951e-39
-2.4276893 0.24651983 -0.76854587 2.3981654e-39
-2.4270651 0.22428609 -0.76888305 2.6736761e-39
-2.426544 0.20554031 -0.76906806 1.936111e-39
-2.4255846 0.17335854 -0.77056813 2.2130567e-39
-2.4284415 0.25038633 -0.75680202 2.1208596e-39
-2.4281132 0.23510589 -0.75520802 1.6602444e-39
-2.4275002 0.22273415 -0.76021326 1.9371914e-39
-2.4265287 0.18059851 -0.75700825 2.3052509e-39
-2.4297011 0.26274016 -0.74004656 2.5814762e-39
-2.4293365 0.25130042 -0.74100924 2.1205009e-39
-2.4285264 0.22393991 -0.74218053 2.0293843e-39
-2.428071 0.209509 -0.74331665 2.4896421e-39
-2.4274542 0.1848156 -0.74229825 2.3048935e-39
-2.4308925 0.27988109 -0.72690272 2.396729e-39
-2.4304943 0.26507446 -0.72680724 2.3970892e-39
-2.429018 0.21028239 -0.72650945 2.7662318e-39
-2.4286098 0.20330064 -0.73046213 2.3970892e-39
-2.4282389 0.18680163 -0.72903979 2.3052523e-39
-2.4317787 0.2830078 -0.71235865 2.9499028e-39
-2.43135 0.26503423 -0.71125013 2.0283095e-39
-2.4298096 0.21266031 -0.71331263 2.4896435e-39
-2.4293163 0.2004229 -0.71621561 2.3052537e-39
-2.432847 0.29647973 -0.69963092 3.2261282e-39
-2.433913 0.31120291 -0.68756258 3.1335738e-39
-2.4351304 0.32966465 -0.67459726 2.9495427e-39
-2.4347827 0.31435609 -0.67333817 2.7655102e-39
-2.4360156 0.32967755 -0.65852982 3.0413782e-39
-2.4356053 0.31623438 -0.65933412 2.6736747e-39
-2.4375501 0.35688153 -0.6441322 3.2257666e-39
-2.4370732 0.34299618 -0.64592481 3.0420943e-39
-2.438633 0.37192014 -0.63191205 3.5005529e-39
-2.4395595 0.37568474 -0.61695904 3.5877122e-39
-2.4391966 0.36050564 -0.61603755 2.3942109e-39
-2.4396162 0.34930864 -0.6028865 2.2987783e-39
-2.538842 1.5683426 0.5953573 4.2413787e-39
-2.5384786 1.5523813 0.59665531 4.2417445e-39
-2.5397482 1.5716182 0.61018747 3.3212203e-39
-2.5391977 1.5577533 0.60705435 3.9658722e-39
-2.5388432 1.543833 0.60749733 3.6892867e-39
-2.5403097 1.5754207 0.61849856 2.5836496e-39
-2.5399628 1.5608845 0.61939114 4.2431766e-39
-2.5397255 1.5490843 0.62091851 3.4134145e-39
-2.5392842 1.5312358 0.62173885 3.4126901e-39
-2.5415082 1.590088 0.63299602 3.1361004e-39
-2.5411325 1.5766279 0.63283813 2.9527895e-39
-2.5407186 1.5624989 0.63231122 3.1371822e-39
-2.5423067 1.5922096 0.64644307 3.1357416e-39
-2.5419724 1.5771641 0.64781559 3.3204958e-39
-2.5434797 1.6078205 0.66001928 2.9517119e-39
-2.5432155 1.591995 0.66304982 2.9520706e-39
-2.5446656 1.6229565 0.67405921 2.8595149e-39
-2.544379 1.6066892 0.67690349 3.0442677e-39
-2.5440164 1.5922058 0.67748249 3.6899986e-39
-2.5458512 1.6381083 0.68808341 2.7673192e-39
-2.5455098 1.6239396 0.68889457 2.8591561e-39
-2.5470068 1.654377 0.70101738 2.6754823e-39
-2.5467196 1.6383381 0.70373267 2.5829294e-39
-2.5481782 1.670058 0.71452546 3.5052458e-39
-2.5478787 1.6537631 0.71714711 2.859875e-39
-2.5475633 1.6380132 0.7192117 2.6747635e-39
-2.5489836 1.6679837 0.73016846 2.5829266e-39
-2.5498254 1.6715304 0.7437008 2.7673164e-39
-2.551337 1.7028836 0.75563043 2.3066984e-39
-2.5510206 1.6856983 0.75838327 2.6751222e-39
-2.5522475 1.7018931 0.7726447 2.4903722e-39
-2.5537219 1.7326571 0.78419679 2.2144986e-39
-2.553407 1.718269 0.78559327 2.305981e-39
-2.5530875 1.7013568 0.78815633 3.320856e-39
-2.5545015 1.7335325 0.79791254 2.2137811e-39
-2.5555656 1.7417666 0.81315249 2.122303e-39
-2.5564482 1.749527 0.82533848 1.8457147e-39
-2.5579383 1.7729108 0.84082335 2.5836454e-39
-2.5575788 1.7645119 0.83844674 2.1226645e-39
-2.557369 1.7529738 0.84034538 2.3077704e-39
-2.5589852 1.78185 0.85540086 1.6616849e-39
-2.5585566 1.7687997 0.85407305 2.1230204e-39
-2.5599794 1.7949595 0.86696655 1.7538806e-39
-2.5597591 1.781278 0.86973333 2.3077732e-39
-2.5593946 1.7674035 0.86998022 2.2155762e-39
-2.5611701 1.8098667 0.88120824 1.6609675e-39
-2.5607128 1.7974476 0.8790471 1.6609661e-39
-2.5605695 1.7829609 0.88360858 1.8457175e-39
-2.5623801 1.8297706 0.89332414 1.8453601e-39
-2.5620172 1.8130647 0.89499843 1.661329e-39
-2.5631766 1.831971 0.90669411 1.8453601e-39
-2.5627854 1.8166668 0.90716165 1.7535246e-39
-2.5643573 1.8472983 0.92054731 1.7531617e-39
-2.5639842 1.8324122 0.92113584 1.7531645e-39
-2.5651486 1.8450553 0.93602264 1.7531617e-39
-2.5648854 1.8320045 0.93769717 1.7531617e-39
-2.5645254 1.8179582 0.93811154 1.7535218e-39
-2.5665667 1.8638505 0.95246214 1.9382718e-39
-2.5660336 1.8487585 0.95025438 1.7535204e-39
-2.5679114 1.8928362 0.96254009 2.0308318e-39
-2.5676434 1.8767382 0.96563685 1.938632e-39
-2.568738 1.893175 0.97737789 1.476935e-39
-2.5700235 1.9081513 0.99330336 1.753882e-39
-2.5712578 1.9250163 1.0073665 1.3847365e-39
-2.5708399 1.9124521 1.005998 2.0304689e-39
-2.5730298 1.966862 1.0188357 2.0293899e-39
-2.5726483 1.9536215 1.0184634 1.3843778e-39
-2.5722733 1.9401575 1.0183095 1.476572e-39
-2.5720353 1.928396 1.019809 1.3847365e-39
-2.5738156 1.9687283 1.0321782 1.291822e-39
-2.5735795 1.9561347 1.034122 1.5694865e-39
-2.5730979 1.9406116 1.0330555 1.2921794e-39
-2.5727525 1.926702 1.0336652 1.476572e-39
-2.5750074 1.9835082 1.0465062 1.2918234e-39
-2.5739598 1.94103 1.0484936 1.2921808e-39
-2.5769913 2.0244489 1.0622646 1.6598871e-39
-2.5761878 1.9990007 1.0602657 1.199625e-39
-2.5758369 1.9850578 1.0607936 1.1996264e-39
-2.5773759 2.0141454 1.074344 1.107072e-39
-2.5789361 2.0433984 1.0881989 1.8442755e-39
-2.5786219 2.0281363 1.0900396 1.1070706e-39
-2.5808437 2.0865459 1.1014888 1.1989075e-39
-2.5800729 2.0603831 1.1004341 1.1992663e-39
-2.5798001 2.0437505 1.1037096 1.1074294e-39
-2.5794399 2.0290287 1.1044468 1.291822e-39
-2.5808713 2.0580785 1.1160665 1.3840177e-39
-2.5806327 2.0439 1.1187449 1.1070706e-39
-2.5820932 2.076292 1.1292373 9.230409e-40
-2.5817137 2.0622535 1.1292925 9.2339964e-40
-2.5829067 2.0777378 1.1432862 9.230409e-40
-2.5840361 2.0900784 1.1576828 1.1085126e-39
-2.5848842 2.095052 1.1706227 8.3084387e-40
-2.5859671 2.1082151 1.1837653 7.3829091e-40
-2.5872645 2.1253531 1.1988435 6.4609388e-40
-2.5865757 2.1113617 1.1932577 7.3900978e-40
-2.5883281 2.1383009 1.2117463 4.6205995e-40
-2.588109 2.1257191 1.2139874 6.4609248e-40
-2.5891409 2.1421039 1.2246168 3.6986432e-40
-2.5900302 2.1450429 1.2393045 3.6986432e-40
-2.5927184 2.2009156 1.2604672 9.2557165e-41
-2.5919027 2.1851425 1.2534617 2.7730716e-40
-2.5915229 2.1728919 1.2526281 2.7730856e-40
-2.5913923 2.1633162 1.2549893 1.8475279e-40
-2.5908399 2.1471803 1.2529441 2.7730996e-40
-2.5938852 2.2249861 1.2697462 1.8511433e-40
-2.5932372 2.2023671 1.2691679 1.8511293e-40
-2.592787 2.1890686 1.2675747 1.8511293e-40
-2.5940623 2.2167163 1.2770497 2.7623096e-40
-2.6029103 2.3379352 1.3777082 6.4508046e-39
-2.6041195 2.3525677 1.3924242 6.7259482e-39
-2.6037147 2.338717 1.39192 6.8185011e-39
-2.6049595 2.3556688 1.406134 6.9114142e-39
-2.6043723 2.3352754 1.4055599 4.9756689e-39
-2.6050668 2.3315229 1.4200181 3.9611597e-39
-2.6061568 2.3481922 1.4315645 2.4845891e-39
-2.6067822 2.3424435 1.4457577 4.4206959e-39
-2.6067147 2.3371501 1.4471483 4.8816684e-39
-2.6063182 2.3218501 1.4475189 4.8823887e-39
-2.4014611 -0.13480613 -1.056049 3.6878266e-39
-2.4012306 -0.1507443 -1.0523525 3.5956338e-39
-2.4031427 -0.10636932 -1.0395887 3.6889042e-39
-2.4029074 -0.11860996 -1.0378087 3.5959911e-39
-2.4024286 -0.13083243 -1.0404514 3.6874679e-39
-2.4040201 -0.10033706 -1.0266457 3.6889042e-39
-2.403568 -0.11918372 -1.0255307 3.2272072e-39
-2.4032145 -0.13347086 -1.0248812 3.1353717e-39
-2.4079673 -0.067297786 -0.97133672 3.5045157e-39
-2.4089968 -0.053723097 -0.9593668 3.2279302e-39
-2.4105585 -0.023665274 -0.9458819 3.6885483e-39
-2.4101994 -0.039553411 -0.94454151 3.5045171e-39
-2.4098663 -0.052792728 -0.94404304 3.5963512e-39
-2.411485 -0.023293849 -0.92924988 3.5967114e-39
-2.4125204 -0.005558697 -0.91922367 3.6892643e-39
-2.4123626 -0.015298507 -0.91727012 3.5970701e-39
-2.4138708 0.0083310418 -0.90157866 3.6892657e-39
-2.4133801 -0.0043365648 -0.90421957 3.7811012e-39
-2.4149051 0.023067836 -0.89009541 3.6892657e-39
-2.4146142 0.0075811609 -0.88771778 3.6889084e-39
-2.416012 0.036942881 -0.87686509 3.6889084e-39
-2.4157925 0.023001699 -0.87395579 3.3208433e-39
-2.4168892 0.040755376 -0.86282492 3.6889056e-39
-2.4165828 0.02543656 -0.86081457 3.873657e-39
-2.4180236 0.05856863 -0.85104424 3.8732941e-39
-2.417803 0.044231322 -0.84795684 3.7810998e-39
-2.4174011 0.026807189 -0.84663445 3.8736514e-39
-2.4197831 0.084866479 -0.83210927 3.8729339e-39
-2.4194121 0.071899481 -0.83243537 3.8732955e-39
-2.4188983 0.058532968 -0.83514726 3.8732941e-39
-2.4222872 0.15043733 -0.81908661 1.7520757e-39
-2.4215341 0.12874667 -0.82202858 3.8736556e-39
-2.4209166 0.10048468 -0.81926274 3.965131e-39
-2.4205515 0.089164786 -0.82029229 3.8732927e-39
-2.4235752 0.1676635 -0.80422479 1.2907388e-39
-2.4229565 0.14718975 -0.80533201 2.3974451e-39
-2.4224055 0.12820037 -0.8059451 3.9658512e-39
-2.4219282 0.11268842 -0.80693835 3.9651338e-39
-2.4216807 0.10022461 -0.80526286 3.8729353e-39
-2.4244399 0.17078026 -0.79007018 1.5673257e-39
-2.4235423 0.14393444 -0.79308915 3.0424572e-39
-2.4232605 0.12813567 -0.79039663 3.9651295e-39
-2.4226458 0.11612643 -0.79561341 4.0573252e-39
-2.4224408 0.10380109 -0.79323584 4.0573238e-39
-2.4246974 0.15714742 -0.77865553 1.7517184e-39
-2.4243164 0.14484443 -0.77948636 3.2272072e-39
-2.4233046 0.1034673 -0.77739227 4.0576853e-39
-2.4255025 0.1632809 -0.76707351 2.2130567e-39
-2.4251184 0.14848346 -0.76672632 2.7658689e-39
-2.4279683 0.21759951 -0.7491793 2.489282e-39
-2.4274879 0.20266253 -0.75051683 1.8439154e-39
-2.4267838 0.1748123 -0.74951547 1.4754888e-39
-2.4263396 0.16358499 -0.75203109 2.2126951e-39
-2.4290347 0.23264296 -0.73726118 2.0286668e-39
-2.4275651 0.17760405 -0.73672253 1.5676858e-39
-2.4272728 0.16727 -0.73691207 2.213414e-39
-2.430192 0.24885802 -0.72427469 2.028664e-39
-2.4298017 0.2333618 -0.72369528 2.2130581e-39
-2.4296091 0.22170991 -0.72142977 2.3974493e-39
-2.4282715 0.17856832 -0.72437245 2.3052509e-39
-2.4310682 0.24865237 -0.70826608 2.0286654e-39
-2.4301295 0.21723588 -0.70977283 2.4896435e-39
-2.4291513 0.18300673 -0.71059918 2.4892792e-39
-2.43257 0.27888605 -0.69595695 2.5804014e-39
-2.4321427 0.26202604 -0.69537634 2.1208624e-39
-2.4318962 0.24906664 -0.6934427 2.0286654e-39
-2.4305916 0.2086951 -0.69715798 2.5818378e-39
-2.4304152 0.19590564 -0.69403803 2.6740334e-39
-2.4339573 0.29436329 -0.67843413 2.6733159e-39
-2.4333739 0.27992764 -0.68188131 2.7647913e-39
-2.4328642 0.26498562 -0.68374413 2.3045306e-39
-2.4315364 0.21202014 -0.68165219 2.5814776e-39
-2.4346988 0.29644087 -0.66600269 2.5811203e-39
-2.4319806 0.19988792 -0.66758817 2.7651514e-39
-2.4355228 0.30180579 -0.65369368 3.687828e-39
-2.4369094 0.32705051 -0.64101011 2.8577044e-39
-2.4364934 0.31512609 -0.64266694 2.7655088e-39
-2.4362743 0.29981467 -0.63906932 2.8573443e-39
-2.4380658 0.34056956 -0.62671024 3.1299739e-39
-2.4376404 0.32716325 -0.62780052 2.6700761e-39
-2.4372256 0.31422076 -0.62892729 3.1328521e-39
-2.4390523 0.34404898 -0.61052096 2.5750036e-39
-2.4401319 0.35870302 -0.59817415 3.4915551e-39
-2.4399025 0.34460151 -0.59536248 3.3078771e-39
-2.4394464 0.33580524 -0.59928781 2.20694e-39
-2.538173 1.5360068 0.59920937 4.4254113e-39
-2.5386174 1.5252248 0.61260033 4.1499006e-39
-2.53827 1.5096376 0.61400664 4.886388e-39
-2.5389154 1.5132234 0.62394816 3.2290177e-39
-2.5407279 1.5437528 0.64175129 3.1364633e-39
-2.5402062 1.528649 0.63975227 3.4134117e-39
-2.5416906 1.560203 0.65109199 3.0439061e-39
-2.5414593 1.5466191 0.65361178 3.1361032e-39
-2.5428841 1.5750551 0.66540891 3.9669456e-39
-2.542547 1.5609332 0.66627425 2.9517105e-39
-2.5422282 1.544547 0.66859555 3.0442663e-39
-2.5437608 1.5751675 0.68126839 2.9524308e-39
-2.5452433 1.6057951 0.69303191 2.8595149e-39
-2.5449197 1.5923748 0.69379288 3.4134103e-39
-2.5463946 1.6222337 0.70579994 3.3212161e-39
-2.5460343 1.6050067 0.70778179 2.767678e-39
-2.547225 1.623156 0.72041762 3.1361046e-39
-2.5468981 1.607952 0.72200352 2.7676794e-39
-2.5489485 1.6513165 0.73777711 2.8602351e-39
-2.5484498 1.6370972 0.73575771 2.3988941e-39
-2.5479307 1.6226685 0.7334668 2.4914512e-39
-2.5497401 1.6544665 0.75058585 2.8602351e-39
-2.5507705 1.6676383 0.76277208 2.9520706e-39
-2.5523307 1.6956633 0.77723604 2.6747649e-39
-2.5519123 1.6858175 0.7745102 2.3981752e-39
-2.5515761 1.6692824 0.77658468 2.4914512e-39
-2.5531735 1.6983171 0.7912212 2.7673206e-39
-2.5527625 1.6841272 0.79077667 2.2137839e-39
-2.5524516 1.6701027 0.79207098 2.3066998e-39
-2.5542667 1.7119989 0.80430192 2.3981794e-39
-2.5554531 1.731858 0.8160122 2.2137825e-39
-2.5550427 1.7140987 0.81734347 2.2137867e-39
-2.5562754 1.7330902 0.83032721 2.02975e-39
-2.555933 1.7185025 0.83132654 2.1215883e-39
-2.5570679 1.733778 0.84436977 2.3066984e-39
-2.5582385 1.7511598 0.85702163 1.8460734e-39
-2.5580542 1.737353 0.86051106 2.3063355e-39
-2.5590372 1.7532619 0.87048763 1.846072e-39
-2.5588224 1.7413403 0.87248188 1.8457147e-39
-2.5604703 1.7671056 0.88965446 1.9379117e-39
-2.5598979 1.7530991 0.88618594 1.6616821e-39
-2.5617726 1.7974529 0.89827663 1.9382746e-39
-2.5614517 1.7810239 0.90057945 2.2148629e-39
-2.5610976 1.7676578 0.90076751 2.2148573e-39
-2.5607421 1.7534655 0.90132433 1.6613234e-39
-2.5625842 1.7978256 0.91282988 1.9379159e-39
-2.5623126 1.7817074 0.91586757 2.2152203e-39
-2.5637662 1.8143584 0.92610759 1.6609675e-39
-2.5635045 1.8004795 0.9282217 1.6613262e-39
-2.5631206 1.7834716 0.92966336 2.3996143e-39
-2.5642819 1.8012999 0.94192594 1.4769364e-39
-2.5658243 1.8288435 0.95629799 1.7535218e-39
-2.5651016 1.8158052 0.94963133 1.476935e-39
-2.5680852 1.8838413 0.97014004 2.3063383e-39
-2.5679672 1.8721484 0.97377962 2.3066984e-39
-2.5672936 1.8608923 0.96712804 1.6613234e-39
-2.5669842 1.8451242 0.96930408 1.6616849e-39
-2.5689261 1.8869064 0.98389381 2.3988955e-39
-2.5685811 1.8722122 0.98489207 1.7531617e-39
-2.5680919 1.8588521 0.98262274 1.9375544e-39
-2.569849 1.8895875 0.99931479 1.7531617e-39
-2.5705817 1.8904728 1.0121791 1.8457161e-39
-2.5701804 1.8763678 1.0118716 1.476935e-39
-2.5716398 1.9088131 1.0223124 1.9375516e-39
-2.5714135 1.8953816 1.0248477 1.8457161e-39
-2.5731213 1.9226166 1.0423827 1.8460748e-39
-2.5725436 1.9096328 1.0383151 1.5691264e-39
-2.5722182 1.8983266 1.0379986 1.7531603e-39
-2.5747514 1.9664099 1.0503126 2.0301087e-39
-2.5744789 1.9513229 1.052825 1.7524414e-39
-2.5739238 1.9326652 1.0519753 1.8460748e-39
-2.5758483 1.9736304 1.0666509 1.3836575e-39
-2.575515 1.9649038 1.0649207 1.3836575e-39
-2.5744579 1.9383963 1.0588375 1.2925409e-39
-2.5771174 1.9968901 1.0781889 1.291822e-39
-2.5767314 1.9798603 1.0796024 1.1992663e-39
-2.5764937 1.9651908 1.0825381 1.2918234e-39
-2.5759816 1.9549094 1.0783283 1.2003467e-39
-2.5783918 2.0091128 1.0952725 1.3840191e-39
-2.5781064 1.9974295 1.0958703 1.3847379e-39
-2.5776451 1.9826146 1.0948228 1.2921836e-39
-2.576437 1.9559314 1.0860864 1.1996278e-39
-2.5790715 2.0101557 1.1070989 1.3847379e-39
-2.5788262 1.9969323 1.1091834 1.1999865e-39
-2.5804954 2.0287237 1.1237553 1.1070692e-39
-2.5799363 2.0143404 1.1207193 1.2918206e-39
-2.5796323 1.9987736 1.1229038 1.014875e-39
-2.5792594 1.9852206 1.1228369 1.1999851e-39
-2.5817344 2.0499034 1.1357758 1.4769335e-39
-2.5813911 2.0414083 1.133741 1.5691292e-39
-2.5811927 2.0274005 1.1370715 1.0152337e-39
-2.5826869 2.0579088 1.1491035 1.1077909e-39
-2.5823977 2.0418262 1.1518048 1.107428e-39
-2.5838499 2.0739532 1.1622776 8.3120401e-40
-2.5852983 2.0967698 1.1772871 1.1081524e-39
-2.5849373 2.087101 1.1755165 1.0155953e-39
-2.584759 2.0724804 1.1795108 9.2339823e-40
-2.585958 2.0922525 1.1914936 8.3048514e-40
-2.5874505 2.1183176 1.2056938 1.0155967e-39
-2.587002 2.1066647 1.2033166 7.3864824e-40
-2.587815 2.1081927 1.2173237 6.4609388e-40
-2.5890603 2.1232786 1.2324637 6.4609108e-40
-2.5887823 2.1114159 1.233283 6.4609108e-40
-2.588356 2.1009767 1.2307072 5.5425558e-40
-2.5898182 2.1252341 1.2452515 5.5389545e-40
-2.5913522 2.1422253 1.2646971 3.6914686e-40
-2.5907738 2.1336615 1.2584291 5.5389545e-40
-2.5934894 2.1965797 1.2766114 2.7622956e-40
-2.5924811 2.1726429 1.2701448 1.8475279e-40
-2.5921736 2.1565936 1.2725006 1.847542e-40
-2.5945241 2.2116597 1.2879326 2.7622956e-40
-2.5933559 2.1840854 1.2803624 9.2557165e-41
-2.5929685 2.1708982 1.2798526 1.8511433e-40
-2.6043684 2.3233302 1.4113964 3.5927401e-39
-2.6051538 2.3240781 1.4252832 1.3811296e-39
-2.6063573 2.3407564 1.4388793 3.2221569e-39
-2.6059127 2.3291624 1.4365427 3.5898632e-39
-2.6057715 2.3179977 1.4395028 4.5136132e-39
-2.6055381 2.3022683 1.4430474 6.080206e-39
-2.6049571 2.2876863 1.4397081 4.4224923e-39
-2.6044688 2.2733731 1.4379222 4.0533553e-39
-2.6066895 2.3321178 1.449176 4.513609e-39
-2.400104 -0.16811202 -1.0642142 3.5959897e-39
-2.3997424 -0.18216132 -1.0638334 3.5041542e-39
-2.399267 -0.19469199 -1.0662595 3.504157e-39
-2.4008868 -0.16726278 -1.0504252 3.5959911e-39
-2.4020851 -0.15072821 -1.0368506 3.6878308e-39
-2.4017799 -0.16437469 -1.0356388 3.0431761e-39
-2.403991 -0.1075121 -1.0236273 3.227926e-39
-2.4029212 -0.1501379 -1.0219631 3.2272086e-39
-2.4063795 -0.10566585 -0.9811815 3.6878252e-39
-2.4061401 -0.11946556 -0.97870231 3.5956282e-39
-2.4076362 -0.08840704 -0.9669103 3.7803838e-39
-2.407074 -0.10279386 -0.97000188 3.8718591e-39
-2.4069493 -0.11773352 -0.9648751 3.871499e-39
-2.4087458 -0.070396073 -0.95567459 3.5967128e-39
-2.4085407 -0.08441925 -0.95246273 3.6885455e-39
-2.4096601 -0.071021833 -0.93876982 3.5967114e-39
-2.4112048 -0.042797469 -0.92468947 3.6885469e-39
-2.4106631 -0.057106774 -0.92744654 3.6889056e-39
-2.41047 -0.070933871 -0.92411405 3.6885469e-39
-2.4123302 -0.026866173 -0.91213876 3.4126788e-39
-2.4120378 -0.042588808 -0.90967137 3.6885455e-39
-2.4116604 -0.055974804 -0.9099015 3.6885455e-39
-2.4132373 -0.023293091 -0.89743805 3.59671e-39
-2.4142773 -0.0073356978 -0.88645369 3.6892657e-39
-2.4141183 -0.01688139 -0.88461936 3.4130362e-39
-2.4154949 0.0066065006 -0.87124878 3.6892657e-39
-2.415139 -0.0058267959 -0.87155515 3.6892643e-39
-2.4162588 0.0080928998 -0.85811466 3.5052332e-39
-2.4171467 0.011188991 -0.84352964 3.7810998e-39
-2.4185774 0.036959093 -0.83030427 3.8732941e-39
-2.4181521 0.024394872 -0.83180892 3.9654897e-39
-2.4179518 0.010670152 -0.82866168 3.8729353e-39
-2.4201667 0.069842719 -0.81771731 3.9651338e-39
-2.4197874 0.052617956 -0.81608284 3.965131e-39
-2.4193149 0.039495863 -0.81817371 3.9651295e-39
-2.4232748 0.15058012 -0.80123013 1.9361082e-39
-2.4213538 0.084932148 -0.80363214 4.0576839e-39
-2.4209597 0.070260718 -0.80353111 3.964775e-39
-2.4204783 0.055633835 -0.80503792 4.1484446e-39
-2.4240954 0.15059172 -0.78633964 2.2126951e-39
-2.4221771 0.084876582 -0.78866637 4.056965e-39
-2.4218864 0.069482259 -0.78632981 4.0566119e-39
-2.4251637 0.16113879 -0.77216733 1.2907416e-39
-2.4249768 0.15052728 -0.77030933 2.766229e-39
-2.4240966 0.12883116 -0.77555764 3.9654911e-39
-2.4237545 0.11332961 -0.77409953 4.0576853e-39
-2.4230592 0.087671824 -0.77403063 4.0573252e-39
-2.4260561 0.1681664 -0.75944173 1.4754902e-39
-2.4248383 0.12627879 -0.76083273 4.1495222e-39
-2.4245975 0.11456826 -0.7594139 4.0573252e-39
-2.424041 0.10057876 -0.76260078 4.0573238e-39
-2.427191 0.18039745 -0.74488962 1.4754888e-39
-2.4266374 0.16135155 -0.74551988 2.2134126e-39
-2.426213 0.14449681 -0.74489272 4.3335519e-39
-2.4257076 0.13255383 -0.74815559 3.9662071e-39
-2.4253993 0.11840262 -0.74675 4.1498781e-39
-2.4250429 0.10239205 -0.74530715 4.1495208e-39
-2.4280574 0.18597029 -0.73191917 1.6598829e-39
-2.4273875 0.15959659 -0.73103714 1.843914e-39
-2.4270434 0.1474679 -0.73127955 3.7803768e-39
-2.4264262 0.13164714 -0.7346673 4.0580426e-39
-2.4258394 0.10459207 -0.73193657 4.1498795e-39
-2.4283037 0.17424454 -0.72164834 2.3974423e-39
-2.4280841 0.16143385 -0.71930075 2.6740306e-39
-2.4278874 0.1499355 -0.71718627 2.489282e-39
-2.4274502 0.136323 -0.71839017 4.1498781e-39
-2.4307463 0.2325858 -0.70616978 1.8439182e-39
-2.4304399 0.21632479 -0.70368338 2.2126979e-39
-2.4300215 0.20277706 -0.70457971 2.0283053e-39
-2.4289858 0.16442668 -0.70441753 2.3974423e-39
-2.4315383 0.23005787 -0.69053799 2.3048935e-39
-2.4312239 0.21624753 -0.68941545 2.5814776e-39
-2.4300108 0.18208718 -0.69454503 2.4892792e-39
-2.4298699 0.17156735 -0.69190097 2.4896351e-39
-2.4327636 0.248601 -0.67747045 2.396013e-39
-2.4323516 0.234529 -0.67798781 2.1205037e-39
-2.4320004 0.21782885 -0.67610419 2.7658689e-39
-2.4311914 0.19741909 -0.68069625 2.5814748e-39
-2.4308054 0.18380143 -0.68096656 2.5814748e-39
-2.4343052 0.27793634 -0.66399431 2.8573471e-39
-2.4340363 0.26294622 -0.6614604 2.76515e-39
-2.4336066 0.24974041 -0.66272926 2.3967304e-39
-2.432431 0.20940809 -0.66412407 2.9495427e-39
-2.4319084 0.19120303 -0.66461074 2.581479e-39
-2.4354198 0.28913644 -0.64930135 3.1346528e-39
-2.4350469 0.27699199 -0.6500625 3.2268484e-39
-2.434808 0.26359481 -0.64777404 2.2130567e-39
-2.4344492 0.24950565 -0.64731783 2.2134154e-39
-2.4327793 0.19798282 -0.65215367 2.76515e-39
-2.4362013 0.28840792 -0.63475406 2.5807602e-39
-2.4360218 0.27767494 -0.63270366 2.9473819e-39
-2.4356055 0.26575837 -0.634368 2.3963661e-39
-2.4375219 0.30857337 -0.62075561 2.5775204e-39
-2.4371421 0.29504502 -0.62095565 2.5771588e-39
-2.4388278 0.32560644 -0.60547751 2.1147416e-39
-2.4383209 0.31014973 -0.6070348 2.4835227e-39
-2.5382268 1.5176235 0.60927218 4.6108801e-39
-2.5381274 1.5052234 0.6136027 4.886388e-39
-2.5381436 1.4981178 0.61741269 4.8863894e-39
-2.538955 1.5007825 0.63082099 3.2290149e-39
-2.5398889 1.5130664 0.64169556 3.2283016e-39
-2.5397501 1.5028841 0.64421082 3.0442663e-39
-2.5410821 1.5279204 0.65601051 3.1364619e-39
-2.5407453 1.5127121 0.65741479 2.952072e-39
-2.5418944 1.5302742 0.66959012 3.0439089e-39
-2.5434508 1.5583018 0.68398339 2.7680409e-39
-2.5430777 1.5440396 0.68425888 3.1371836e-39
-2.5447538 1.5722922 0.70071489 3.0449865e-39
-2.5443215 1.5603065 0.69879365 2.6754837e-39
-2.5457325 1.5852712 0.71205986 2.6758425e-39
-2.5455296 1.5720093 0.71493506 3.6903587e-39
-2.5467308 1.5891131 0.72828245 3.136822e-39
-2.5477664 1.6073649 0.73805308 2.8595135e-39
-2.5475237 1.5921538 0.74117279 2.5829266e-39
-2.5493302 1.6358603 0.75234872 2.3988955e-39
-2.5491371 1.6208516 0.75626516 2.6758439e-39
-2.5486372 1.6081228 0.75348067 3.0446264e-39
-2.5505209 1.6508253 0.76655543 2.3992556e-39
-2.550199 1.635747 0.76817298 2.3988955e-39
-2.5498755 1.6199332 0.77011681 3.3215748e-39
-2.5513051 1.6491936 0.78159666 2.3066998e-39
-2.5510721 1.6346562 0.78455955 3.1371836e-39
-2.5520985 1.6533706 0.79393584 2.2145028e-39
-2.5518384 1.6379969 0.79681677 2.3063411e-39
-2.5542302 1.6961874 0.81145465 2.0290353e-39
-2.5538998 1.6827617 0.81209719 2.305981e-39
-2.5533054 1.6688457 0.80818933 2.3066998e-39
-2.5550323 1.6981003 0.82506776 2.2137853e-39
-2.5561242 1.7093917 0.83930421 2.1212282e-39
-2.5557833 1.6964139 0.83953416 2.2134252e-39
-2.5571454 1.722643 0.85128546 2.1212282e-39
-2.5576952 1.7161669 0.86446577 2.121947e-39
-2.5588646 1.7318496 0.87794119 2.0297486e-39
-2.5597627 1.7350627 0.89264858 2.1223058e-39
-2.5606923 1.7436867 0.90526259 2.5836412e-39
-2.5619605 1.7673613 0.91657466 1.6613234e-39
-2.5616157 1.7526163 0.91760671 1.6613234e-39
-2.5628326 1.7666982 0.93273139 1.9379131e-39
-2.5647044 1.7961476 0.95214063 1.7535232e-39
-2.5640152 1.7827616 0.94625497 1.8457175e-39
-2.5654449 1.8088371 0.95930886 1.6613276e-39
-2.5652535 1.7951282 0.96261716 1.8453601e-39
-2.5667007 1.8280358 0.97260654 1.5687718e-39
-2.5663819 1.8129352 0.97429371 1.6613262e-39
-2.5659823 1.7996088 0.97362846 1.6609675e-39
-2.5678611 1.8441265 0.98571432 1.8464377e-39
-2.5675623 1.8280839 0.98822975 1.4772937e-39
-2.5694809 1.8693129 1.002659 1.7535232e-39
-2.5690782 1.8580768 1.0009114 1.4772937e-39
-2.5687211 1.8444124 1.0011785 1.4772923e-39
-2.5683906 1.8287816 1.0029142 1.5694879e-39
-2.5706756 1.8853524 1.0164168 1.9375544e-39
-2.5699146 1.858714 1.0157741 1.6616849e-39
-2.5695934 1.8432838 1.0175725 1.8460776e-39
-2.5710337 1.8734483 1.028802 2.0304689e-39
-2.5719175 1.875285 1.0439341 1.4765748e-39
-2.5737727 1.9204752 1.0552607 1.8464349e-39
-2.5734103 1.9065255 1.055581 1.3843778e-39
-2.5730753 1.8922116 1.0565807 1.4769335e-39
-2.5753343 1.9490592 1.06947 1.3843792e-39
-2.5749516 1.9323071 1.0708113 1.5687718e-39
-2.5746577 1.919098 1.0720056 1.2925423e-39
-2.5741162 1.9060227 1.0686444 1.3847379e-39
-2.5761731 1.9493483 1.0845547 1.1999893e-39
-2.5758195 1.9353813 1.0850426 1.8464405e-39
-2.5751178 1.9066117 1.0865322 1.2925423e-39
-2.5778255 1.9781491 1.1003046 1.7531631e-39
-2.5774446 1.96788 1.0984672 1.1999879e-39
-2.5770323 1.9519531 1.0988626 1.1999879e-39
-2.5784886 1.9820573 1.1104066 1.6609661e-39
-2.578191 1.9669261 1.1124908 1.1996278e-39
-2.5797255 1.9827306 1.132529 1.6609647e-39
-2.5789926 1.9676324 1.1266915 1.1077895e-39
-2.5809202 2.0101123 1.1406728 1.0152337e-39
-2.5804515 1.9955384 1.1393731 1.0152337e-39
-2.5821221 2.0249071 1.1551712 1.3843764e-39
-2.5817561 2.0107784 1.1555177 1.5691278e-39
-2.5835998 2.0563431 1.1664487 9.230395e-40
-2.5832608 2.0422618 1.1672635 1.0152337e-39
-2.5829346 2.0261979 1.1692809 1.1992635e-39
-2.5844569 2.0551615 1.1825862 1.1070692e-39
-2.5841143 2.0415621 1.183098 1.014875e-39
-2.5855908 2.0733569 1.1941733 1.2003467e-39
-2.58531 2.0588946 1.1962274 9.2267937e-40
-2.5848181 2.0447652 1.1942877 1.014875e-39
-2.5869021 2.0861795 1.2116364 7.3864824e-40
-2.5860937 2.0729005 1.2035259 8.3084387e-40
-2.5878673 2.1041198 1.2202815 7.3828951e-40
-2.5876386 2.088227 1.2239904 1.0148764e-39
-2.5892477 2.115027 1.2399411 9.2340244e-40
-2.588778 2.104352 1.2366983 8.3084247e-40
-2.590013 2.1184444 1.2521485 6.4645121e-40
-2.5909464 2.1281104 1.2643081 4.6206275e-40
-2.5927691 2.1617963 1.2807316 9.2194229e-41
-2.5923085 2.147496 1.2794473 2.7731136e-40
-2.5915999 2.1364586 1.2720436 2.7731136e-40
-2.5938308 2.1786666 1.2916641 9.2917299e-41
-2.5931509 2.1649528 1.2860998 2.7766869e-40
-2.5927894 2.1518364 1.2860248 2.8025969e-45
-2.6055698 2.3222167 1.4337497 2.9488098e-39
-2.6046298 2.2925484 1.4313612 4.2391829e-39
-2.6041939 2.2800238 1.4296451 3.1328325e-39
-2.6040936 2.2676206 1.4339561 3.3168707e-39
-2.6057212 2.3085918 1.443236 4.6083171e-39
-2.6052759 2.2979367 1.4404294 4.6090388e-39
-2.604048 2.2528739 1.4404212 3.5016193e-39
-2.6039486 2.2429664 1.4435161 5.5295602e-39
-2.3994293 -0.20297509 -1.0592159 3.22721e-39
-2.3984642 -0.22906829 -1.0638363 3.4119544e-39
-2.4006841 -0.18568783 -1.0449864 3.2275715e-39
-2.4002328 -0.20069993 -1.0457588 3.2272114e-39
-2.4015844 -0.18275066 -1.0301011 3.1350144e-39
-2.4011972 -0.20009016 -1.0285573 2.9506217e-39
-2.4058735 -0.13566473 -0.9755336 3.6878294e-39
-2.4068553 -0.1267639 -0.96211398 3.7796635e-39
-2.4083223 -0.10438678 -0.94655472 3.6885441e-39
-2.4078257 -0.11870027 -0.94849253 3.7803796e-39
-2.4094038 -0.090213567 -0.93393004 3.6889028e-39
-2.4103107 -0.086444505 -0.91933483 3.59671e-39
-2.4113314 -0.072173402 -0.90786177 3.5963512e-39
-2.4128537 -0.046172641 -0.89308614 3.7800222e-39
-2.4124956 -0.057554949 -0.89396203 3.6885469e-39
-2.4122038 -0.071841218 -0.8921929 3.6885483e-39
-2.4140315 -0.025679875 -0.88184428 3.6885441e-39
-2.413835 -0.040549416 -0.87805718 3.7800222e-39
-2.4134197 -0.053632688 -0.87912542 3.8722165e-39
-2.4149821 -0.026593018 -0.86413699 3.6885441e-39
-2.4160318 -0.0090239951 -0.85377014 3.8729339e-39
-2.4158218 -0.022072073 -0.85113466 3.5970673e-39
-2.4167919 -0.010955009 -0.83902049 3.7810984e-39
-2.4176278 -0.0063867513 -0.82610953 3.6889056e-39
-2.4191828 0.024097957 -0.81295449 3.9647722e-39
-2.4188387 0.0088804103 -0.8116805 3.8729367e-39
-2.4203856 0.036726031 -0.79737347 4.056249e-39
-2.4200697 0.022742974 -0.79618806 4.0566077e-39
-2.4215367 0.055052049 -0.78554076 4.0569692e-39
-2.4213109 0.040437602 -0.78240854 4.0566049e-39
-2.4227631 0.068658613 -0.77000809 4.0569664e-39
-2.4225228 0.05570164 -0.76796031 4.1488033e-39
-2.4222083 0.047979474 -0.76984888 4.056965e-39
-2.4239471 0.083424799 -0.75581843 4.0573238e-39
-2.4236152 0.070658781 -0.75552881 4.0569664e-39
-2.4270618 0.16391595 -0.73908776 1.5673271e-39
-2.4265869 0.15088528 -0.74126261 2.6740348e-39
-2.4248512 0.086952247 -0.7411496 4.0576853e-39
-2.4244545 0.069353573 -0.73965085 4.0580426e-39
-2.4279673 0.16577916 -0.72357345 1.8442685e-39
-2.4275682 0.15134826 -0.7236796 3.5041514e-39
-2.4262612 0.11630876 -0.73007703 4.1498781e-39
-2.4256401 0.088602155 -0.72764838 4.0576853e-39
-2.4270561 0.11470038 -0.71485478 4.2417136e-39
-2.4267724 0.10275766 -0.71409523 4.2417136e-39
-2.4297316 0.1805668 -0.69886082 1.6595171e-39
-2.4294603 0.17198046 -0.69954067 1.936104e-39
-2.4292302 0.16331583 -0.6994316 2.4896393e-39
-2.4288189 0.14549601 -0.69808352 4.6094214e-39
-2.4282343 0.13398874 -0.70300263 4.0576853e-39
-2.4279912 0.11966037 -0.70033282 4.1502397e-39
-2.4298472 0.16064402 -0.68691069 1.9361068e-39
-2.4296732 0.15331598 -0.68644226 4.6094228e-39
-2.4289637 0.13321702 -0.6893841 4.4261077e-39
-2.4321442 0.20254974 -0.66594321 1.9353936e-39
-2.43098 0.17777604 -0.67481929 2.5814776e-39
-2.430614 0.16338882 -0.67434889 2.4892792e-39
-2.4299381 0.13421121 -0.67218423 4.7016128e-39
-2.4334381 0.23071723 -0.65637898 2.0283081e-39
-2.4330294 0.21839452 -0.65770876 2.4885659e-39
-2.4326441 0.20222943 -0.65670609 2.3967276e-39
-2.4318106 0.17691098 -0.6593166 2.5814762e-39
-2.4315183 0.16210197 -0.65729809 2.4892806e-39
-2.4342504 0.23380862 -0.64316332 2.1205023e-39
-2.4337807 0.21669558 -0.64323181 2.9495385e-39
-2.4333351 0.20867853 -0.64735502 2.7655102e-39
-2.4330828 0.19057943 -0.64298481 1.9357453e-39
-2.4325125 0.17962912 -0.64792341 2.5814776e-39
-2.4353318 0.24793415 -0.63052183 2.3952885e-39
-2.4341371 0.20687169 -0.63190222 2.8537401e-39
-2.4338284 0.19519769 -0.63173068 2.9480966e-39
-2.4367089 0.27282378 -0.61783624 2.7608298e-39
-2.4365122 0.26187262 -0.61598724 2.4838842e-39
-2.434695 0.19425263 -0.61553448 2.9459386e-39
-2.438031 0.29083008 -0.60274303 2.1147387e-39
-2.5350332 1.454551 0.58250064 2.2130567e-39
-2.5346167 1.4402193 0.58202708 2.9502742e-39
-2.5342305 1.4274464 0.58133245 3.5023718e-39
-2.5351346 1.4420888 0.5905003 4.7016366e-39
-2.5370393 1.4714427 0.61055881 4.1495474e-39
-2.5366228 1.4566733 0.6102984 4.0584266e-39
-2.5380354 1.4873811 0.62075627 4.6115976e-39
-2.537703 1.4723212 0.62216526 4.7020009e-39
-2.5389071 1.4902359 0.63516587 3.2283016e-39
-2.5385268 1.4768099 0.6348998 4.0580637e-39
-2.5382524 1.459698 0.63838148 4.1509796e-39
-2.539794 1.4908065 0.65098417 3.1364647e-39
-2.5394208 1.4754751 0.65179551 3.1364689e-39
-2.5406449 1.4950912 0.66430622 3.136106e-39
-2.5421884 1.5221369 0.67895293 2.859875e-39
-2.5415521 1.507205 0.67478806 3.0442677e-39
-2.5429127 1.523658 0.69134498 2.8598764e-39
-2.544157 1.5394287 0.70612818 2.7676808e-39
-2.5451934 1.5570785 0.71621287 2.6754837e-39
-2.5449271 1.5423536 0.71866566 2.6754837e-39
-2.5463603 1.5729191 0.72956479 3.4137733e-39
-2.5460706 1.5563067 0.73251861 2.8602365e-39
-2.5472715 1.5712413 0.74693441 3.0449865e-39
-2.5469086 1.5568655 0.74745655 2.3988983e-39
-2.5484161 1.5874901 0.75967687 2.9524294e-39
-2.5480907 1.5721505 0.76135087 2.4914512e-39
-2.5494728 1.6009293 0.77220678 2.859875e-39
-2.5492675 1.5876229 0.77506238 2.4914484e-39
-2.5489061 1.5736285 0.77542585 2.3992528e-39
-2.5506964 1.6165284 0.7867049 2.6758439e-39
-2.5502517 1.6038463 0.78490138 2.30706e-39
-2.5514815 1.6203014 0.79908657 2.3981752e-39
-2.553061 1.6517473 0.81220877 2.2141441e-39
-2.5528255 1.635736 0.81585217 2.7673192e-39
-2.5546293 1.6800754 0.82666808 2.2141441e-39
-2.5543213 1.6645733 0.82874203 3.0442705e-39
-2.553834 1.6502365 0.82698447 2.2141455e-39
-2.553592 1.6363437 0.82946593 2.2137853e-39
-2.5554621 1.6800399 0.84180093 2.582928e-39
-2.555146 1.6652206 0.84338951 2.30706e-39
-2.5547936 1.6508909 0.84408021 2.8605967e-39
-2.557065 1.7092159 0.8564657 2.305981e-39
-2.5564761 1.6944526 0.85307568 2.1212296e-39
-2.5563412 1.6800095 0.85776806 2.2137825e-39
-2.5579758 1.7144728 0.87039793 2.0293927e-39
-2.5574665 1.6970054 0.8697921 2.2137825e-39
-2.5586386 1.7121806 0.88356191 2.2141427e-39
-2.5595462 1.7154243 0.89843255 2.3985353e-39
-2.5605936 1.7304626 0.91000867 1.9371942e-39
-2.561789 1.7453997 0.924321 2.3070544e-39
-2.5626011 1.7475809 0.93798667 1.753519e-39
-2.5638301 1.762614 0.95285809 2.2144986e-39
-2.5650034 1.7778914 0.9666 1.9375544e-39
-2.5646226 1.7636874 0.96671414 2.3066942e-39
-2.564265 1.7495599 0.96720779 1.7531589e-39
-2.5661919 1.7910732 0.98165208 1.5694907e-39
-2.5658171 1.7785039 0.98106569 1.6613248e-39
-2.5675495 1.8166263 0.99365997 1.569132e-39
-2.5671647 1.8073579 0.99125832 1.569132e-39
-2.5669935 1.7939951 0.99475855 1.6616863e-39
-2.5681317 1.8111168 1.0069513 1.4772937e-39
-2.5692296 1.829385 1.017843 1.5698466e-39
-2.5690589 1.8180586 1.0203478 1.4776538e-39
-2.5708883 1.8551536 1.0352083 1.3843806e-39
-2.5704341 1.8438123 1.0325744 1.7535204e-39
-2.5700555 1.8292943 1.0328826 1.5687718e-39
-2.5717056 1.8581703 1.0485517 1.5687704e-39
-2.5711956 1.8426787 1.0469574 1.4769335e-39
-2.5727763 1.8751981 1.0595667 1.5687704e-39
-2.5725348 1.8618956 1.061759 1.4769335e-39
-2.5740068 1.8886505 1.0752501 1.2921822e-39
-2.573657 1.8754225 1.0754404 1.6613262e-39
-2.5755181 1.9191242 1.0876149 1.3840205e-39
-2.5748153 1.8895442 1.0894803 1.4769335e-39
-2.5745051 1.8744744 1.0913087 1.4762133e-39
-2.5767384 1.9319574 1.103417 1.3843806e-39
-2.5764031 1.9191533 1.1036642 1.5691292e-39
-2.5759673 1.9050863 1.1027064 1.3843778e-39
-2.5783384 1.9604572 1.1183622 1.3843792e-39
-2.5778339 1.9447464 1.1169763 1.1999865e-39
-2.5788221 1.9505719 1.132033 1.2003439e-39
-2.5785432 1.9423801 1.131023 1.015954e-39
-2.5802295 1.9808797 1.1425918 1.199625e-39
-2.5798337 1.9635408 1.1439844 1.2925395e-39
-2.5815501 1.9936234 1.1602578 1.2921808e-39
-2.5810523 1.9820951 1.1569232 1.1077881e-39
-2.5807261 1.9668788 1.158532 1.2918206e-39
-2.5826156 2.0106018 1.171208 1.199625e-39
-2.5823679 1.9969662 1.1734513 1.3840163e-39
-2.5817223 1.9817419 1.1692591 1.199625e-39
-2.5846281 2.0502765 1.1881164 1.199625e-39
-2.5837803 2.0265534 1.1844519 1.3843792e-39
-2.5836339 2.0124018 1.1887975 1.1070706e-39
-2.5831487 1.9984896 1.1868684 1.3843778e-39
-2.5846484 2.0256267 1.2006717 1.3840177e-39
-2.5843384 2.0101213 1.2027125 1.4765734e-39
-2.5865138 2.0707836 1.2122028 1.2903871e-39
-2.5862148 2.0544186 1.2148647 1.1996278e-39
-2.5856583 2.0399504 1.2119206 1.5684117e-39
-2.5880809 2.099169 1.2266061 7.3828951e-40
-2.5874701 2.0697386 1.2300758 1.1992677e-39
-2.5890493 2.0998995 1.2438258 7.3864684e-40
-2.588563 2.0838897 1.2429181 1.2914619e-39
-2.5898423 2.1024637 1.2569532 9.230381e-40
-2.5911255 2.1303132 1.2664688 7.3756364e-40
-2.5905597 2.1150446 1.2637478 7.3864824e-40
-2.6044269 2.2745538 1.4365784 3.1324794e-39
-2.6040699 2.2611134 1.4367479 3.5012591e-39
-2.6040983 2.2490613 1.4432199 4.0547888e-39
-2.6039238 2.2372346 1.4459014 4.4239315e-39
-2.6034772 2.2243454 1.4441689 4.7015946e-39
-2.6029499 2.2095375 1.4419209 6.1752869e-39
-2.3985069 -0.22344424 -1.0658407 3.4119558e-39
-2.3981078 -0.23697124 -1.0663922 3.4115956e-39
-2.3994274 -0.21912003 -1.0512643 3.3197601e-39
-2.3990018 -0.23700969 -1.0501484 2.7673066e-39
-2.4001489 -0.2181478 -1.0386552 3.3194042e-39
-2.3997951 -0.2346867 -1.0368979 3.5041556e-39
-2.4010921 -0.21029554 -1.0254163 3.4115998e-39
-2.4055886 -0.15389232 -0.97169095 3.5959911e-39
-2.4052427 -0.16833897 -0.97082603 3.6878266e-39
-2.4049094 -0.1835085 -0.96937507 3.6878252e-39
-2.4045041 -0.19585162 -0.97062308 3.6881839e-39
-2.4067409 -0.13748725 -0.95888984 3.7803824e-39
-2.4063559 -0.15241286 -0.95849806 3.6881867e-39
-2.4075768 -0.1375539 -0.94368166 3.6881839e-39
-2.4091113 -0.10716609 -0.93085825 3.6892601e-39
-2.4088132 -0.12277286 -0.92854643 3.5041514e-39
-2.4099231 -0.10662523 -0.91638815 3.6885455e-39
-2.4096463 -0.12271547 -0.91345894 3.5963498e-39
-2.4111438 -0.092001021 -0.90146428 3.6881867e-39
-2.4108303 -0.10751625 -0.89948082 3.6885455e-39
-2.4120331 -0.089048401 -0.88678497 3.7803824e-39
-2.4131451 -0.074335001 -0.8738783 3.7803824e-39
-2.4128003 -0.08971145 -0.87252825 3.6885455e-39
-2.4147093 -0.04592897 -0.85952938 3.7807411e-39
-2.4141531 -0.060569838 -0.86238593 3.8725766e-39
-2.4139848 -0.074520379 -0.8585422 3.8725766e-39
-2.4155874 -0.042105589 -0.84547997 3.8729353e-39
-2.4151702 -0.059372596 -0.84451383 3.9647694e-39
-2.4165993 -0.028898677 -0.83364284 3.8729353e-39
-2.4174874 -0.025971351 -0.81897283 3.6885455e-39
-2.4186099 -0.010374254 -0.80631077 3.8729353e-39
-2.4197671 0.0035206825 -0.79217798 3.7803782e-39
-2.4194705 -0.0097343866 -0.79100561 3.5963498e-39
-2.4209661 0.021332636 -0.77921981 4.1491607e-39
-2.4205222 0.0073534478 -0.78036773 4.0566049e-39
-2.4202833 -0.0081477491 -0.77703643 3.7803796e-39
-2.4221036 0.038283598 -0.76695144 4.0566049e-39
-2.4218199 0.021926105 -0.76401436 4.056965e-39
-2.4232924 0.053317789 -0.75281239 4.0573252e-39
-2.4229226 0.03822704 -0.75206298 4.0569608e-39
-2.4226625 0.021845175 -0.74868447 3.8729353e-39
