# .PCD v0.7 - Point Cloud Data file format
VERSION 0.7
FIELDS x y z rgb
SIZE 4 4 4 4
TYPE F F F F
COUNT 1 1 1 1
WIDTH 1001
HEIGHT 1
VIEWPOINT 0 0 0 1 0 0 0
POINTS 1001
DATA ascii
-2.6788697 0.17101784 -0.6291368 1.0839105e-38
-2.678364 0.15636291 -0.62755519 1.1479437e-38
-2.6790166 0.19674827 -0.61566091 1.1571996e-38
-2.6778276 0.1574917 -0.61505359 1.1387604e-38
-2.6774769 0.14589055 -0.61488289 1.1387603e-38
-2.6785014 0.20184423 -0.60105449 1.212229e-38
-2.678169 0.21065356 -0.58804971 1.2122653e-38
-2.6768208 0.16573946 -0.58761227 1.1113174e-38
-2.6764789 0.1512417 -0.58951932 1.14798e-38
-2.6774163 0.20687854 -0.57398421 6.1537013e-39
-2.6771963 0.21979612 -0.56077385 6.7965526e-39
-2.6766961 0.20650859 -0.55842298 6.7969127e-39
-2.6762693 0.18981226 -0.55990094 1.1115336e-38
-2.676048 0.18238477 -0.55986458 1.1665276e-38
-2.6756363 0.1677849 -0.56031013 1.1573439e-38
-2.6770072 0.23565827 -0.54633558 7.6230777e-39
-2.6767309 0.22363679 -0.54807079 6.9798648e-39
-2.6761055 0.2083614 -0.54427016 6.796554e-39
-2.676923 0.25234887 -0.53365827 6.8887552e-39
-2.6763237 0.23673698 -0.5306372 8.6339842e-39
-2.6772511 0.28307727 -0.52091765 6.6132389e-39
-2.6769116 0.27081034 -0.52143043 6.7061576e-39
-2.6764486 0.25664213 -0.52046603 6.8894727e-39
-2.6759529 0.2429283 -0.51849258 7.9911371e-39
-2.6766489 0.28474706 -0.50662261 6.7965554e-39
-2.6761055 0.27137843 -0.50338018 7.3490089e-39
-2.6758204 0.25767657 -0.50601166 7.0731451e-39
-2.6764598 0.29944912 -0.49292871 9.1878824e-39
-2.676024 0.28535518 -0.4925144 7.1649764e-39
-2.6754141 0.2696425 -0.48933879 7.0735052e-39
-2.6758265 0.30106449 -0.47799399 8.0847733e-39
-2.6754107 0.28622857 -0.47850275 7.3493676e-39
-2.6758242 0.31894872 -0.46633109 7.7174327e-39
-2.6748543 0.2882413 -0.46498677 7.3493676e-39
-2.6747355 0.30579618 -0.45099077 7.7163481e-39
-2.6744308 0.29187721 -0.45333859 7.9014596e-39
-2.6746349 0.32252994 -0.43792865 9.372631e-39
-2.674149 0.30867359 -0.43626073 7.9925734e-39
-2.6749506 0.35241166 -0.42546585 9.0034898e-39
-2.6739705 0.32321092 -0.42290831 8.5443081e-39
-2.6739762 0.34130979 -0.41129121 9.0034884e-39
-2.6735716 0.33108893 -0.40904173 9.6470585e-39
-2.6737599 0.35595873 -0.39703682 1.0473944e-38
-2.673178 0.34080818 -0.39410406 9.0953253e-39
-2.674047 0.38539821 -0.38423017 1.3966214e-38
-2.6731641 0.35716513 -0.38319042 9.4623085e-39
-2.6724803 0.34016669 -0.37921873 9.3708304e-39
-2.6731641 0.38347995 -0.3661153 1.0749087e-38
-2.6729441 0.37080967 -0.36950985 1.0748727e-38
-2.6723263 0.3557784 -0.36571234 9.5545055e-39
-2.6732006 0.40082309 -0.35566095 1.0014403e-38
-2.6726069 0.38511673 -0.3528271 1.0749445e-38
-2.6721649 0.37127638 -0.35211745 1.0106235e-38
-2.6729171 0.41534323 -0.34001791 1.0106599e-38
-2.6726432 0.42609599 -0.32703251 1.0106958e-38
-2.6727455 0.44822943 -0.31491077 1.0474302e-38
-2.6722157 0.43294865 -0.31320825 1.029063e-38
-2.6725969 0.46392503 -0.30146948 1.0566499e-38
-2.6720276 0.44849178 -0.29899999 1.0382107e-38
-2.6718762 0.46371296 -0.28580192 1.0474304e-38
-2.6716838 0.47935802 -0.2714307 1.0657975e-38
-2.6711195 0.48208117 -0.25727698 1.0842006e-38
-2.6710315 0.49702516 -0.24565332 1.0657979e-38
-2.6708767 0.51450258 -0.23092084 1.1117518e-38
-2.670522 0.50265181 -0.23082475 1.0750173e-38
-2.6572413 0.96050507 0.35759553 1.0929147e-38
-2.6562099 0.95292693 0.37529904 1.1849664e-38
-2.6554775 0.94831765 0.38837317 1.2038384e-38
-2.6548173 0.9458639 0.40126753 1.379948e-38
-2.6541903 0.94769114 0.41620922 1.1416439e-38
-2.6558373 1.0275176 0.4318738 9.3982173e-39
-2.6551173 1.0008327 0.43035617 1.0596398e-38
-2.6536763 0.95166409 0.43006092 1.206972e-38
-2.6551244 1.0155469 0.43974933 1.2443195e-38
-2.6544363 0.99897844 0.44408274 1.0688972e-38
-2.6539209 0.9907397 0.45004967 1.1335399e-38
-2.6539912 0.97858 0.44061702 1.1521236e-38
-2.653338 0.96235752 0.44442666 1.0965194e-38
-2.653353 0.97952932 0.45523342 1.0690761e-38
-2.6529453 0.99119276 0.47174659 6.2632268e-39
-2.6526723 0.98257822 0.47214743 6.5394171e-39
-2.6527438 1.1093564 0.55283982 7.178639e-39
-2.6520653 1.1078947 0.56677556 7.1775684e-39
-2.6513116 1.10399 0.58077103 7.3688163e-39
-2.650924 1.0892678 0.5797236 1.2531081e-38
-2.6503401 1.0773652 0.58480465 8.9415468e-39
-2.6500232 1.0630563 0.5824753 8.0141688e-39
-2.6497912 1.0774679 0.59691435 1.2904528e-38
-2.6495945 1.0701007 0.59645641 1.1064566e-38
-2.679976 0.14835289 -0.6681093 4.8683603e-39
-2.6792264 0.14712977 -0.6524604 2.1122164e-39
-2.6781805 0.13762759 -0.63568169 9.6434502e-39
-2.6782887 0.16622204 -0.61950165 1.1846786e-38
-2.6778316 0.15325584 -0.61789149 1.1387604e-38
-2.6776388 0.14070833 -0.62179846 1.1203932e-38
-2.6773036 0.12534878 -0.6244117 1.0928424e-38
-2.6770113 0.15669584 -0.59765792 1.1479441e-38
-2.6759036 0.11881746 -0.59794176 9.0024024e-39
-2.6753967 0.10375147 -0.59659863 1.0745117e-38
-2.677604 0.19723362 -0.58435661 1.2030458e-38
-2.6765802 0.16501965 -0.58280319 1.193898e-38
-2.67626 0.14462224 -0.58901495 1.0470688e-38
-2.6757717 0.13177831 -0.58663613 1.047069e-38
-2.6767251 0.19075122 -0.56928813 1.2123017e-38
-2.6760843 0.16004683 -0.57515192 1.1938982e-38
-2.6754262 0.14930606 -0.56768942 1.1755309e-38
-2.6749277 0.13314936 -0.56723714 1.1939705e-38
-2.6762626 0.19641964 -0.55546272 1.2491802e-38
-2.6750753 0.16044281 -0.55276352 1.20319e-38
-2.6749783 0.15401155 -0.55480659 1.1940061e-38
-2.6758108 0.2024436 -0.54164267 1.2491805e-38
-2.6751683 0.17987658 -0.54219252 1.1665993e-38
-2.6749461 0.16446973 -0.54731625 1.1299367e-38
-2.6758692 0.22270213 -0.52977645 6.9802222e-39
-2.6753604 0.2072497 -0.52864313 8.9091333e-39
-2.6745377 0.18201393 -0.52696896 1.2217368e-38
-2.6741657 0.16832151 -0.52769959 1.2217727e-38
-2.6751237 0.22087862 -0.51461166 7.0724178e-39
-2.6745968 0.20702247 -0.5120455 1.3134659e-38
-2.6739836 0.18467033 -0.51309496 1.2674391e-38
-2.6749465 0.23696233 -0.50028223 7.8074647e-39
-2.6746495 0.22422691 -0.50203186 7.2560888e-39
-2.6734059 0.18601792 -0.49954498 1.3134298e-38
-2.6749029 0.25417691 -0.48815852 7.348653e-39
-2.6746397 0.26785448 -0.47350958 7.3493704e-39
-2.6741395 0.27093723 -0.46053717 7.1656966e-39
-2.6739333 0.28658873 -0.44585514 7.6237937e-39
-2.6733944 0.27137303 -0.44390643 7.3490117e-39
-2.6741412 0.31497833 -0.43199682 8.8201747e-39
-2.6733761 0.28804591 -0.4326908 7.9925748e-39
-2.6730957 0.30319872 -0.41670662 8.3599168e-39
-2.6725953 0.28799504 -0.41559249 7.5315953e-39
-2.6721973 0.27483144 -0.41540861 7.991856e-39
-2.6729922 0.31785539 -0.40492663 8.4521111e-39
-2.6725211 0.30483532 -0.40304056 8.6361436e-39
-2.6726341 0.32455319 -0.39272374 8.7286965e-39
-2.6722252 0.31442523 -0.39033017 8.4517481e-39
-2.6719832 0.32576412 -0.37765878 9.0034856e-39
-2.6717346 0.33917919 -0.36350062 9.2782774e-39
-2.6715379 0.35457203 -0.3491964 9.554144e-39
-2.6723423 0.39902502 -0.33799729 1.0106237e-38
-2.6717498 0.38304314 -0.33537403 1.0197713e-38
-2.6715493 0.36931399 -0.33988616 9.8307295e-39
-2.671663 0.39694163 -0.32444692 1.0105877e-38
-2.6710899 0.38365039 -0.32050341 9.9222049e-39
-2.6714017 0.41349417 -0.3079747 1.0198073e-38
-2.6708462 0.39787793 -0.30592179 1.1391934e-38
-2.6712825 0.44759381 -0.28323239 1.0290273e-38
-2.6701846 0.47944543 -0.23848434 1.0841289e-38
-2.6699905 0.47099134 -0.23970763 1.0473588e-38
-2.6558208 0.94437057 0.37828189 1.2037647e-38
-2.654896 0.93520761 0.3926225 1.0116316e-38
-2.6545546 0.9456169 0.40686864 1.0217154e-38
-2.6539137 0.94540584 0.42078507 1.0776449e-38
-2.6534746 0.95384371 0.43589896 1.2072262e-38
-2.653806 0.98327881 0.44773132 1.1428325e-38
-2.6533997 0.96867955 0.44717038 1.105775e-38
-2.6527696 0.9582606 0.45422983 1.0874803e-38
-2.6519706 0.9318819 0.45463979 1.2168055e-38
-2.6517122 0.91628838 0.45018995 1.7611176e-38
-2.6538694 0.99821138 0.45602345 6.2617456e-39
-2.6530576 0.98143262 0.46294874 9.494736e-39
-2.6522501 0.94553775 0.45737121 1.6131724e-38
-2.6513956 0.93411708 0.468707 5.1582833e-39
-2.653105 1.0017017 0.47505942 5.1553953e-39
-2.6526871 0.98806512 0.47538048 2.9437988e-39
-2.6513386 0.94546402 0.47731569 4.7895078e-39
-2.6517236 0.97857422 0.49035645 6.356074e-39
-2.6511605 0.96451366 0.49358392 3.1234831e-39
-2.6514997 1.0948609 0.57072222 9.5818813e-39
-2.6504958 1.0702903 0.57680392 5.8976406e-39
-2.6505306 1.085004 0.58558339 8.0170793e-39
-2.6497612 1.0584025 0.58520103 6.5404821e-39
-2.6495235 1.0445842 0.58144695 7.738305e-39
-2.6489005 1.0313185 0.58650559 8.940095e-39
-2.6500325 1.0895066 0.59943336 1.3550972e-38
-2.6496036 1.0737575 0.59862494 1.2446773e-38
-2.648963 1.058131 0.60253894 1.2812321e-38
-2.6484351 1.0365393 0.60010248 8.9436964e-39
-2.6774263 0.12001716 -0.63056892 1.1112099e-38
-2.6766889 0.1176742 -0.6159116 1.1020262e-38
-2.6771121 0.14854996 -0.60516036 1.1663112e-38
-2.6769114 0.13462126 -0.60979205 1.1479443e-38
-2.6761291 0.11138433 -0.60771626 1.0745117e-38
-2.6755795 0.095294878 -0.60609603 1.0928786e-38
-2.6752777 0.08292795 -0.60750002 1.1020622e-38
-2.6747451 0.067971423 -0.6055209 1.1020261e-38
-2.6765604 0.15048438 -0.59180403 1.1754945e-38
-2.6757495 0.12397912 -0.59121561 1.102098e-38
-2.67642 0.16598061 -0.57866782 1.1938982e-38
-2.6760888 0.15416397 -0.57907027 1.193898e-38
-2.675601 0.1380046 -0.57885754 1.1020981e-38
-2.6749825 0.12737417 -0.57218987 1.1939705e-38
-2.6759434 0.16732539 -0.56734222 1.2123734e-38
-2.6752813 0.15569764 -0.56035906 1.20319e-38
-2.6747723 0.14293376 -0.55747706 1.0839834e-38
-2.674439 0.12209438 -0.56368536 1.0930948e-38
-2.6759453 0.19278395 -0.55086607 1.2676194e-38
-2.6751435 0.16799067 -0.54936022 1.2123734e-38
-2.6742916 0.13006034 -0.55528426 1.074835e-38
-2.675293 0.19218729 -0.53694355 1.2768026e-38
-2.6743736 0.1579731 -0.53897136 1.1941501e-38
-2.6733735 0.13110878 -0.53446752 1.2307408e-38
-2.6725898 0.10496254 -0.53424019 1.1755313e-38
-2.6748528 0.19858602 -0.5231294 1.2766947e-38
-2.6732798 0.14875005 -0.52096176 1.2398885e-38
-2.6728482 0.13396125 -0.52109134 1.2123373e-38
-2.6724014 0.12004703 -0.52032423 1.2215569e-38
-2.6742575 0.19987212 -0.5092361 1.3042464e-38
-2.6726069 0.14877553 -0.50618547 1.148376e-38
-2.6738386 0.20574936 -0.49623525 1.3135011e-38
-2.6730053 0.17983735 -0.49477488 1.3042101e-38
-2.6725852 0.16496696 -0.49520236 1.2216294e-38
-2.6741395 0.23594464 -0.48324499 9.1853601e-39
-2.6736236 0.22124034 -0.48146397 1.028739e-38
-2.673249 0.20912644 -0.48110753 1.3594188e-38
-2.6721218 0.17123719 -0.48096675 1.1942583e-38
-2.6740181 0.25205719 -0.47012755 7.2568147e-39
-2.6735003 0.23669769 -0.46873212 9.2768369e-39
-2.6726494 0.21047302 -0.46708497 1.3777503e-38
-2.6732473 0.25137702 -0.45365873 7.532324e-39
-2.6724606 0.22494133 -0.45355481 7.8985813e-39
-2.6727335 0.25503772 -0.44001371 7.5319652e-39
-2.6721399 0.23798649 -0.43805456 9.7352969e-39
-2.6726038 0.26956245 -0.42774293 7.7163537e-39
-2.6721961 0.28562161 -0.40837952 8.2662849e-39
-2.6717305 0.27268958 -0.40655491 8.0836957e-39
-2.6717458 0.26354048 -0.41282892 7.7163537e-39
-2.6719906 0.29256886 -0.39936486 8.2662849e-39
-2.6718209 0.30499572 -0.38757282 8.819453e-39
-2.6714449 0.29548308 -0.38549665 8.3595581e-39
-2.6715469 0.31824309 -0.37297329 8.8198118e-39
-2.671149 0.30306149 -0.37409237 8.910927e-39
-2.6709385 0.32180092 -0.3573159 8.9109312e-39
-2.6707754 0.33502981 -0.34515616 9.2789949e-39
-2.6710999 0.36582503 -0.33229032 9.6466984e-39
-2.6706707 0.35217634 -0.33172965 9.6466984e-39
-2.6702707 0.33839616 -0.3318983 9.4626644e-39
-2.6705117 0.36635771 -0.31904048 9.7385339e-39
-2.6700642 0.35263845 -0.31812751 9.6456236e-39
-2.6702063 0.37946281 -0.30384082 1.0197353e-38
-2.669668 0.3656629 -0.30098 1.0840926e-38
-2.6700647 0.39865723 -0.28827804 1.010588e-38
-2.6696599 0.38348141 -0.28924668 1.1024955e-38
-2.6691318 0.3683528 -0.28747731 9.7378164e-39
-2.6545498 0.93053341 0.39718553 1.1038993e-38
-2.6540523 0.93586266 0.41155997 8.1942581e-39
-2.6534557 0.93711096 0.42545384 8.8450365e-39
-2.6531978 0.94916922 0.43894133 1.1888581e-38
-2.6514039 0.89356762 0.44220614 2.3231508e-38
-2.6512315 0.88462579 0.44019309 2.0649667e-38
-2.6509888 0.87660062 0.44030321 7.1923395e-39
-2.6530292 0.96456707 0.45262584 1.0873e-38
-2.6528084 0.95428765 0.45079684 1.1701673e-38
-2.6521618 0.93965006 0.45548001 6.546624e-39
-2.6519606 0.92695522 0.45166427 8.85044e-39
-2.6516845 0.91078198 0.44722369 1.7611176e-38
-2.6511204 0.90188682 0.45382518 1.0155953e-39
-2.6514499 0.94117755 0.47209451 4.5125678e-39
-2.6505964 0.9055202 0.46768215 1.5946973e-38
-2.6526475 0.99820668 0.48282969 1.1517999e-38
-2.6518874 0.96919465 0.48068058 3.4069153e-39
-2.651273 0.94880962 0.48092556 4.5125678e-39
-2.6508474 0.92877686 0.47726196 4.3302869e-39
-2.6503232 0.9160732 0.48052421 4.9735207e-39
-2.6517563 0.98741281 0.49537867 6.2624393e-39
-2.6510403 0.97225243 0.5012399 2.5713939e-39
-2.6506624 0.94805777 0.49383301 5.0631954e-39
-2.6503224 1.0796639 0.58668554 2.8562358e-39
-2.6497774 1.065613 0.5895313 8.4755057e-39
-2.6493475 1.0528636 0.59068334 6.8174109e-39
-2.6488712 1.0386196 0.59188491 6.0823696e-39
-2.6485653 1.0268537 0.59096551 8.8489672e-39
-2.6480439 1.0133817 0.59366292 1.2536815e-38
-2.6495759 1.081189 0.60404885 1.2812333e-38
-2.6490564 1.0665225 0.60592836 1.2720843e-38
-2.6483514 1.0417187 0.6052987 1.0142958e-38
-2.6473308 1.0014116 0.60154158 1.1891797e-38
-2.6746867 0.0031205551 -0.64631814 2.0203809e-39
-2.6744778 0.031577911 -0.6232782 1.0469605e-38
-2.6740191 0.020455806 -0.62043107 5.6026841e-39
-2.6743317 0.045016266 -0.61135113 1.0928431e-38
-2.6742859 0.038718823 -0.61443168 1.0744753e-38
-2.6757026 0.11710727 -0.59464025 1.1663111e-38
-2.6755519 0.10478555 -0.59932786 1.1020621e-38
-2.6749079 0.090711705 -0.59433645 1.102026e-38
-2.674881 0.078146301 -0.60190314 8.8198034e-39
-2.6743646 0.062097568 -0.60098565 9.5526923e-39
-2.6739216 0.050818287 -0.59858358 1.0653279e-38
-2.673691 0.039053984 -0.60116905 1.092843e-38
-2.6751695 0.11917952 -0.58159864 1.1847865e-38
-2.6756084 0.14544101 -0.5741958 1.193934e-38
-2.6748152 0.11891025 -0.57401228 1.1205374e-38
-2.6750679 0.14916757 -0.55991817 1.1939705e-38
-2.673996 0.12373915 -0.55290216 1.093274e-38
-2.6738517 0.11103231 -0.55799055 1.1205377e-38
-2.6745069 0.15272972 -0.54530001 1.2215931e-38
-2.6740825 0.13682786 -0.54630727 1.1482321e-38
-2.67342 0.12597743 -0.53881544 1.2307408e-38
-2.6731086 0.10905386 -0.54296869 1.1755313e-38
-2.6726766 0.099382214 -0.53976786 1.1755313e-38
-2.6737006 0.15437099 -0.52654415 1.2582553e-38
-2.6737022 0.14321212 -0.53382778 1.212302e-38
-2.6726587 0.11393566 -0.52992815 1.175675e-38
-2.6719956 0.090138152 -0.53082418 1.1481962e-38
-2.6715405 0.076447755 -0.52972537 1.1115692e-38
-2.6733325 0.15546709 -0.51776516 1.2490718e-38
-2.6717176 0.10327735 -0.51620018 1.1482682e-38
-2.6741312 0.20096 -0.5057618 1.3042464e-38
-2.6727412 0.15926364 -0.50232273 1.2674397e-38
-2.6723955 0.14306302 -0.50525647 1.2034061e-38
-2.6719942 0.13044198 -0.50464445 1.2124816e-38
-2.671546 0.11616802 -0.50406957 1.1391563e-38
-2.6711962 0.10539167 -0.50338918 1.1391207e-38
-2.6734927 0.19727457 -0.49414837 1.3226846e-38
-2.6720121 0.1582296 -0.48699948 1.1760344e-38
-2.6710269 0.12065651 -0.48977199 1.1391567e-38
-2.6726835 0.19661954 -0.47681895 1.3502351e-38
-2.6722579 0.18257329 -0.47660163 1.3410159e-38
-2.6722579 0.17617533 -0.48074535 1.3410159e-38
-2.6706622 0.13313375 -0.47367182 1.2950255e-38
-2.6727335 0.21820788 -0.46391612 8.7251022e-39
-2.6722343 0.20388073 -0.46225661 1.3868979e-38
-2.6716945 0.17690879 -0.46791476 1.3501638e-38
-2.671272 0.17096612 -0.46250886 1.2036211e-38
-2.672626 0.23452938 -0.45096111 9.6441788e-39
-2.671911 0.2177926 -0.44613716 1.1021353e-38
-2.670696 0.17288351 -0.44862536 1.2128405e-38
-2.6717205 0.22764756 -0.43555948 7.8982212e-39
-2.6699698 0.16947496 -0.4349049 1.4145566e-38
-2.6719382 0.25286055 -0.42397499 7.9000289e-39
-2.6713843 0.23721525 -0.4219819 9.9189679e-39
-2.6708696 0.22233541 -0.42034593 1.5246518e-38
-2.6693609 0.1708322 -0.42066377 1.4053007e-38
-2.6687934 0.1551764 -0.4183844 1.3136807e-38
-2.6711948 0.25253037 -0.40788692 9.0024136e-39
-2.6716213 0.28394398 -0.39685321 7.6234378e-39
-2.6711292 0.26871347 -0.39594665 9.3693982e-39
-2.6705143 0.25282443 -0.39276251 1.0840207e-38
-2.6700504 0.23864681 -0.39179081 1.0287386e-38
-2.6696498 0.22544338 -0.3915759 1.5430905e-38
-2.6708517 0.28326893 -0.38041338 7.9911371e-39
-2.6699231 0.25467104 -0.37860471 1.1759285e-38
-2.6705017 0.29212514 -0.36699119 7.8992974e-39
-2.6701286 0.28285682 -0.36482421 9.1871594e-39
-2.6700349 0.29992336 -0.35168478 8.7276203e-39
-2.6695437 0.28478879 -0.35073271 9.0013304e-39
-2.6699827 0.31633657 -0.33989573 8.9105711e-39
-2.6694438 0.30123094 -0.33787167 8.9120116e-39
-2.6694586 0.31821507 -0.32717931 9.2786319e-39
-2.6692224 0.33387783 -0.31183285 9.8300092e-39
-2.6689966 0.34921062 -0.29693162 9.8292946e-39
-2.6684687 0.35205987 -0.2835016 9.5537867e-39
-2.6689172 0.38302776 -0.27324319 9.9218489e-39
-2.6683524 0.36696231 -0.27128085 9.8292932e-39
-2.6520247 0.89922482 0.43226129 1.3737161e-38
-2.6515856 0.88729274 0.43415102 1.6133526e-38
-2.6513956 0.87538922 0.43059522 9.1277401e-39
-2.6509545 0.8601076 0.43035531 1.2540786e-38
-2.6504176 0.84796315 0.43425533 2.0376336e-38
-2.6499326 0.83641136 0.43739748 1.3554201e-38
-2.652427 0.92996377 0.44337967 8.7586101e-39
-2.6518106 0.91756356 0.44885534 1.7611176e-38
-2.6515446 0.90250891 0.44492671 1.5949136e-38
-2.650543 0.86623681 0.44335365 5.6265132e-39
-2.6501424 0.85302663 0.44357386 1.8719332e-38
-2.6510396 0.90614152 0.4583573 6.5440877e-39
-2.6506495 0.89304417 0.45842099 8.3869241e-39
-2.6502767 0.87862182 0.45724019 3.2275925e-39
-2.6498482 0.86738521 0.4593446 4.0591637e-39
-2.6505451 0.90986747 0.47162351 1.5946973e-38
-2.6491604 0.86682987 0.47407737 1.3095385e-38
-2.6511614 0.95038474 0.48439169 4.2363312e-39
-2.650677 0.93701518 0.48634711 5.0660695e-39
-2.65043 0.92293012 0.48263049 4.4207001e-39
-2.6504869 0.95061541 0.49934149 3.7721077e-39
-2.6509812 0.97975433 0.50740552 2.7550649e-39
-2.6485646 1.0359094 0.59685576 8.1128399e-39
-2.6475463 1.0078458 0.60098654 1.1891797e-38
-2.6475163 0.99594384 0.59391814 1.6128474e-38
-2.6472096 0.97966939 0.59008312 1.3457678e-38
-2.6465096 0.96564317 0.59634078 7.3706057e-39
-2.6476977 1.0219986 0.60684645 9.8652953e-39
-2.6756492 0.035205912 -0.64660907 5.0531089e-39
-2.6751482 0.010643783 -0.65156525 2.0203809e-39
-2.6756146 0.049164344 -0.63679928 8.451381e-39
-2.6753297 0.03849769 -0.63747162 6.8919768e-39
-2.6748655 0.024663189 -0.63626683 8.818723e-39
-2.6745272 0.0097404569 -0.63852489 6.797263e-39
-2.6740539 -0.0013699762 -0.63535368 5.9700247e-39
-2.6731415 -0.0288243 -0.63315243 4.5006582e-39
-2.6749892 0.052701551 -0.62079054 1.0836591e-38
-2.6748726 0.043950818 -0.62390494 1.0744753e-38
-2.6739113 0.015189393 -0.62147856 1.0469247e-38
-2.6733944 -0.0024937799 -0.62161601 1.0011147e-38
-2.6729238 -0.012241281 -0.6176216 1.0469247e-38
-2.6727209 -0.024332972 -0.62101811 9.0927931e-39
-2.6751218 0.071259819 -0.61165392 1.0928427e-38
-2.6747062 0.057817776 -0.61125368 1.0928427e-38
-2.6733289 0.013888828 -0.60954744 1.0469247e-38
-2.6728456 0.0022196148 -0.60652107 1.0011148e-38
-2.6723809 -0.014852722 -0.60740727 1.0101906e-38
-2.6745405 0.084669493 -0.59019893 1.0562524e-38
-2.6743746 0.070858195 -0.59552228 1.102062e-38
-2.6739302 0.055879548 -0.59548873 1.0561801e-38
-2.6722493 -0.0096203024 -0.60112673 1.0104424e-38
-2.6745863 0.097912021 -0.58261245 1.1020983e-38
-2.6740575 0.10075641 -0.56916422 1.1205015e-38
-2.673243 0.096269697 -0.554205 1.0930588e-38
-2.6734321 0.1210731 -0.54226363 1.1939705e-38
-2.6727376 0.10052437 -0.54035765 1.1389767e-38
-2.6719608 0.097389497 -0.52535832 1.1665633e-38
-2.6711175 0.088920563 -0.51235181 1.1299011e-38
-2.6714101 0.11953036 -0.49891219 1.1665636e-38
-2.6714714 0.11133856 -0.50556827 1.1665636e-38
-2.6709495 0.098624162 -0.50237477 1.1299013e-38
-2.6722171 0.16740519 -0.48555249 1.3226845e-38
-2.6715636 0.1431122 -0.48697349 1.2675106e-38
-2.671036 0.12862873 -0.48480085 1.2124813e-38
-2.6705055 0.11274705 -0.48346874 1.2489997e-38
-2.6716182 0.16897266 -0.47138661 1.3317963e-38
-2.6713946 0.15849468 -0.47328904 1.2950257e-38
-2.6710155 0.14561427 -0.47332507 1.2765864e-38
-2.6700599 0.11748538 -0.47061831 1.2216289e-38
-2.6717374 0.19316791 -0.45831195 1.3869342e-38
-2.6706114 0.15793839 -0.45646617 1.2493237e-38
-2.6705685 0.14433098 -0.46435446 1.185075e-38
-2.6699111 0.13070254 -0.45878139 1.2492155e-38
-2.6693952 0.1175385 -0.45600647 1.3041012e-38
-2.6691003 0.10616764 -0.45691228 1.1758905e-38
-2.6713378 0.19970523 -0.44529778 1.4420353e-38
-2.6702819 0.1660493 -0.44397929 1.2220239e-38
-2.6711512 0.21536388 -0.43103978 1.4971731e-38
-2.6707048 0.20147184 -0.43026656 1.4604024e-38
-2.6695507 0.16498238 -0.42862582 1.3410875e-38
-2.6701887 0.20478301 -0.41679794 1.4788771e-38
-2.6686649 0.15454762 -0.41597486 1.3136807e-38
-2.670589 0.23599608 -0.40532377 1.0378504e-38
-2.6702077 0.22308694 -0.40533751 1.5154318e-38
-2.669589 0.20709941 -0.40214038 1.488024e-38
-2.6684306 0.1677413 -0.40226421 1.4787702e-38
-2.6692209 0.21477523 -0.38908038 1.5064268e-38
-2.6692877 0.23764817 -0.37570593 1.2950625e-38
-2.6688166 0.22389221 -0.37430343 1.5339071e-38
-2.6666987 0.15575533 -0.37205747 1.3595986e-38
-2.6691346 0.25299194 -0.36239672 8.7265455e-39
-2.6686063 0.23830058 -0.36033738 1.5614948e-38
-2.6689603 0.27011991 -0.34745982 8.2673667e-39
-2.6684434 0.25377536 -0.34672454 8.6347087e-39
-2.6679652 0.23937109 -0.34557667 1.0471419e-38
-2.6689384 0.28641531 -0.33640417 7.9904154e-39
-2.6684682 0.27016547 -0.33663455 8.1758899e-39
-2.6681623 0.28751513 -0.31866482 8.3595567e-39
-2.6679521 0.27431691 -0.32261723 8.2680841e-39
-2.6683946 0.31604543 -0.30524364 9.0942435e-39
-2.6680696 0.30274996 -0.30673972 9.4626673e-39
-2.6684656 0.33307758 -0.2957505 9.3704716e-39
-2.6672881 0.30087328 -0.29081699 9.5545013e-39
-2.6676517 0.34946978 -0.26725805 9.5537839e-39
-2.6671622 0.33663329 -0.26485252 9.4619484e-39
-2.652029 0.8650201 0.40997371 1.2448589e-38
-2.6519685 0.88037968 0.4212667 2.0471411e-38
-2.6517367 0.86976981 0.41946673 1.2448589e-38
-2.6511381 0.85268414 0.42151013 1.4844225e-38
-2.6505799 0.84011561 0.42559773 2.1019547e-38
-2.6498101 0.82963878 0.43568683 1.9270364e-38
-2.6493742 0.8156808 0.43618858 1.4383629e-38
-2.6488602 0.80278939 0.4391022 1.9915719e-38
-2.6504548 0.90062141 0.46760666 5.990195e-39
-2.6500115 0.88760185 0.46887988 3.4998396e-39
-2.6506422 0.91516209 0.47293082 1.3549522e-38
-2.6494853 0.88591725 0.47933382 4.7034457e-39
-2.6493623 0.87785453 0.47679877 4.7034457e-39
-2.6502669 0.93033606 0.49101219 5.8933274e-39
-2.648726 0.87721592 0.49034393 8.4845427e-39
-2.6484964 0.86755151 0.48910901 8.9466069e-39
-2.6480966 0.87879843 0.50517499 8.8518847e-39
-2.6478932 0.86920792 0.50341451 9.3128642e-39
-2.6474435 0.87886226 0.51954174 5.6232146e-39
-2.6468244 0.87050372 0.52769774 7.8344649e-39
-2.6478674 0.99781895 0.58743626 5.9822637e-39
-2.6474998 0.98581398 0.58770597 1.3457678e-38
-2.6468782 0.97348744 0.59334123 1.400942e-38
-2.6458082 0.93342108 0.59081984 1.2166589e-38
-2.6452863 0.9207074 0.59401882 1.271976e-38
-2.6477485 1.0139724 0.60052174 5.4334087e-39
-2.6472738 0.9989199 0.6011678 8.2936396e-39
-2.6461542 0.96238184 0.60202318 3.9600835e-39
-2.6457603 0.94813097 0.60141653 9.0319221e-39
-2.6753862 0.0034075966 -0.66148061 2.9390946e-39
-2.6751516 0.01777878 -0.64701045 3.4897489e-39
-2.6734266 -0.036769629 -0.64456034 1.4700854e-39
-2.6729879 -0.030967243 -0.63117504 4.7754458e-39
-2.6725762 -0.023621151 -0.61737549 1.0010072e-38
-2.671941 -0.045289561 -0.61750281 6.7965498e-39
-2.6717896 -0.027387852 -0.60256618 1.0193741e-38
-2.6713269 -0.043384586 -0.60279655 8.5439367e-39
-2.673161 0.08114706 -0.56222415 1.1021344e-38
-2.6723747 0.095385022 -0.53573775 1.1206453e-38
-2.6717429 0.099385127 -0.51928359 1.1391208e-38
-2.671658 0.11468102 -0.50749838 1.1940426e-38
-2.6715546 0.10701446 -0.51019996 1.1574879e-38
-2.6711493 0.093733594 -0.50992489 1.2032258e-38
-2.6710846 0.11561435 -0.49431109 1.1391207e-38
-2.6704981 0.10765152 -0.48660871 1.2489997e-38
-2.6698868 0.094347566 -0.48183969 1.194078e-38
-2.6694803 0.09931948 -0.46969855 1.1851454e-38
-2.6700718 0.14203528 -0.45495248 1.3500912e-38
-2.6688027 0.10309432 -0.4523778 1.1850024e-38
-2.6683931 0.087792695 -0.45332384 1.1942221e-38
-2.6680651 0.078736655 -0.45200101 1.1757833e-38
-2.6696577 0.15635872 -0.43657306 1.4052288e-38
-2.6694794 0.14385641 -0.44077501 1.396081e-38
-2.6690116 0.12926903 -0.43997607 1.2768745e-38
-2.6685512 0.11414349 -0.4396888 1.2951696e-38
-2.6680171 0.098103464 -0.43838754 1.2309206e-38
-2.6674135 0.074289545 -0.44059166 1.1942221e-38
-2.6692836 0.16086753 -0.42544535 1.4235601e-38
-2.669035 0.14282106 -0.43169293 1.2493955e-38
-2.6673794 0.09028618 -0.42947245 1.2125895e-38
-2.6686268 0.16141021 -0.4106752 1.4419636e-38
-2.669142 0.19807075 -0.39819464 1.4695138e-38
-2.6676874 0.15004195 -0.39745158 1.441999e-38
-2.668648 0.20271914 -0.38434178 1.5064275e-38
-2.6675713 0.16503537 -0.38516819 1.4694789e-38
-2.668144 0.20553975 -0.37145039 1.4972437e-38
-2.6668906 0.16493925 -0.37030396 1.4420716e-38
-2.6680386 0.22252309 -0.35812286 1.5522752e-38
-2.667542 0.20954432 -0.35564926 1.5063563e-38
-2.6660378 0.15739994 -0.35648787 1.4694786e-38
-2.6673071 0.22271919 -0.34194863 1.5340515e-38
-2.6653683 0.1577905 -0.34155244 1.4879172e-38
-2.6676252 0.25187755 -0.3300069 9.2782788e-39
-2.6672082 0.23801816 -0.32985687 1.3042824e-38
-2.6666534 0.22308002 -0.32737112 1.5523831e-38
-2.6674395 0.26715147 -0.31601426 8.8187398e-39
-2.6670144 0.25365978 -0.31545025 8.6347087e-39
-2.6505187 0.83393592 0.42293385 2.0006113e-38
-2.6499879 0.82056367 0.42589888 1.5304133e-38
-2.6493633 0.80894214 0.43205971 1.927144e-38
-2.6488519 0.796188 0.43500391 1.8163286e-38
-2.6483834 0.78326625 0.43689269 1.8896894e-38
-2.6478751 0.77141154 0.44035524 1.8247207e-38
-2.6489899 0.89472508 0.49591616 1.3843722e-39
-2.6488388 0.88690728 0.4941569 1.3843722e-39
-2.6484318 0.89723766 0.50978392 4.9785458e-39
-2.648294 0.88946062 0.50776553 4.5179236e-39
-2.6479111 0.90072381 0.52347016 6.5437261e-39
-2.6477814 0.89251149 0.52098769 5.9905481e-39
-2.6472974 0.90304518 0.53843898 3.7782047e-39
-2.6472292 0.89094454 0.5320816 4.3310212e-39
-2.6466348 0.87791306 0.53666699 8.2057628e-39
-2.6463723 0.8692798 0.53682339 9.9596546e-39
-2.6456242 0.84945178 0.540371 9.7731109e-39
-2.6456504 0.86756909 0.55154705 3.8704186e-39
-2.6449111 0.87047058 0.56965399 9.1223451e-39
-2.6449389 0.88639808 0.5793761 7.5553683e-39
-2.6469085 0.96699375 0.58846384 5.7085592e-39
-2.6463599 0.95343906 0.59171069 5.7092781e-39
-2.6461024 0.94108564 0.58933586 5.3433795e-39
-2.6455855 0.92710507 0.59160328 4.9749613e-39
-2.6446798 0.90085274 0.59443933 1.0325545e-38
-2.6442587 0.88598216 0.59402961 9.4014263e-39
-2.6737101 -0.042173564 -0.65428758 2.6632322e-39
-2.6730649 -0.043561697 -0.64103884 4.9609133e-39
-2.6726437 -0.035501219 -0.62656444 9.1857104e-39
-2.671335 -0.079668358 -0.62651771 7.5312352e-39
-2.6722126 -0.028784689 -0.61275512 1.0652919e-38
-2.6717598 -0.04070878 -0.61055881 9.6477634e-39
-2.671257 -0.05018634 -0.60567659 8.2677114e-39
-2.6712296 -0.063831471 -0.6139347 8.2651961e-39
-2.6715245 -0.035043698 -0.60171771 9.0031156e-39
-2.6701543 -0.07538484 -0.59783882 9.8278372e-39
-2.6698606 -0.064568885 -0.58437514 1.0286294e-38
-2.6694341 -0.057870761 -0.57067472 1.0377411e-38
-2.6704745 0.081352994 -0.50315386 1.2031532e-38
-2.6702099 0.071354486 -0.50384194 1.1756746e-38
-2.6702237 0.1012471 -0.48475081 1.2489996e-38
-2.6695964 0.074381106 -0.48841849 1.1848224e-38
-2.6697404 0.099008165 -0.47560051 1.1575591e-38
-2.6690326 0.096571967 -0.46164972 1.1850382e-38
-2.6684177 0.097213656 -0.44774646 1.2217732e-38
-2.6669219 0.047823906 -0.44698232 1.1574156e-38
-2.6688099 0.1362247 -0.43104371 1.267763e-38
-2.6683097 0.12342785 -0.4283683 1.2494313e-38
-2.6678627 0.099834554 -0.43387383 1.3042094e-38
-2.6673646 0.082872391 -0.43395498 1.2217371e-38
-2.6677437 0.11088557 -0.42409068 1.2769463e-38
-2.6670001 0.092290848 -0.41984391 1.2585073e-38
-2.6667163 0.085274659 -0.41817725 1.2493237e-38
-2.6665742 0.078233354 -0.41962644 1.2217727e-38
-2.668215 0.15306996 -0.40705991 1.4144485e-38
-2.6659548 0.088353753 -0.39947 1.3411954e-38
-2.6680157 0.16808768 -0.39294416 1.4511111e-38
-2.667789 0.15769994 -0.39471045 1.4511108e-38
-2.6660542 0.10316595 -0.39204344 1.3319758e-38
-2.6674235 0.16961379 -0.37895885 1.4695147e-38
-2.6666591 0.1648069 -0.36531305 1.4694786e-38
-2.6670663 0.19919387 -0.35193199 1.5155397e-38
-2.6659522 0.16386016 -0.3504163 1.4879173e-38
-2.6665413 0.20278543 -0.33808672 1.5063922e-38
-2.6652045 0.16168077 -0.33543399 1.4878812e-38
-2.6651614 0.15723257 -0.33736962 1.4786616e-38
-2.6641576 0.12392119 -0.33697537 1.3046045e-38
-2.6660991 0.20628946 -0.32611111 1.5249027e-38
-2.664377 0.15463212 -0.32185081 1.4878452e-38
-2.6639445 0.13901088 -0.32249901 1.3137886e-38
-2.6661854 0.23557875 -0.30900058 1.5706782e-38
-2.6658058 0.21958418 -0.31104714 1.5431989e-38
-2.6632769 0.13980752 -0.30734172 1.3137528e-38
-2.6660469 0.24810131 -0.29783148 1.212447e-38
-2.6655457 0.23495522 -0.29536954 1.5706424e-38
-2.6652689 0.22391468 -0.29646501 1.5706422e-38
-2.6657431 0.25133622 -0.28907359 8.8183824e-39
-2.6645572 0.22363667 -0.28102681 1.5891172e-38
-2.6492052 0.80177975 0.4308776 1.7882379e-38
-2.6485929 0.78972417 0.43648785 1.8896894e-38
-2.6482341 0.77637672 0.43569747 1.8247207e-38
-2.6476202 0.76402044 0.44114506 1.8059918e-38
-2.6469607 0.74825656 0.44538459 1.417938e-38
-2.6457386 0.75523233 0.47672245 1.0230128e-38
-2.6468084 0.8884753 0.53971541 8.5723901e-39
-2.6459277 0.86088842 0.54113549 9.7734738e-39
-2.6454651 0.84654206 0.54197222 1.5489613e-38
-2.6460738 0.88538247 0.55381799 4.5161397e-39
-2.6456368 0.87374008 0.55585045 1.29002e-39
-2.6454082 0.88764405 0.56989419 7.6472164e-39
-2.6450741 0.87542892 0.56929284 6.3571881e-39
-2.6445124 0.86454928 0.57455164 7.095102e-39
-2.6440687 0.85153139 0.5758357 1.0414498e-38
-2.6453774 0.90592748 0.58242565 7.4635342e-39
-2.6449199 0.89324725 0.58423907 7.8312279e-39
-2.6456017 0.93078965 0.59363973 4.9749613e-39
-2.6447968 0.90868562 0.59695011 1.0138285e-38
-2.6445272 0.89712393 0.59536576 1.1887466e-38
-2.6718261 -0.075647764 -0.63468534 8.9087718e-39
-2.6712801 -0.087229647 -0.63022041 8.8169293e-39
-2.6710799 -0.10123464 -0.63492012 2.4799171e-39
-2.6706152 -0.11334572 -0.63258117 3.4897503e-39
-2.6700068 -0.13772662 -0.63505369 1.1938615e-39
-2.6719851 -0.045744266 -0.61876833 9.6477634e-39
-2.6710925 -0.079876348 -0.62133735 8.8169293e-39
-2.6705225 -0.098858759 -0.62114596 7.438678e-39
-2.6701121 -0.1136369 -0.6217339 6.5217636e-39
-2.6719363 -0.030832928 -0.60801649 9.919314e-39
-2.6710916 -0.053835507 -0.60442162 1.0010429e-38
-2.6708536 -0.068738662 -0.60886818 9.9182364e-39
-2.6702638 -0.085736282 -0.60695994 8.725091e-39
-2.6696925 -0.10773676 -0.60869908 4.9605545e-39
-2.6701972 -0.068279907 -0.5941717 1.0010069e-38
-2.6684258 -0.12333044 -0.59103525 1.0469248e-38
-2.6693687 -0.076758109 -0.581496 1.0377411e-38
-2.6687353 -0.075565197 -0.56683058 1.083659e-38
-2.6679685 -0.073748045 -0.54882568 1.0929147e-38
-2.6691906 0.068587743 -0.48327839 1.2306324e-38
-2.6686447 0.070019178 -0.47037575 1.194114e-38
-2.6681712 0.095913261 -0.44318587 1.2309206e-38
-2.6675289 0.10424954 -0.42369056 1.2769104e-38
-2.6675553 0.096520901 -0.42928207 1.2677271e-38
-2.6675324 0.11820255 -0.4147113 1.3227564e-38
-2.6661215 0.080235966 -0.40839532 1.304497e-38
-2.6674244 0.1334475 -0.40244928 1.3594906e-38
-2.6658285 0.081363484 -0.40123516 1.2953134e-38
-2.6668684 0.13554251 -0.38889205 1.3778577e-38
-2.6654804 0.090831824 -0.38745454 1.3320477e-38
-2.6649983 0.084601328 -0.38092163 1.2861654e-38
-2.6650603 0.07696674 -0.38723996 1.3136087e-38
-2.6662438 0.13812336 -0.37351543 1.3596704e-38
-2.6651106 0.09916722 -0.37393484 1.3044968e-38
-2.6659508 0.16968332 -0.3466031 1.4878813e-38
-2.6652083 0.16561848 -0.33295882 1.4878812e-38
-2.6652629 0.18837154 -0.31939772 1.5248309e-38
-2.6644542 0.15904775 -0.32068536 1.5062483e-38
-2.664212 0.15366593 -0.31886077 1.4056608e-38
-2.6651099 0.20268962 -0.30674857 1.5248308e-38
-2.6636033 0.15284069 -0.30604523 1.515432e-38
-2.6626394 0.12319884 -0.30413124 1.3046049e-38
-2.6644177 0.2044192 -0.29044133 1.5522388e-38
-2.6628518 0.15294726 -0.28949496 1.4878816e-38
-2.6639235 0.20780875 -0.27739942 1.5889737e-38
-2.6621602 0.1515391 -0.27522883 1.4879178e-38
-2.6619158 0.14073679 -0.2768786 1.3689262e-38
-2.6613438 0.12489398 -0.27461395 1.3229719e-38
-2.6637468 0.22194761 -0.26435179 1.5799339e-38
-2.6612029 0.1407066 -0.26126343 1.3964416e-38
-2.6635158 0.23653059 -0.24981673 1.607556e-38
-2.6632354 0.22385563 -0.25188914 1.589046e-38
-2.6484361 0.78270078 0.43536678 1.6862075e-38
-2.6477528 0.77077758 0.44262353 1.8061e-38
-2.6473165 0.75773144 0.44372985 1.7868664e-38
-2.6466382 0.74459064 0.45008245 9.2022555e-39
-2.6458912 0.74245012 0.46508107 1.0127114e-38
-2.6459181 0.76364511 0.47824484 1.3547375e-38
-2.6456852 0.74932837 0.47405803 7.2791444e-39
-2.6458778 0.86732811 0.54640949 1.355313e-38
-2.6454759 0.87533879 0.56041729 9.1841101e-41
-2.6456535 0.89962476 0.57228059 4.2356082e-39
-2.6446726 0.86893386 0.57388598 4.5139915e-39
-2.6441894 0.85683453 0.57663363 5.529207e-39
-2.6438234 0.84501493 0.5769881 9.769141e-39
-2.64311 0.83745986 0.58773476 1.0139339e-38
-2.6423628 0.81945819 0.59244597 6.7266712e-39
-2.6420696 0.80665952 0.59057653 1.0137928e-38
-2.6444833 0.90539199 0.6016919 5.4377373e-39
-2.6427276 0.84830797 0.60316181 7.2816639e-39
-2.6425822 0.83509696 0.5977819 1.0783294e-38
-2.67065 -0.12954426 -0.64385486 7.3468397e-40
-2.6693463 -0.17404743 -0.64413118 2.4795584e-39
-2.6710901 -0.093978651 -0.63043517 5.9696688e-39
-2.6705596 -0.11158442 -0.63021958 8.1748095e-39
-2.670085 -0.12112813 -0.62599844 4.1325973e-39
-2.669857 -0.13480441 -0.62987375 4.6854068e-39
-2.6690104 -0.1627388 -0.62942821 1.8367099e-39
-2.6710389 -0.075356983 -0.61722487 9.4590575e-39
-2.6695025 -0.12864017 -0.61809474 4.041122e-39
-2.6684282 -0.16101824 -0.61554158 8.5410655e-39
-2.6704319 -0.074579522 -0.60340232 9.6430886e-39
-2.6700168 -0.045932297 -0.57570553 1.0653278e-38
-2.6678531 -0.1171757 -0.5744803 1.065292e-38
-2.6676862 -0.12601393 -0.57654899 1.0561085e-38
-2.6674354 -0.11109663 -0.56136554 1.0469248e-38
-2.666887 -0.12513421 -0.55844951 1.0744756e-38
-2.6672249 -0.096032329 -0.54698104 1.0469967e-38
-2.666959 -0.10809395 -0.54896939 1.0561444e-38
-2.666595 -0.095903777 -0.53306985 1.0469248e-38
-2.6660049 0.094043814 -0.39687693 1.3411954e-38
-2.6650593 0.0804822 -0.38493487 1.3411591e-38
-2.6649277 0.12049269 -0.35609144 1.3778217e-38
-2.6642785 0.16270018 -0.31446007 1.5154318e-38
-2.6635673 0.15947048 -0.30095568 1.515432e-38
-2.6637249 0.1855337 -0.28749758 1.5062851e-38
-2.6628969 0.16155569 -0.28489032 1.4970653e-38
-2.6612184 0.10483727 -0.28487915 1.3137526e-38
-2.660949 0.09234608 -0.28707409 1.3136809e-38
-2.6631789 0.18764137 -0.27415726 1.5246527e-38
-2.662147 0.15666902 -0.27161676 1.4879179e-38
-2.6609504 0.11562636 -0.27199224 1.3230079e-38
-2.6605766 0.1060484 -0.2700159 1.3230079e-38
-2.6629415 0.20234525 -0.2594043 1.5430914e-38
-2.6613588 0.14748491 -0.26028731 1.460511e-38
-2.6606519 0.12413034 -0.25993156 1.3229719e-38
-2.6623802 0.20525947 -0.24519779 1.5614585e-38
-2.6609309 0.15316837 -0.24720477 1.4878462e-38
-2.6605399 0.14144102 -0.24624172 1.405625e-38
-2.6599996 0.12693067 -0.24380487 1.3230438e-38
-2.6601331 0.15368044 -0.22937278 1.5063566e-38
-2.6598556 0.14092228 -0.23156947 1.4147002e-38
-2.6592822 0.12598269 -0.22868301 1.3228644e-38
-2.6469672 0.75161934 0.44742689 1.2245793e-38
-2.6462092 0.7396934 0.45631561 1.1507875e-38
-2.6457224 0.74342889 0.4694173 1.0219671e-38
-2.6439512 0.84853733 0.57647896 3.2246792e-39
-2.642977 0.84173608 0.59343392 5.7132452e-39
-2.64271 0.82988894 0.59159821 1.2871389e-39
-2.6424394 0.8134402 0.58686107 7.6475401e-39
-2.6419468 0.80061203 0.58933985 1.050563e-38
-2.6413643 0.78810912 0.59400558 6.2595596e-39
-2.6423979 0.84336168 0.60719198 8.57203e-39
-2.6697066 -0.17480789 -0.65252733 3.0305714e-39
-2.6691802 -0.19218288 -0.65225852 3.1224069e-39
-2.6686411 -0.20988213 -0.65192205 2.6632294e-39
-2.6679986 -0.22209406 -0.64575243 2.2958874e-39
-2.670665 -0.12558277 -0.64161223 4.686127e-39
-2.6688757 -0.18129678 -0.63851374 1.4693679e-39
-2.6684141 -0.19343936 -0.63626862 3.674859e-39
-2.6678553 -0.21498983 -0.63799244 2.2958874e-39
-2.6685503 -0.17109866 -0.62475836 7.4404759e-39
-2.6681669 -0.18125251 -0.62294179 8.0825999e-39
-2.6677356 -0.19254586 -0.62080163 7.8063773e-39
-2.6674669 -0.20801969 -0.62494993 4.6846893e-39
-2.6679118 -0.17616035 -0.61403531 5.4182943e-39
-2.6660872 -0.12606317 -0.54151142 1.0928784e-38
-2.6651447 -0.15509419 -0.53966719 1.083695e-38
-2.665971 -0.11067796 -0.52897835 1.0836949e-38
-2.6654131 -0.12593544 -0.5266425 1.102098e-38
-2.6653454 -0.10847262 -0.51382071 1.083731e-38
-2.664978 -0.10057005 -0.50063086 1.0653638e-38
-2.6646447 -0.092301369 -0.48795599 1.0929147e-38
-2.6650231 -0.060020838 -0.47531062 1.1389046e-38
-2.6645138 -0.074900486 -0.47379348 1.1297208e-38
-2.6642919 -0.061476361 -0.46021834 1.1389046e-38
-2.6638713 -0.074639015 -0.45953017 1.1389046e-38
-2.6636906 -0.059145946 -0.44551101 1.1481598e-38
-2.6636324 -0.042547539 -0.43346667 1.0931302e-38
-2.6630003 -0.058332235 -0.42984563 1.1940419e-38
-2.6630285 -0.040408481 -0.41882774 1.1851458e-38
-2.6627014 -0.029135715 -0.40434387 1.1944014e-38
-2.662302 -0.022719609 -0.39141715 1.2032614e-38
-2.6616445 -0.020658258 -0.37565485 1.2585423e-38
-2.6626821 0.13845167 -0.29517603 1.4054088e-38
-2.6601379 0.075570039 -0.2801657 1.3044612e-38
-2.659936 0.089542769 -0.26667005 1.3136447e-38
-2.661557 0.16183859 -0.25531539 1.5155048e-38
-2.66115 0.14693321 -0.25605842 1.5153969e-38
-2.6599309 0.1070487 -0.25520074 1.341375e-38
-2.6593659 0.090318486 -0.25366116 1.3319761e-38
-2.6609938 0.16417107 -0.24144709 1.5153967e-38
-2.6593373 0.10884748 -0.24100591 1.3045688e-38
-2.6589997 0.095470533 -0.2422812 1.304497e-38
-2.660497 0.16086349 -0.23269774 1.5430193e-38
-2.6597521 0.14999817 -0.22340837 1.460295e-38
-2.6588867 0.12289629 -0.22200806 1.2861301e-38
-2.6586616 0.10923874 -0.22593398 1.3137528e-38
-2.6580613 0.093112223 -0.22323199 1.3411598e-38
-2.6591318 0.13668482 -0.21844238 1.3319762e-38
-2.6427424 0.82037652 0.58471733 4.7869477e-39
-2.6422191 0.8024056 0.58453983 7.0907762e-39
-2.6421518 0.79404461 0.58058715 7.0907762e-39
-2.6416037 0.77997249 0.58347297 6.8149124e-39
-2.6422923 0.82421529 0.59708494 5.2493663e-39
-2.6417427 0.80711961 0.59804392 6.26064e-39
-2.6417077 0.82556915 0.61078417 3.5019766e-39
-2.6691978 -0.18726563 -0.64945501 1.3775324e-39
-2.6676617 -0.2282543 -0.64235812 1.9285468e-39
-2.6684945 -0.18749754 -0.63418114 4.7758059e-39
-2.6672552 -0.22761805 -0.6330229 3.0309329e-39
-2.6667111 -0.23930162 -0.62867182 5.9711079e-39
-2.666784 -0.22297248 -0.61967146 7.8074577e-39
-2.6661611 -0.24028853 -0.61724848 7.9896882e-39
-2.6662207 -0.22229828 -0.60688257 8.2655534e-39
-2.6639533 -0.18750972 -0.53456962 1.1020262e-38
-2.6647263 -0.14277148 -0.52249873 1.1112457e-38
-2.6643465 -0.15666845 -0.52317888 1.1020262e-38
-2.6646116 -0.1273341 -0.50996387 1.1204651e-38
-2.6643081 -0.13904946 -0.51090485 1.1204651e-38
-2.6645164 -0.11082063 -0.49715784 1.1205374e-38
-2.6640115 -0.12563643 -0.4956966 1.1204652e-38
-2.6636732 -0.1397066 -0.49740452 1.1204652e-38
-2.6630318 -0.15479535 -0.4931227 1.1204655e-38
-2.6637447 -0.11080296 -0.4802171 1.1020983e-38
-2.6632543 -0.12634613 -0.47954693 1.1573075e-38
-2.6633635 -0.10516234 -0.46819305 1.10217e-38
-2.6631429 -0.092888772 -0.45539838 1.0929506e-38
-2.6625333 -0.091468081 -0.44110286 1.1021701e-38
-2.6620057 -0.088012934 -0.42728835 1.1572713e-38
-2.6617436 -0.073193558 -0.41192147 1.2215926e-38
-2.6612563 -0.088318534 -0.41104296 1.2032253e-38
-2.6620219 -0.044022646 -0.39909935 1.2126963e-38
-2.6615868 -0.056320421 -0.39752647 1.2768377e-38
-2.6612647 -0.06857276 -0.39841297 1.2582913e-38
-2.6616769 -0.035192668 -0.38579655 1.2127322e-38
-2.6612952 -0.044719242 -0.38360205 1.1572713e-38
-2.6608925 -0.05795515 -0.38336188 1.2674742e-38
-2.6612062 -0.029787639 -0.37196702 1.2586864e-38
-2.6605167 -0.031606592 -0.35802561 1.212661e-38
-2.6599445 -0.0077803205 -0.33001101 1.2951692e-38
-2.6619689 0.10237396 -0.30293849 1.4053734e-38
-2.6593382 0.072904289 -0.26435235 1.3595272e-38
-2.6587362 0.05663275 -0.26170534 1.3319761e-38
-2.6585917 0.071922474 -0.24861768 1.3136449e-38
-2.660408 0.15258743 -0.23611784 1.5245801e-38
-2.6597474 0.1415651 -0.22877626 1.5245799e-38
-2.6583958 0.086562358 -0.23481812 1.3228286e-38
-2.6579623 0.075147107 -0.2327155 1.3228644e-38
-2.6576636 0.062992975 -0.23405403 1.359455e-38
-2.6592712 0.13669226 -0.22149774 1.4239561e-38
-2.6580329 0.10400338 -0.21553451 1.2768747e-38
-2.6576588 0.090713747 -0.2159602 1.2216292e-38
-2.6574457 0.077666886 -0.21974798 1.3320121e-38
-2.6585853 0.13133882 -0.20992337 1.3319406e-38
-2.6583285 0.11759437 -0.21321099 1.2859865e-38
-2.6415348 0.78833884 0.59041971 5.8904169e-39
-2.6408753 0.77509534 0.59629023 6.3499448e-39
-2.6419654 0.81859928 0.60060644 6.3546321e-39
-2.6664388 -0.26903853 -0.64198852 2.1129353e-39
-2.6659732 -0.2634683 -0.62816143 2.8476178e-39
-2.6656635 -0.25498793 -0.61587149 4.8676428e-39
-2.6652648 -0.27063495 -0.61727959 3.9489263e-39
-2.6649947 -0.25434107 -0.60078174 9.5530524e-39
-2.6634078 -0.20364791 -0.53307492 1.0928427e-38
-2.6627688 -0.21982418 -0.52955061 1.1020262e-38
-2.663137 -0.19010715 -0.51835167 1.1020262e-38
-2.6627793 -0.1282993 -0.47039884 1.1572716e-38
-2.6625903 -0.14346622 -0.47608948 1.129649e-38
-2.6623349 -0.1572866 -0.47945893 1.1113178e-38
-2.6629195 -0.11457814 -0.46456909 1.1480879e-38
-2.6623542 -0.12925622 -0.46169391 1.1389043e-38
-2.6622159 -0.11248778 -0.4477841 1.1388683e-38
-2.6617334 -0.10929519 -0.43511632 1.1388685e-38
-2.6611941 -0.10758919 -0.42218298 1.1664551e-38
-2.6607318 -0.10144389 -0.40805739 1.2124446e-38
-2.6604807 -0.090068176 -0.3951619 1.2398878e-38
-2.660182 -0.076086678 -0.37954116 1.2766584e-38
-2.6599352 -0.08829885 -0.382052 1.2674029e-38
-2.6606619 -0.043526672 -0.36893636 1.1573431e-38
-2.6602535 -0.056849569 -0.36862856 1.2859489e-38
-2.6597655 -0.069684282 -0.36625004 1.285878e-38
-2.6599553 -0.043551978 -0.35345393 1.2218084e-38
-2.659601 -0.057553243 -0.35477296 1.2859853e-38
-2.6589899 -0.072401345 -0.35099715 1.3042096e-38
-2.6593692 -0.041385263 -0.33919257 1.2033693e-38
-2.6588981 -0.055830237 -0.338236 1.3043527e-38
-2.6589947 -0.033154573 -0.32563487 1.2770896e-38
-2.6586914 -0.023396729 -0.31265259 1.2309559e-38
-2.6580577 -0.021533966 -0.29754305 1.2400676e-38
-2.6577129 -0.012650551 -0.28421247 1.3044605e-38
-2.658139 0.040369239 -0.25916189 1.3136803e-38
-2.6579626 0.055631332 -0.24538387 1.3503072e-38
-2.6573308 0.04082353 -0.24113309 1.3044612e-38
-2.6569912 0.028342107 -0.24178956 1.304461e-38
-2.6568007 0.02006823 -0.24297917 1.3319402e-38
-2.6570513 0.04927922 -0.22951797 1.3044615e-38
-2.6578667 0.096992955 -0.21644384 1.2768745e-38
-2.6573119 0.084592707 -0.21231894 1.2677268e-38
-2.6568182 0.071769468 -0.20980999 1.2860941e-38
-2.656641 0.057368021 -0.21527056 1.3044254e-38
-2.6581984 0.12762432 -0.20384286 1.2952057e-38
-2.6577413 0.113322 -0.20309927 1.2860582e-38
-2.6575067 0.12790282 -0.18849273 1.3135012e-38
-2.6660905 -0.27369186 -0.63737601 1.1938615e-39
-2.6652932 -0.2966471 -0.63477737 3.3986308e-39
-2.6652517 -0.27743897 -0.62140507 6.0618658e-39
-2.6650624 -0.28938258 -0.6250059 3.9492893e-39
-2.6644711 -0.30298546 -0.62086385 4.684332e-39
-2.6637888 -0.28700477 -0.59552038 1.0102985e-38
-2.6633818 -0.27936929 -0.58163542 1.0561082e-38
-2.662719 -0.25936878 -0.55411851 1.0652919e-38
-2.6625469 -0.24410711 -0.54044157 1.0561083e-38
-2.6625791 -0.25292447 -0.5468666 1.0561083e-38
-2.662245 -0.23577847 -0.5284183 1.0928427e-38
-2.6619387 -0.22287503 -0.51332068 1.1020262e-38
-2.6617827 -0.20464969 -0.49807188 1.1204293e-38
-2.6616199 -0.19209293 -0.48635679 1.1204293e-38
-2.6610603 -0.20625629 -0.48327193 1.1204293e-38
-2.6606631 -0.21940865 -0.48309666 1.1204654e-38
-2.6612811 -0.18622768 -0.47511712 1.120501e-38
-2.6616311 -0.14517833 -0.45616418 1.1388326e-38
-2.6612995 -0.159564 -0.45821953 1.1388326e-38
-2.6611822 -0.1737873 -0.46487677 1.1388325e-38
-2.6615293 -0.13074066 -0.44456145 1.1572356e-38
-2.6617622 -0.10241576 -0.43128702 1.1388686e-38
-2.6608722 -0.12949634 -0.42934164 1.1939701e-38
-2.6607025 -0.1165279 -0.41719678 1.2215208e-38
-2.6602674 -0.11103091 -0.40408769 1.2489997e-38
-2.6596668 -0.10917912 -0.38971278 1.2581833e-38
-2.6590819 -0.10671046 -0.37528154 1.2398162e-38
-2.6589241 -0.091622464 -0.36202952 1.2582908e-38
-2.6585853 -0.081722245 -0.3481693 1.2858418e-38
-2.6581891 -0.074095495 -0.33452824 1.2766226e-38
-2.6584246 -0.045140069 -0.32090688 1.2399956e-38
-2.6580665 -0.059205048 -0.32218397 1.2859137e-38
-2.6576278 -0.071393043 -0.32046658 1.2950257e-38
-2.6579893 -0.03856919 -0.30709746 1.2769456e-38
-2.6576009 -0.030454893 -0.29330984 1.2861294e-38
-2.6571274 -0.025609825 -0.27978164 1.2677259e-38
-2.6565108 -0.02312375 -0.26464614 1.2401036e-38
-2.6561332 -0.016086962 -0.25179261 1.2676547e-38
-2.6561847 0.0092163738 -0.23650512 1.3135728e-38
-2.6558788 -0.0045239013 -0.23871073 1.3135017e-38
-2.6564336 0.037744246 -0.22344892 1.2952775e-38
-2.6560233 0.022410724 -0.22440337 1.2952415e-38
-2.6561625 0.050473828 -0.2092458 1.2860581e-38
-2.6568639 0.093583994 -0.19666065 1.2858787e-38
-2.6566277 0.083390415 -0.19809237 1.2860939e-38
-2.6560957 0.065678462 -0.19791327 1.2677268e-38
-2.6555641 0.0515377 -0.19542708 1.2861298e-38
-2.6566608 0.10971317 -0.18173699 1.2861298e-38
-2.6565368 0.098570824 -0.18624589 1.2861299e-38
-2.656023 0.082714275 -0.18526849 1.2768745e-38
-2.6556256 0.067987867 -0.18609902 1.2768745e-38
-2.6550756 0.05495825 -0.18249215 1.2860582e-38
-2.6565597 0.12453194 -0.16990215 1.3228284e-38
-2.656091 0.10969175 -0.16925068 1.2860939e-38
-2.6557944 0.096547469 -0.17127235 1.2768384e-38
-2.6558449 0.12388723 -0.15464403 1.3227568e-38
-2.6665308 -0.29420236 -0.66034454 3.3060779e-39
-2.6661525 -0.2881774 -0.64812821 1.8367099e-39
-2.6655169 -0.3041411 -0.64454794 1.2856969e-39
-2.6653886 -0.31166172 -0.64661282 4.3169914e-39
-2.6654348 -0.28658462 -0.63135993 4.3166299e-39
-2.6653423 -0.30061701 -0.63843149 3.3986308e-39
-2.6648867 -0.30994532 -0.63448894 3.7656155e-39
-2.6643963 -0.32453269 -0.63319886 2.2958874e-39
-2.6632581 -0.33971778 -0.61808813 3.7656183e-39
-2.6631379 -0.32284075 -0.60450083 9.1857076e-39
-2.6630249 -0.30647755 -0.59140313 1.037777e-38
-2.6620529 -0.33482382 -0.58846974 1.0652918e-38
-2.6630037 -0.28812921 -0.57902551 1.0836589e-38
-2.6624343 -0.30443236 -0.5771147 1.0469248e-38
-2.6622546 -0.28933936 -0.56337833 1.0561085e-38
-2.6620419 -0.27389616 -0.54869497 1.0928425e-38
-2.6615491 -0.28863022 -0.54745191 1.0928428e-38
-2.6619289 -0.25782633 -0.53578305 1.0928786e-38
-2.6613548 -0.255566 -0.52172631 1.0928784e-38
-2.660789 -0.25343657 -0.5079298 1.1112098e-38
-2.6603785 -0.24604262 -0.49413154 1.1203935e-38
-2.6606681 -0.19434632 -0.46694374 1.1203933e-38
-2.6603222 -0.20801473 -0.46821785 1.1203935e-38
-2.6598854 -0.22044525 -0.46670714 1.1296488e-38
-2.6607084 -0.17571075 -0.45573241 1.148016e-38
-2.6600347 -0.19042867 -0.45050713 1.1571638e-38
-2.6596375 -0.20627664 -0.45207167 1.1479801e-38
-2.6591334 -0.22107133 -0.45062065 1.1571994e-38
-2.6609004 -0.14773327 -0.4417899 1.1663834e-38
-2.6605403 -0.16031884 -0.44205508 1.1571998e-38
-2.6600947 -0.17421712 -0.44130042 1.148016e-38
-2.659688 -0.18751612 -0.44101128 1.1755668e-38
-2.6591268 -0.20212194 -0.43817788 1.1755668e-38
-2.6601639 -0.14709394 -0.42521927 1.221521e-38
-2.659688 -0.15983343 -0.42304617 1.2123014e-38
-2.6594918 -0.17255929 -0.42699617 1.1939342e-38
