# .PCD v0.7 - Point Cloud Data file format
VERSION 0.7
FIELDS x y z rgb
SIZE 4 4 4 4
TYPE F F F F
COUNT 1 1 1 1
WIDTH 1012
HEIGHT 1
VIEWPOINT 0 0 0 1 0 0 0
POINTS 1012
DATA ascii
-1.7645267 -4.893517 0.039767303 1.0872947e-38
-1.758971 -4.89294 0.039280128 1.1149176e-38
-1.7867006 -4.8961711 0.04916504 1.160978e-38
-1.7804734 -4.8955932 0.050063591 1.1610145e-38
-1.7781714 -4.8951521 0.045591444 1.17027e-38
-1.7708451 -4.8947048 0.051582303 1.2162955e-38
-1.7612803 -4.8938222 0.053082991 1.1335004e-38
-1.7826037 -4.8964586 0.06389574 1.2805795e-38
-1.7765936 -4.8959141 0.065061413 1.3451162e-38
-1.783193 -4.8972063 0.078492679 1.3726671e-38
-1.7771363 -4.8965154 0.076640986 1.3450445e-38
-1.766229 -4.8954396 0.076896638 1.3819586e-38
-1.7646989 -4.895411 0.079517141 1.446459e-38
-1.7557173 -4.8946357 0.082060099 1.5201426e-38
-1.7486826 -4.8939271 0.081909329 1.5846794e-38
-1.7764381 -4.8972459 0.093588002 1.5477305e-38
-1.7668138 -4.8961177 0.090015769 1.4740459e-38
-1.7576292 -4.8951979 0.089938983 1.4187287e-38
-1.7579398 -4.8953261 0.091993943 1.4280197e-38
-1.7509519 -4.8946214 0.09182065 1.5478371e-38
-1.7462558 -4.8941031 0.090767562 1.5754598e-38
-1.7674229 -4.8968458 0.1041512 1.4740459e-38
-1.7625251 -4.8963685 0.10438731 1.5477664e-38
-1.7530119 -4.8953843 0.10363738 1.4925209e-38
-1.7535288 -4.895525 0.1055192 1.5202152e-38
-1.746419 -4.8948507 0.10624703 1.6307776e-38
-1.7357039 -4.8937144 0.10481848 1.6215576e-38
-1.7690939 -4.8976135 0.11688205 1.4924131e-38
-1.7572984 -4.896368 0.11541452 1.4188005e-38
-1.7592304 -4.8967357 0.11912256 1.593792e-38
-1.7490062 -4.8957839 0.12056056 1.547802e-38
-1.7486976 -4.8956838 0.11908754 1.5938638e-38
-1.7403821 -4.8949718 0.12157299 1.6953141e-38
-1.7294279 -4.893702 0.11780329 1.6676552e-38
-1.7636969 -4.8977242 0.13062599 1.4924849e-38
-1.7506105 -4.8964467 0.13120303 1.5662051e-38
-1.7361534 -4.8951144 0.13352114 1.5846799e-38
-1.756722 -4.8977799 0.14653778 1.6398534e-38
-1.7472602 -4.8967991 0.14574763 1.5661692e-38
-1.7311219 -4.8952708 0.14745463 1.686023e-38
-1.748829 -4.8976364 0.16016643 1.5016684e-38
-1.7300861 -4.8958759 0.16245523 1.6675485e-38
-1.7299269 -4.8965263 0.17656539 1.6582927e-38
-1.7307539 -4.897068 0.18629336 1.6306338e-38
-1.7299905 -4.8970652 0.1878438 1.7043895e-38
-1.7256645 -4.8973374 0.20275208 1.5846082e-38
-1.7271984 -4.8974705 0.20232794 1.7228286e-38
-1.7289826 -4.8981161 0.2122388 1.4280201e-38
-1.7288687 -4.8982759 0.21585558 1.4741168e-38
-1.7241602 -4.8984509 0.22951494 1.5109234e-38
-1.696614 -4.8967619 0.25190815 1.538618e-38
-1.6963031 -4.8970132 0.25788206 1.8150241e-38
-1.7091181 -4.8988671 0.27009839 1.4832287e-38
-1.6915355 -4.8968935 0.26540819 1.5478376e-38
-1.6921105 -4.8971443 0.269508 1.7320845e-38
-1.7043122 -4.8990316 0.2837159 1.5293984e-38
-1.6857301 -4.8970728 0.28147209 1.8335351e-38
-1.67314 -4.8983841 0.33583829 1.6953153e-38
-1.6682649 -4.8985481 0.34960803 1.6307426e-38
-1.6644205 -4.8988357 0.36381397 1.5662415e-38
-1.6518162 -4.8974457 0.36099085 1.326533e-38
-1.652037 -4.89818 0.37607062 1.3081296e-38
-1.6500027 -4.8986664 0.39066646 1.2251897e-38
-1.6375726 -4.8973532 0.38910887 1.0592747e-38
-1.5966364 -4.8960524 0.44799817 1.3262085e-38
-1.5895225 -4.8953304 0.44773376 1.3354278e-38
-1.5907954 -4.8961353 0.46209627 1.3446836e-38
-1.6159211 -4.8991365 0.47259802 1.0776422e-38
-1.5927463 -4.8968887 0.47393617 1.3355004e-38
-1.5870394 -4.8964329 0.47632152 1.3354642e-38
-1.610096 -4.8992014 0.48626804 1.0776422e-38
-1.5942076 -4.8976626 0.48723906 1.2894746e-38
-1.5816534 -4.8965187 0.48951733 1.2065711e-38
-1.603296 -4.8991528 0.49960729 1.0223605e-38
-1.5864407 -4.8976097 0.50251031 1.2619958e-38
-1.5794294 -4.8969092 0.5024811 1.151362e-38
-1.59908 -4.8993587 0.51286387 1.0868251e-38
-1.5765094 -4.8972492 0.51585382 1.2434851e-38
-1.5510594 -4.8948488 0.51875055 1.3997872e-38
-1.5715302 -4.8973942 0.5294373 1.2434851e-38
-1.5470245 -4.8950109 0.5307017 1.5102413e-38
-1.5502601 -4.8955021 0.53427893 1.492018e-38
-1.5706418 -4.8979273 0.54260206 1.2988019e-38
-1.5637926 -4.8973141 0.54408103 1.2342658e-38
-1.5492752 -4.8961368 0.54980338 1.2801848e-38
-1.5485992 -4.8957925 0.54393268 1.4364846e-38
-1.5646632 -4.8979239 0.55515778 1.2711791e-38
-1.5590286 -4.8974423 0.55686462 1.1789494e-38
-1.5499989 -4.8966179 0.55846488 1.234159e-38
-1.5569497 -4.8977118 0.56695515 1.2527767e-38
-1.5595883 -4.8981657 0.57099193 1.1329236e-38
-1.548591 -4.8970137 0.56982255 1.1697302e-38
-1.551003 -4.8974056 0.57302564 1.1052293e-38
-1.568135 -4.8996305 0.58397573 1.1421788e-38
-1.560823 -4.8989115 0.58418328 1.2066791e-38
-1.5610863 -4.8987989 0.58124 1.1882403e-38
-1.5512552 -4.8979402 0.58380795 1.0776068e-38
-1.5430735 -4.897059 0.5824222 1.0776068e-38
-1.5417897 -4.8970027 0.58395183 1.3448295e-38
-1.5479879 -4.8981843 0.59588009 1.1513627e-38
-1.5446168 -4.8978682 0.5963065 1.1605467e-38
-1.539404 -4.8973289 0.59589016 1.040873e-38
-1.5426633 -4.8983512 0.61066812 1.1789141e-38
-1.5379087 -4.8985338 0.62457699 1.2342315e-38
-2.1223941 -4.8963251 -0.65645772 1.5109225e-38
-2.0981553 -4.8958707 -0.61490345 1.5201057e-38
-2.0784588 -4.8939571 -0.61383528 1.5016667e-38
-2.095814 -4.8962846 -0.60119516 1.5292894e-38
-2.0811241 -4.8947892 -0.6018436 1.52007e-38
-2.07096 -4.8938804 -0.59962612 1.5016309e-38
-2.0846665 -4.8957524 -0.58892751 1.5108504e-38
-2.0762966 -4.8949218 -0.5888446 1.5107781e-38
-2.0756953 -4.8946242 -0.59387201 1.520142e-38
-2.0781143 -4.8959088 -0.57177186 1.5385091e-38
-2.0728617 -4.8953152 -0.5732581 1.5199618e-38
-2.0777504 -4.8964429 -0.55969775 1.5476567e-38
-2.0680704 -4.8954363 -0.56057161 1.4924835e-38
-2.0630665 -4.8956413 -0.54567158 1.5201426e-38
-2.0592501 -4.8951888 -0.54718983 1.5201062e-38
-2.0525377 -4.8951411 -0.53401655 1.5385453e-38
-2.0473385 -4.894742 -0.53149492 1.5108504e-38
-2.0528786 -4.8958468 -0.51979512 1.501703e-38
-2.0494401 -4.8956728 -0.51622111 1.5016312e-38
-2.0406432 -4.8946862 -0.51854271 1.5108143e-38
-2.0458381 -4.8957233 -0.50755423 1.5292184e-38
-2.0336907 -4.8946199 -0.50527048 1.520034e-38
-2.044585 -4.8962874 -0.49295613 1.5476938e-38
-2.0384905 -4.8957152 -0.49220663 1.5476931e-38
-2.0229666 -4.8942533 -0.49038523 1.538509e-38
-2.0150559 -4.8937864 -0.48356053 1.5477285e-38
-2.0106604 -4.8936934 -0.47625208 1.5292897e-38
-2.0225513 -4.8953357 -0.46658829 1.5661325e-38
-2.0165586 -4.8947673 -0.46597257 1.5568769e-38
-2.0095243 -4.8940578 -0.46614724 1.5476928e-38
-2.0163615 -4.895391 -0.45234248 1.4923761e-38
-2.0152853 -4.8953495 -0.45095 1.4555338e-38
-2.0058765 -4.8944745 -0.44961491 1.5293259e-38
-2.0019946 -4.8940887 -0.4495818 1.5293259e-38
-2.0250847 -4.8970575 -0.43546531 1.5107793e-38
-2.0139225 -4.8958435 -0.43759981 1.4923403e-38
-2.0044992 -4.8950644 -0.43420318 1.5108153e-38
-1.9992919 -4.8944669 -0.43586704 1.5385453e-38
-1.9903563 -4.8938732 -0.42956772 1.5108139e-38
-2.0097024 -4.8960176 -0.42500174 1.5016317e-38
-2.0020876 -4.8952074 -0.42608708 1.4924482e-38
-1.9946679 -4.8947225 -0.42068547 1.5200336e-38
-1.9861332 -4.893836 -0.42144617 1.5017395e-38
-1.9992979 -4.895648 -0.41086486 1.5200707e-38
-1.9917426 -4.8950295 -0.40800473 1.5292535e-38
-1.9893501 -4.8947549 -0.4087674 1.520106e-38
-1.9838022 -4.8940768 -0.41141972 1.5201062e-38
-1.9940284 -4.8957963 -0.39659965 1.4831559e-38
-1.9939383 -4.8959484 -0.39318267 1.4923754e-38
-1.9781525 -4.8943529 -0.39363974 1.4831915e-38
-1.9673451 -4.8937922 -0.38269475 1.418763e-38
-1.9671339 -4.8940153 -0.37752625 1.4741527e-38
-1.9605196 -4.8941193 -0.36135021 1.4373102e-38
-1.9567908 -4.8935461 -0.36561865 1.4003604e-38
-1.9743828 -4.8957953 -0.35513571 1.3635894e-38
-1.9678439 -4.8951659 -0.35466036 1.4281263e-38
-1.9605298 -4.8944931 -0.35345623 1.4373102e-38
-1.9522281 -4.8935714 -0.3554464 1.4373102e-38
-1.9462767 -4.892993 -0.35513109 1.4740809e-38
-1.9634811 -4.8953938 -0.34061912 1.1701963e-38
-1.9575957 -4.8948078 -0.34059614 1.2713956e-38
-1.9491177 -4.8941154 -0.33735839 1.2621399e-38
-1.9474779 -4.8938637 -0.3392221 1.3727024e-38
-1.9638839 -4.8960152 -0.3283045 8.4758448e-39
-1.9461602 -4.8944745 -0.32350397 8.5640874e-39
-1.9698521 -4.8972297 -0.31518903 9.5793183e-39
-1.9656588 -4.8966794 -0.31798404 9.0268634e-39
-1.9535123 -4.8956857 -0.31337509 9.3020084e-39
-1.9493622 -4.8951454 -0.31605694 8.3800563e-39
-1.9375076 -4.894136 -0.31240958 1.4371318e-38
-1.9609317 -4.8968997 -0.3033413 1.2894394e-38
-1.9601134 -4.8975739 -0.28732231 1.2989108e-38
-1.9526021 -4.8974447 -0.27420202 1.2248666e-38
-1.8601435 -4.8979359 -0.068553999 1.3360399e-38
-1.8539902 -4.8974252 -0.066375107 1.4096519e-38
-1.8280823 -4.8948569 -0.066061266 1.400432e-38
-1.8232554 -4.8944521 -0.064451426 1.2713591e-38
-1.8585579 -4.8982406 -0.058754914 1.3541201e-38
-1.8447025 -4.8971615 -0.052352414 1.2160063e-38
-1.83735 -4.8963871 -0.053223453 1.4188712e-38
-1.8321286 -4.8956795 -0.057186749 1.4188712e-38
-1.8276517 -4.8954668 -0.052230623 1.3912128e-38
-1.8216414 -4.8949819 -0.049813714 1.3911053e-38
-1.8165376 -4.8943996 -0.051365625 1.4003964e-38
-1.8372353 -4.8969936 -0.040137935 1.31735e-38
-1.8305982 -4.896112 -0.044800796 1.3265333e-38
-1.8213853 -4.8957176 -0.033689789 1.2805081e-38
-1.8122259 -4.8946457 -0.037055861 1.3911056e-38
-1.8014824 -4.8934631 -0.039415065 1.4372027e-38
-1.8319979 -4.8971138 -0.026528005 1.3081309e-38
-1.8173898 -4.8956723 -0.02621316 1.2805081e-38
-1.8150253 -4.895504 -0.024790578 1.3081663e-38
-1.8418407 -4.898665 -0.014461779 1.3541938e-38
-1.8225261 -4.8967581 -0.014065864 1.0314367e-38
-1.8190866 -4.8965092 -0.012073954 1.1605824e-38
-1.8122346 -4.8958097 -0.012415804 1.2712885e-38
-1.8133205 -4.8960934 -0.0087024495 1.372667e-38
-1.8365281 -4.898778 -0.00084404764 1.3909273e-38
-1.8211464 -4.8973188 0.00073043525 1.2528498e-38
-1.8133233 -4.8966393 0.0028594541 1.2897998e-38
-1.8043346 -4.8957243 0.0024513728 1.2069678e-38
-1.8197588 -4.8978062 0.013978365 1.2345547e-38
-1.8033292 -4.8962712 0.016164366 1.2346266e-38
-1.8004138 -4.8959694 0.015926562 1.2715406e-38
-1.8174939 -4.8982072 0.027251935 1.1976408e-38
-1.8106941 -4.8981795 0.041021787 1.2161882e-38
-1.7925141 -4.8965039 0.043927014 1.1610506e-38
-1.788274 -4.8960128 0.042484995 1.1793818e-38
-1.782337 -4.8954606 0.043326803 1.1794536e-38
-1.8106128 -4.8987784 0.053887997 1.2531016e-38
-1.8049433 -4.8982477 0.054614257 1.2898358e-38
-1.7932733 -4.897213 0.057337001 1.2531013e-38
-1.7941474 -4.8973594 0.058597945 1.308238e-38
-1.7790396 -4.8957157 0.055684652 1.2347704e-38
-1.7705092 -4.895257 0.063987069 1.3728827e-38
-1.7617588 -4.8940153 0.056165591 1.1427201e-38
-1.7994128 -4.8983235 0.06789919 1.3634834e-38
-1.796119 -4.8980899 0.069903493 1.3727029e-38
-1.770892 -4.895925 0.077326119 1.4280558e-38
-1.7660137 -4.8952456 0.073237844 1.4833725e-38
-1.7591988 -4.8944783 0.071380801 1.2070046e-38
-1.7975618 -4.8987851 0.081587382 1.4002897e-38
-1.7881582 -4.8979588 0.083941899 1.4648265e-38
-1.7780926 -4.8969278 0.083357781 1.4924849e-38
-1.7748888 -4.8964806 0.080658436 1.4925208e-38
-1.7630103 -4.8953748 0.082322255 1.4280558e-38
-1.790225 -4.8986473 0.094161965 1.4740459e-38
-1.7838812 -4.8981805 0.097666569 1.5016684e-38
-1.7749941 -4.8972821 0.097412124 1.5201434e-38
-1.7674054 -4.8964758 0.096354231 1.4556425e-38
-1.7823292 -4.8982892 0.10325278 1.5661696e-38
-1.7701277 -4.8974385 0.11100342 1.5846085e-38
-1.7630301 -4.8966961 0.11026514 1.5385824e-38
-1.7766349 -4.898622 0.12232565 1.529327e-38
-1.7599055 -4.8969522 0.12228987 1.5753886e-38
-1.758235 -4.8968654 0.12397731 1.5938279e-38
-1.7791137 -4.8994393 0.13439366 1.5569136e-38
-1.7707072 -4.8987737 0.13805529 1.6214143e-38
-1.7537935 -4.897089 0.1380908 1.5754245e-38
-1.771376 -4.899415 0.15022439 1.6214143e-38
-1.7491312 -4.8972793 0.15196307 1.6398533e-38
-1.7654841 -4.899467 0.16377105 1.5753526e-38
-1.7433542 -4.8973813 0.16631584 1.7044261e-38
-1.7404517 -4.8971109 0.16672786 1.7320481e-38
-1.7420217 -4.8978367 0.1787895 1.5662051e-38
-1.736717 -4.8974032 0.18080623 1.732012e-38
-1.7366505 -4.8979449 0.19241303 1.6306338e-38
-1.7316632 -4.8980889 0.20599739 1.5753885e-38
-1.7330455 -4.8988371 0.21892966 1.4740809e-38
-1.7319404 -4.8984933 0.21397911 1.4740809e-38
-1.727859 -4.8989625 0.23253435 1.4740809e-38
-1.7252442 -4.8993278 0.24579014 1.5108517e-38
-1.7205138 -4.8994808 0.25902525 1.4833366e-38
-1.713257 -4.8994293 0.27325049 1.5109237e-38
-1.7083753 -4.8995833 0.28682399 1.5109602e-38
-1.7053283 -4.8998995 0.29995686 1.5570218e-38
-1.7000647 -4.9000573 0.31440613 1.630742e-38
-1.6886874 -4.9001846 0.34113458 1.6031917e-38
-1.6904718 -4.9004683 0.34337875 1.805841e-38
-1.6836735 -4.9003778 0.35580891 1.7229377e-38
-1.6773626 -4.9004488 0.37065089 1.8427195e-38
-1.6675799 -4.900034 0.38251659 1.6031558e-38
-1.6390009 -4.9010763 0.46495029 1.2805061e-38
-1.5985376 -4.898396 0.49361578 1.298694e-38
-1.5914869 -4.8982897 0.50626713 1.3080572e-38
-1.5857849 -4.8983464 0.51949883 1.3172767e-38
-1.589408 -4.8993883 0.53392494 1.3172407e-38
-1.5788949 -4.8982601 0.53221917 1.326424e-38
-1.5771573 -4.8985376 0.54177374 1.2988019e-38
-1.5847987 -4.89959 0.54792297 1.2711791e-38
-1.5787054 -4.8989911 0.54810667 1.3172047e-38
-1.5761238 -4.8988338 0.55023032 1.2527046e-38
-1.5554434 -4.8967667 0.55011541 1.3537614e-38
-1.5733327 -4.8990908 0.56156641 1.3079853e-38
-1.5686078 -4.898663 0.56248182 1.2619242e-38
-1.5530603 -4.8970475 0.56110215 1.2064284e-38
-1.5552337 -4.8973742 0.56341839 1.2986238e-38
-1.5666893 -4.8988624 0.570759 1.1605822e-38
-1.5544873 -4.8979588 0.57738215 1.3448294e-38
-1.5547832 -4.8981309 0.58040595 1.4001106e-38
-1.5750561 -4.9006257 0.59043324 1.3264963e-38
-1.5636356 -4.8994203 0.5890277 1.1974957e-38
-1.5462179 -4.8977337 0.59007722 1.3540133e-38
-1.5496286 -4.898253 0.59387326 1.3448296e-38
-1.5715822 -4.9006777 0.59887052 1.1329589e-38
-1.5734806 -4.9009438 0.60049582 1.1329592e-38
-1.5689259 -4.9005818 0.60245287 1.1882403e-38
-1.5573573 -4.8994536 0.60298032 1.1790217e-38
-1.5474029 -4.8987808 0.60976338 1.1972454e-38
-1.5457991 -4.8983641 0.60431665 1.3447216e-38
-1.5693425 -4.9013305 0.61741936 1.1237758e-38
-1.5697818 -4.9013381 0.61665803 1.1145561e-38
-1.5572221 -4.8999681 0.61417127 1.0868984e-38
-1.5448716 -4.8987556 0.61456734 1.1697664e-38
-1.547246 -4.8991508 0.6179257 1.2065368e-38
-1.5728091 -4.9023061 0.63076991 1.1329954e-38
-1.5535127 -4.9003744 0.63060099 1.1053372e-38
-1.5456237 -4.8995676 0.63018084 1.0960459e-38
-1.5456598 -4.8997264 0.63346899 1.1144132e-38
-1.5442512 -4.9001102 0.64457059 1.2158278e-38
-1.5430716 -4.9000044 0.64481694 1.1881692e-38
-2.147229 -4.8975897 -0.6821233 1.5384375e-38
-2.1398697 -4.8976274 -0.66578859 1.5293617e-38
-2.1320045 -4.8973603 -0.65482789 1.5201419e-38
-2.1243224 -4.897387 -0.63804948 1.5293253e-38
-2.1233091 -4.8978357 -0.62639511 1.5201059e-38
-2.1138823 -4.8983092 -0.59646606 1.5385091e-38
-2.0845039 -4.8954377 -0.59524477 1.5291812e-38
-2.1025827 -4.8977737 -0.58394659 1.538545e-38
-2.0910208 -4.8972769 -0.57005334 1.5477646e-38
-2.0914228 -4.8979692 -0.55623895 1.5386179e-38
-2.0851619 -4.8979526 -0.54337507 1.5569122e-38
-2.0641239 -4.8966846 -0.52579886 1.5385454e-38
-2.06282 -4.8971519 -0.51314795 1.5200703e-38
-2.0604296 -4.8975463 -0.49974889 1.5200704e-38
-2.0518417 -4.8966517 -0.50055587 1.5292538e-38
-2.0441203 -4.8961506 -0.49486372 1.5477284e-38
-2.059407 -4.8980184 -0.48759264 1.5200706e-38
-2.0353706 -4.8957424 -0.48503578 1.5476564e-38
-2.0315533 -4.8953757 -0.48474145 1.5384728e-38
-2.0580709 -4.8984375 -0.47589692 1.5108518e-38
-2.0289454 -4.8956761 -0.4728713 1.5568398e-38
-2.0257618 -4.8954039 -0.47191691 1.5476925e-38
-2.0370157 -4.8970866 -0.46004692 1.4093994e-38
-2.0329428 -4.8964977 -0.46391422 1.4555691e-38
-2.0196996 -4.8953376 -0.46052426 1.4371297e-38
-2.0197914 -4.895483 -0.45763585 1.5201063e-38
-2.0344598 -4.8978105 -0.43931651 1.5107793e-38
-2.033433 -4.8974061 -0.44571251 1.4554972e-38
-2.0201352 -4.8961325 -0.44460174 1.5016672e-38
-2.013778 -4.8956504 -0.44139299 1.5385091e-38
-2.036716 -4.898335 -0.43297473 1.5107793e-38
-2.0167134 -4.8963242 -0.43331486 1.4647169e-38
-2.0080292 -4.8959112 -0.42372793 1.5384728e-38
-1.9943498 -4.8943086 -0.42878073 1.4925562e-38
-2.0265012 -4.8979912 -0.41867203 1.4830848e-38
-2.0104144 -4.8964567 -0.41720849 1.5384728e-38
-2.0108867 -4.896637 -0.41438359 1.5293616e-38
-2.0007415 -4.8955698 -0.41556889 1.520034e-38
-1.996284 -4.8951163 -0.4157621 1.5108139e-38
-2.0169153 -4.8975973 -0.40677449 1.5384741e-38
-2.0020976 -4.8960953 -0.40730333 1.5292893e-38
-2.010318 -4.8977451 -0.38971695 1.4370583e-38
-1.998777 -4.8968778 -0.38370994 1.4278023e-38
-1.9969007 -4.8963065 -0.39185479 1.5016665e-38
-1.9903893 -4.8956532 -0.39194536 1.4924106e-38
-2.0038507 -4.8974004 -0.38335931 1.4646444e-38
-1.9789007 -4.8952928 -0.37531659 1.4556773e-38
-1.9765732 -4.8948479 -0.37982425 1.4741527e-38
-1.9903507 -4.8971353 -0.36047885 1.4004675e-38
-1.9816235 -4.8962488 -0.36081681 1.4649323e-38
-1.973902 -4.8954449 -0.36153644 1.455821e-38
-1.9674003 -4.8948455 -0.36051026 1.4464583e-38
-1.9837986 -4.897018 -0.34911504 1.3543697e-38
-1.9828546 -4.8969278 -0.34903738 1.3452952e-38
-1.9760435 -4.8962827 -0.34832123 1.4189786e-38
-1.9672205 -4.8951378 -0.35392705 1.474189e-38
-1.9667696 -4.8960547 -0.33356285 1.1147713e-38
-1.9818619 -4.8980131 -0.32395661 7.0014434e-39
-1.976339 -4.8974333 -0.32456982 8.5676803e-39
-1.9642624 -4.8965898 -0.31693846 6.5347102e-39
-1.9606413 -4.8960304 -0.32114145 1.1607252e-38
-1.9841994 -4.8990364 -0.30721954 1.3076986e-38
-1.9794152 -4.8984542 -0.30944487 8.8413932e-39
-1.9675598 -4.8971672 -0.31166971 8.8406701e-39
-1.9550694 -4.8961544 -0.30673939 1.4189796e-38
-1.9756092 -4.8992815 -0.28388467 1.3358248e-38
-1.9678348 -4.8985887 -0.28214064 1.2805798e-38
-1.968025 -4.8987627 -0.27884963 1.2806865e-38
-1.9690492 -4.8994365 -0.26675281 7.3655512e-39
-1.9615196 -4.8986239 -0.26804924 9.3960075e-39
-1.8772391 -4.8998575 -0.063953131 1.1147004e-38
-1.8766879 -4.8999219 -0.061433699 1.3908906e-38
-1.8656682 -4.8989692 -0.058334798 1.4556421e-38
-1.8593807 -4.8983154 -0.058895033 1.4280188e-38
-1.8513507 -4.8972878 -0.063708052 1.4371664e-38
-1.8494099 -4.8971267 -0.063022181 1.4279828e-38
-1.8728243 -4.9000702 -0.050131615 1.3542998e-38
-1.8678305 -4.899641 -0.048666108 1.4094731e-38
-1.8519715 -4.8980618 -0.048625097 1.4094735e-38
-1.8452677 -4.8973017 -0.050573565 1.3910704e-38
-1.8473293 -4.8982687 -0.034447942 1.3725952e-38
-1.8410883 -4.8983865 -0.018765271 1.4002541e-38
-1.8247967 -4.8965945 -0.022325728 1.0868261e-38
-1.8245541 -4.8966537 -0.020557612 1.354264e-38
-1.8245351 -4.8968349 -0.01668516 1.4647898e-38
-1.8369029 -4.8985229 -0.0070437002 1.344937e-38
-1.82023 -4.8970232 -0.003593321 1.3174581e-38
-1.8292782 -4.8984542 0.00760192 1.2806163e-38
-1.8182939 -4.8972955 0.0062472043 1.2622493e-38
-1.8434018 -4.9004159 0.019322317 1.2990555e-38
-1.830842 -4.8993149 0.02253163 1.252922e-38
-1.8014641 -4.8964233 0.023319641 1.4924484e-38
-1.8352971 -4.9002628 0.033199035 1.2898724e-38
-1.8325562 -4.8999243 0.031818308 1.2344475e-38
-1.8267262 -4.9000216 0.046187736 1.2715053e-38
-1.8176819 -4.8996725 0.057889711 1.3450446e-38
-1.7963378 -4.8977528 0.062306877 1.4003973e-38
-1.809459 -4.899354 0.068508349 1.391106e-38
-1.803432 -4.8990684 0.075184278 1.3911061e-38
-1.798173 -4.8983445 0.070960425 1.4464231e-38
-1.7936332 -4.8982325 0.078176565 1.4648622e-38
-1.7876557 -4.8975296 0.075908281 1.42802e-38
-1.7802017 -4.8968277 0.076788239 1.4003971e-38
-1.8077629 -4.9001245 0.088414967 1.4832293e-38
-1.8044839 -4.8995085 0.082283944 1.4187287e-38
-1.793825 -4.8984795 0.082999788 1.5108881e-38
-1.8058294 -4.9005442 0.10138334 1.5569136e-38
-1.8033512 -4.900414 0.10386261 1.4924857e-38
-1.7988727 -4.900362 0.11222026 1.4463876e-38
-1.7926247 -4.8998442 0.11443644 1.5753891e-38
-1.7830271 -4.8988509 0.11367807 1.5661696e-38
-1.7861322 -4.8998132 0.12750357 1.6398536e-38
-1.7756761 -4.8988156 0.12844375 1.6306341e-38
-1.7712587 -4.8990312 0.14233905 1.6121949e-38
-1.7727065 -4.8997946 0.15545052 1.5569134e-38
-1.7661183 -4.899229 0.15738645 1.5846081e-38
-1.7637042 -4.8991275 0.16033509 1.6582921e-38
-1.754971 -4.8983254 0.16178654 1.7320481e-38
-1.7482989 -4.8981328 0.17179626 1.8058047e-38
-1.7520609 -4.899106 0.18447649 1.57546e-38
-1.7433565 -4.8982811 0.18537597 1.7412676e-38
-1.7430706 -4.898921 0.19953011 1.6675117e-38
-1.7438003 -4.8988318 0.19610436 1.7228285e-38
-1.7495356 -4.9001622 0.21216781 1.5662048e-38
-1.7425491 -4.900125 0.22613701 1.4740812e-38
-1.7415215 -4.9005761 0.23785894 1.5292907e-38
-1.7412517 -4.9011679 0.25096038 1.5200711e-38
-1.7388178 -4.9008665 0.24971142 1.5108876e-38
-1.7270255 -4.9004197 0.26515728 1.5293267e-38
-1.7261308 -4.9010153 0.27966082 1.5477298e-38
-1.7214496 -4.9011407 0.29220885 1.5661694e-38
-1.7220608 -4.9012971 0.29423082 1.7689265e-38
-1.7164042 -4.9013276 0.30681324 1.6583283e-38
-1.7113658 -4.9014192 0.3193886 1.7782182e-38
-1.7131157 -4.9017048 0.32175258 1.6859874e-38
-1.7020844 -4.9010401 0.33096474 1.7690348e-38
-1.6971494 -4.901381 0.3486087 1.713718e-38
-1.691583 -4.9013939 0.3606351 1.7505962e-38
-1.6864542 -4.9015245 0.3742339 1.7874747e-38
-1.6888052 -4.9018855 0.37690952 1.8058776e-38
-1.6815685 -4.9016786 0.38780779 1.7045713e-38
-1.6811134 -4.9019771 0.39509329 1.667657e-38
-1.6720846 -4.902257 0.42009339 1.7137904e-38
-1.6663831 -4.9020896 0.42858368 1.6031198e-38
-1.6565254 -4.902389 0.45574033 1.3266039e-38
-1.6491017 -4.9021611 0.46659127 1.2805063e-38
-1.6420658 -4.9022517 0.48336816 1.1514701e-38
-1.6370833 -4.9023962 0.49695191 1.1606895e-38
-1.6317402 -4.9025064 0.51057267 1.1422145e-38
-1.5817933 -4.8996201 0.55490524 1.2527046e-38
-1.5874488 -4.9014845 0.58245134 1.3264963e-38
-1.5814129 -4.9009919 0.58476514 1.3264963e-38
-1.5587653 -4.8986697 0.58341181 1.3631972e-38
-1.586711 -4.9019384 0.59362489 1.3264963e-38
-1.5760986 -4.9010005 0.59617531 1.2343377e-38
-1.5535035 -4.898788 0.59702426 1.3075908e-38
-1.5783219 -4.9017324 0.60697299 1.2343377e-38
-1.566239 -4.9005766 0.60801065 1.1329598e-38
-1.5541263 -4.8994641 0.61003423 1.3632328e-38
-1.5531679 -4.8993626 0.60990012 1.2710734e-38
-1.5729337 -4.9018521 0.62089109 1.2712156e-38
-1.5680805 -4.9013991 0.62154657 1.0592756e-38
-1.5506548 -4.8997288 0.62296796 1.3263183e-38
-1.5752015 -4.902679 0.63361591 1.1329235e-38
-1.5687032 -4.9020777 0.63459843 1.2343021e-38
-1.5607971 -4.9013319 0.63549894 1.068531e-38
-1.5461255 -4.8999777 0.63780195 1.4184775e-38
-1.5417101 -4.8995223 0.63747394 1.4092222e-38
-1.5707152 -4.902914 0.64805943 1.1329595e-38
-1.5631877 -4.9021778 0.64836842 1.2250469e-38
-1.5555487 -4.9014082 0.64820105 1.206644e-38
-1.5505819 -4.90098 0.64961845 1.2342673e-38
-1.5498319 -4.9008508 0.64846253 1.2158281e-38
-1.5661554 -4.9031038 0.66171509 1.2066078e-38
-1.5481826 -4.901403 0.6636374 1.2065723e-38
-1.5463717 -4.9012933 0.66514659 1.2158276e-38
-1.5379581 -4.9016838 0.69118834 1.3079512e-38
-2.1642122 -4.8990049 -0.68801183 1.2433398e-38
-2.1545088 -4.8987164 -0.67363781 1.5384374e-38
-2.1498106 -4.8990302 -0.65707403 1.5569847e-38
-2.1429005 -4.8988495 -0.64630193 1.5385453e-38
-2.1376023 -4.8991165 -0.62946576 1.520106e-38
-2.1368649 -4.8995118 -0.61953634 1.5293257e-38
-2.0958598 -4.8957715 -0.61215073 1.4926633e-38
-2.092015 -4.8958812 -0.60171694 1.4926273e-38
-2.1086302 -4.8993554 -0.56322712 1.5292891e-38
-2.1063461 -4.8997641 -0.54973793 1.566131e-38
-2.0951433 -4.8992381 -0.53721726 1.5752788e-38
-2.0890918 -4.8993239 -0.52262062 1.3727385e-38
-2.0930355 -4.9001908 -0.51258779 1.5201413e-38
-2.0775237 -4.8997402 -0.48938349 1.5385451e-38
-2.0692112 -4.8986354 -0.49523336 1.5568765e-38
-2.0643756 -4.8983364 -0.49134991 1.5569481e-38
-2.0717192 -4.8994203 -0.48389152 1.5385451e-38
-2.069078 -4.8992572 -0.48177549 1.5016673e-38
-2.0545712 -4.8977327 -0.48342562 1.5753154e-38
-2.0467687 -4.8970761 -0.48086092 1.5660949e-38
-2.0748892 -4.9005418 -0.46684158 1.2988379e-38
-2.0470994 -4.8977857 -0.46653578 1.5661677e-38
-2.0681953 -4.9004788 -0.45403677 1.3632301e-38
-2.0481484 -4.8985114 -0.4533782 1.4093634e-38
-2.0453899 -4.8980179 -0.45800227 1.3633013e-38
-2.0468347 -4.8989949 -0.44036117 1.4646449e-38
-2.024822 -4.8968287 -0.43975756 1.5660595e-38
-2.0461462 -4.8995271 -0.42764154 1.3908523e-38
-2.038537 -4.8993335 -0.41566175 1.5015601e-38
-2.0323443 -4.8986263 -0.41756317 1.3355706e-38
-2.029978 -4.8986301 -0.41248786 1.5846064e-38
-2.0252752 -4.8989244 -0.39632311 1.4647166e-38
-2.0241339 -4.8988318 -0.39587319 1.5568397e-38
-2.0003738 -4.8966956 -0.39095151 1.5017029e-38
-2.0121803 -4.8980079 -0.38809004 1.3632299e-38
-2.0103455 -4.8977456 -0.38976452 1.5476564e-38
-2.0035129 -4.8972778 -0.38524404 1.5201056e-38
-1.992798 -4.8962193 -0.38504365 1.5017029e-38
-1.9908731 -4.8961234 -0.38300377 1.4740802e-38
-2.0034337 -4.8979135 -0.37161124 1.4002877e-38
-1.985014 -4.896492 -0.36281928 1.474224e-38
-2.0035906 -4.8986421 -0.3565169 1.4372743e-38
-1.9924207 -4.8975487 -0.35608587 1.47426e-38
-1.9926302 -4.8976798 -0.35374445 1.5017744e-38
-1.9813222 -4.8964386 -0.35615727 1.474224e-38
-1.9935406 -4.8982673 -0.34323242 1.2162578e-38
-1.9785243 -4.8967576 -0.34350041 1.4558216e-38
-1.9914254 -4.8986764 -0.33009875 9.2137672e-39
-1.9834477 -4.8977876 -0.33207822 9.2137672e-39
-1.9825834 -4.8978148 -0.32967687 9.3967179e-39
-1.9777107 -4.8974962 -0.32612646 1.0225398e-38
-2.0105703 -4.9012399 -0.31622639 1.1510732e-38
-1.9981509 -4.9000697 -0.31479311 9.9455841e-39
-1.9961009 -4.8995476 -0.32152399 6.631226e-39
-1.988665 -4.8989286 -0.31892005 8.8442686e-39
-1.9838752 -4.8985672 -0.31646901 1.0868967e-38
-1.9789373 -4.8980732 -0.31650007 1.0317235e-38
-2.0061324 -4.9014482 -0.30245063 1.3352131e-38
-1.9949845 -4.9003654 -0.3018415 1.2612772e-38
-1.9724246 -4.8981071 -0.3020376 1.4558214e-38
-1.9950849 -4.9008527 -0.29173729 1.224147e-38
-1.9888158 -4.9003487 -0.28916493 1.2427658e-38
-1.9815512 -4.899786 -0.28574544 1.4097241e-38
-1.9791298 -4.8999791 -0.27654481 1.2806865e-38
-1.9719877 -4.8993015 -0.27581379 1.1690449e-38
-1.9719253 -4.8996177 -0.26898149 9.1205038e-39
-1.9021074 -4.9020109 -0.070858374 1.4738667e-38
-1.8939395 -4.9013581 -0.067441165 1.4185491e-38
-1.8952504 -4.9014091 -0.069130741 1.4371675e-38
-1.8868526 -4.900898 -0.062217306 1.3908906e-38
-1.8800019 -4.9004512 -0.057207815 1.3909622e-38
-1.8729993 -4.8997869 -0.056500044 1.4096519e-38
-1.870331 -4.8993711 -0.059666872 1.4096519e-38
-1.8632628 -4.8989105 -0.05449374 1.4095806e-38
-1.8582978 -4.8983917 -0.054995079 1.4188712e-38
-1.8800585 -4.9012027 -0.041420862 1.4462799e-38
-1.8701769 -4.9001198 -0.043481592 1.4001819e-38
-1.8662248 -4.8994985 -0.048296571 1.372631e-38
-1.8637149 -4.9000893 -0.030489249 1.418657e-38
-1.8380979 -4.8976641 -0.027752323 1.3173137e-38
-1.8592255 -4.9003072 -0.016391683 1.4279129e-38
-1.8425362 -4.8987374 -0.014403611 1.3541924e-38
-1.838009 -4.898313 -0.013821296 1.4278762e-38
-1.8553536 -4.9004488 -0.0052156337 1.4186213e-38
-1.8329831 -4.8984532 -0.00024028146 1.3817791e-38
-1.828679 -4.8980398 8.9178095e-05 1.4186565e-38
-1.8438179 -4.9000707 0.011133525 1.2897638e-38
-1.8219757 -4.8980327 0.014092025 1.4739373e-38
-1.844897 -4.9009361 0.027180037 1.3358615e-38
-1.815825 -4.898066 0.027795399 1.4924484e-38
-1.8517426 -4.902091 0.037192687 1.25303e-38
-1.8470148 -4.9014544 0.033693049 1.2622138e-38
-1.8400056 -4.9015708 0.050952662 1.2991636e-38
-1.8290962 -4.9011178 0.064395785 1.4003618e-38
-1.8246081 -4.9007902 0.066937789 1.4002897e-38
-1.8125072 -4.899806 0.071646959 1.4832294e-38
-1.8255669 -4.9014401 0.07868246 1.4740097e-38
-1.8194501 -4.9009233 0.080651186 1.4003255e-38
-1.8092505 -4.8999386 0.081330091 1.5016686e-38
-1.8259262 -4.9021134 0.09218207 1.4832293e-38
-1.8230934 -4.901958 0.094867729 1.5753526e-38
-1.8203717 -4.9017162 0.095502026 1.5937557e-38
-1.8237805 -4.9025249 0.10542385 1.4832296e-38
-1.8177086 -4.9018812 0.10460959 1.5569138e-38
-1.8102157 -4.9011197 0.10431541 1.5293277e-38
-1.8182764 -4.9023461 0.11326826 1.602975e-38
-1.8033175 -4.9012008 0.1205923 1.5753529e-38
-1.7958152 -4.9011064 0.13443404 1.6398536e-38
-1.7889453 -4.9010506 0.14776003 1.630598e-38
-1.780309 -4.9008861 0.16251126 1.603011e-38
-1.7763215 -4.900249 0.15744449 1.6398534e-38
-1.7680855 -4.8996558 0.16227426 1.6029752e-38
-1.7739687 -4.9008594 0.17533939 1.510852e-38
-1.7686836 -4.9001999 0.17253847 1.5293267e-38
-1.7662411 -4.9001527 0.17668287 1.6859504e-38
-1.7568072 -4.8992157 0.17676415 1.7412678e-38
-1.769462 -4.9010501 0.18889856 1.5108879e-38
-1.7626482 -4.9006734 0.1953052 1.6582923e-38
-1.7598909 -4.900167 0.19040671 1.7136091e-38
-1.76393 -4.9011412 0.20250928 1.5661687e-38
-1.7524364 -4.9000902 0.20452261 1.7320481e-38
-1.763273 -4.9017229 0.2162081 1.5201789e-38
-1.7580307 -4.9012251 0.21674474 1.7136451e-38
-1.7518799 -4.9005914 0.21631412 1.7320841e-38
-1.7671405 -4.9027653 0.23012593 1.5017039e-38
-1.7588766 -4.9018865 0.22896333 1.5108876e-38
-1.7605454 -4.9022136 0.23236479 1.6398174e-38
-1.7520329 -4.9010024 0.22469881 1.6306338e-38
-1.754648 -4.9021387 0.24323851 1.501704e-38
-1.7511545 -4.9024038 0.25623232 1.4741528e-38
-1.7384416 -4.9014244 0.26233196 1.7228285e-38
-1.7459147 -4.9025435 0.27025202 1.4832652e-38
-1.7418941 -4.9019971 0.26717088 1.5569495e-38
-1.7316409 -4.9011273 0.27039695 1.7412676e-38
-1.7440801 -4.9032888 0.28991619 1.4371316e-38
-1.7410376 -4.9027014 0.28389668 1.4832292e-38
-1.7327483 -4.901896 0.28433678 1.7320486e-38
-1.7371868 -4.9028416 0.29498732 1.4371316e-38
-1.7385828 -4.9030838 0.29717827 1.5108517e-38
-1.7281731 -4.9021535 0.29945162 1.7320488e-38
-1.7336471 -4.9032331 0.31075731 1.4739736e-38
-1.7230177 -4.902276 0.31293178 1.7136455e-38
-1.7289389 -4.9034038 0.32431298 1.4923408e-38
-1.7175472 -4.9023628 0.32632944 1.7597433e-38
-1.7239423 -4.9035468 0.33789834 1.547802e-38
-1.7114091 -4.9024024 0.34012562 1.7597793e-38
-1.7036424 -4.9022379 0.35305014 1.6492535e-38
-1.7011418 -4.9026232 0.36648789 1.7505962e-38
-1.6936592 -4.9025259 0.38021961 1.7874747e-38
-1.6912158 -4.9029102 0.39352015 1.7044991e-38
-1.6939608 -4.9037828 0.40620521 1.529436e-38
-1.6778082 -4.9033923 0.43204275 1.6399982e-38
-1.6768023 -4.9034023 0.43438324 1.6400339e-38
-1.6750424 -4.9040718 0.45228085 1.7137904e-38
-1.6653664 -4.9034858 0.46029717 1.5109948e-38
-1.655575 -4.9033413 0.47792113 1.215934e-38
-1.6509759 -4.9034076 0.48902863 1.197531e-38
-1.646021 -4.9035645 0.50282115 1.1606529e-38
-1.6438339 -4.9039712 0.51605797 1.0869327e-38
-1.6382257 -4.9039788 0.52806193 1.1145552e-38
-1.616685 -4.9038496 0.57081252 9.8551794e-39
-1.612545 -4.9041262 0.5854072 1.0131406e-38
-1.5932912 -4.9025297 0.59225184 1.3264963e-38
-1.5931182 -4.9028187 0.59874052 1.335716e-38
-1.5965577 -4.9033422 0.60256338 1.3449357e-38
-1.5850787 -4.9019661 0.59765214 1.2343377e-38
-1.5574124 -4.899323 0.60009974 1.4460285e-38
-1.5890716 -4.9032063 0.61549532 1.317277e-38
-1.5914762 -4.9034729 0.6160621 1.3264966e-38
-1.5779562 -4.9020429 0.61431813 1.1421792e-38
-1.5889314 -4.9037013 0.62626851 1.3264966e-38
-1.5771374 -4.9024639 0.62497544 1.0500919e-38
-1.555434 -4.9004631 0.62842035 1.353905e-38
-1.5585281 -4.900938 0.63195127 1.3631976e-38
-1.5840104 -4.903851 0.63984603 1.3631952e-38
-1.5697685 -4.9024935 0.64116716 1.1605824e-38
-1.5478227 -4.9003787 0.64270651 1.3993875e-38
-1.5761249 -4.9036522 0.6522752 1.2618889e-38
-1.5671723 -4.9028711 0.65464354 1.2066438e-38
-1.550454 -4.9011788 0.65409452 1.2434509e-38
-1.5501474 -4.9012437 0.65612167 1.4645029e-38
-1.570761 -4.9038315 0.66740626 1.2710723e-38
-1.5600398 -4.9028234 0.66869426 1.1973887e-38
-1.5472077 -4.9016418 0.67075634 1.4276974e-38
-1.5709519 -4.9044409 0.67990434 1.1421432e-38
-1.5658222 -4.9040213 0.68185008 1.2250466e-38
-1.5544387 -4.9028387 0.68083894 1.2157916e-38
-1.5511116 -4.9025822 0.68244398 1.1696942e-38
-1.5507616 -4.9026966 0.68559819 1.1788779e-38
-1.567192 -4.9047012 0.69336593 1.1973519e-38
-1.5530419 -4.9030986 0.68930101 1.1973889e-38
-2.1733367 -4.9002614 -0.68066931 1.3171319e-38
-2.1651628 -4.899322 -0.6832996 1.519962e-38
-2.1552491 -4.899848 -0.65123338 1.5385813e-38
-2.1538165 -4.9002023 -0.64069599 1.5569847e-38
-2.1474352 -4.9002142 -0.62696892 1.5293257e-38
-2.158643 -4.9020405 -0.61196929 1.187878e-38
-2.1461003 -4.9007554 -0.6126886 1.5846074e-38
-2.1018937 -4.8970561 -0.59769326 1.5018472e-38
-2.1377401 -4.9012427 -0.58472395 1.5569483e-38
-2.1292841 -4.9009614 -0.57281578 1.556948e-38
-2.1269379 -4.9013882 -0.5588237 1.5385446e-38
-2.1242268 -4.9017744 -0.54491228 1.5662034e-38
-2.1126871 -4.901226 -0.53216314 1.5661674e-38
-2.0997427 -4.9005513 -0.51912367 1.1792721e-38
-2.0983829 -4.9010949 -0.50474423 1.3358602e-38
-2.0789566 -4.8995624 -0.49617225 1.5477285e-38
-2.0992022 -4.9016538 -0.4946354 1.1515414e-38
-2.0783172 -4.8998303 -0.48915571 1.5477285e-38
-2.0747025 -4.8995647 -0.48713934 1.5569481e-38
-2.0821564 -4.9006734 -0.47939965 1.5753151e-38
-2.0819864 -4.9007955 -0.47645748 1.5477288e-38
-2.0791032 -4.900238 -0.48217902 1.5477288e-38
-2.0655174 -4.8992138 -0.4751775 1.5753512e-38
-2.0747755 -4.9006963 -0.46332797 1.3449349e-38
-2.0779433 -4.9011803 -0.4597739 1.5660952e-38
-2.061017 -4.899415 -0.46140707 1.4186549e-38
-2.0698049 -4.9008336 -0.44991672 1.3448267e-38
-2.0631256 -4.9001603 -0.45008403 1.4646449e-38
-2.056155 -4.8995404 -0.44849113 1.5384367e-38
-2.0719833 -4.9017801 -0.43447092 1.3816329e-38
-2.0647295 -4.9010892 -0.43380061 1.4185112e-38
-2.0624192 -4.9007907 -0.43523321 1.4462055e-38
-2.0666578 -4.9018073 -0.42266124 1.2156813e-38
-2.0553179 -4.9007344 -0.42143241 1.4278022e-38
-2.0576494 -4.9011021 -0.41857412 1.5660959e-38
-2.0620379 -4.901978 -0.40928286 1.4001439e-38
-2.0468271 -4.9005456 -0.4075028 1.4739363e-38
-2.043026 -4.9003215 -0.40421709 1.5661677e-38
-2.0340247 -4.8995972 -0.40055567 1.5568397e-38
-2.0556264 -4.901998 -0.39531645 1.4923396e-38
-2.0284498 -4.8994198 -0.3925344 1.529289e-38
-2.0233445 -4.8992486 -0.3853811 1.5476562e-38
-2.0170963 -4.8987627 -0.38248011 1.5292891e-38
-2.0110512 -4.8983622 -0.37820005 1.5017385e-38
-2.0102441 -4.8988953 -0.36520275 1.520141e-38
-2.005476 -4.8985357 -0.36274749 1.5018105e-38
-1.9992014 -4.8978162 -0.36473271 1.4834797e-38
-2.0119698 -4.8997293 -0.35117468 1.4926275e-38
-2.0060754 -4.8991561 -0.35087252 1.4191237e-38
-1.9984773 -4.8986607 -0.3453238 1.2994148e-38
-1.994904 -4.8980765 -0.35014597 1.4650765e-38
-2.0284138 -4.9018893 -0.34015599 1.4740096e-38
-1.9892473 -4.8982019 -0.33554667 1.14243e-38
-2.0225563 -4.9019446 -0.32660949 1.1420699e-38
-2.015099 -4.9015441 -0.31935316 1.1881322e-38
-2.009959 -4.9008336 -0.32354549 8.4733323e-39
-2.0027344 -4.9000368 -0.32516232 9.8591352e-39
-1.9968114 -4.8993921 -0.32631171 1.0042805e-38
-1.9920341 -4.8988605 -0.32748243 9.9502491e-39
-2.021945 -4.9025064 -0.31342581 1.1510732e-38
-2.0086875 -4.9011803 -0.31352416 1.1513257e-38
-2.0045071 -4.9009361 -0.30986193 1.2801479e-38
-1.9981817 -4.9002624 -0.31077474 1.2988022e-38
-1.9962945 -4.900075 -0.31076291 1.271395e-38
-2.0058103 -4.9016809 -0.29683599 1.5387988e-38
-1.9947621 -4.9008155 -0.29183915 1.5387977e-38
-1.9902269 -4.9000578 -0.2983143 1.5110671e-38
-1.986715 -4.8997054 -0.29835537 1.3728457e-38
-2.0036266 -4.9021597 -0.28209025 1.4284161e-38
-1.9946645 -4.9011526 -0.28448564 1.5387977e-38
-1.9842652 -4.9001241 -0.28431535 1.3912129e-38
-1.9980328 -4.9020882 -0.27178693 1.0208499e-38
-1.9931263 -4.9016514 -0.27068353 1.096693e-38
-1.980703 -4.9005127 -0.26855779 5.5259602e-39
-1.9843323 -4.9011393 -0.26295951 1.0101905e-39
-1.9160981 -4.9032564 -0.07402236 1.5107088e-38
-1.9035317 -4.902267 -0.068443432 1.4923415e-38
-1.8918328 -4.9011345 -0.067724988 1.4095445e-38
-1.8896066 -4.9011345 -0.063020512 1.3911774e-38
-1.8951331 -4.9022017 -0.052101035 1.3908906e-38
-1.8825015 -4.9010401 -0.050025165 1.4095448e-38
-1.8759141 -4.9003639 -0.050426528 1.4096519e-38
-1.8888676 -4.9022269 -0.038327347 1.4462799e-38
-1.8799243 -4.9019203 -0.025937505 1.4555712e-38
-1.8542171 -4.8997378 -0.017868208 1.4646821e-38
-1.8773223 -4.9023495 -0.011350442 1.5569135e-38
-1.8703016 -4.9019585 -0.0048096785 1.510816e-38
-1.8625797 -4.9009986 -0.0088314777 1.4002182e-38
-1.85584 -4.9003096 -0.0091924146 1.43706e-38
-1.8725363 -4.9025469 0.0029387064 1.4095448e-38
-1.864152 -4.9017344 0.003424006 1.4185854e-38
-1.8520073 -4.9006009 0.0050704149 1.4554627e-38
-1.8482636 -4.8999228 -0.0013833446 1.3817789e-38
-1.8445793 -4.899951 0.0069884304 1.4739017e-38
-1.8606008 -4.9020858 0.018377993 1.3635918e-38
-1.8378429 -4.8995662 0.013071778 1.501596e-38
-1.8609416 -4.9026637 0.029900333 1.3636278e-38
-1.8597546 -4.9022861 0.024394874 1.3636278e-38
-1.8596668 -4.9030371 0.040494625 1.1978208e-38
-1.8554816 -4.9033809 0.056606673 1.3544444e-38
-1.8476131 -4.9032269 0.069968216 1.5292552e-38
-1.8432682 -4.9034376 0.083610259 1.4647903e-38
-1.8388898 -4.9029884 0.083329618 1.4372035e-38
-1.8455329 -4.9043274 0.097669505 1.4832294e-38
-1.8399323 -4.9038239 0.098834366 1.5293268e-38
-1.8278071 -4.9024644 0.095642298 1.5569136e-38
-1.8366861 -4.9040666 0.11082608 1.4740456e-38
-1.8351995 -4.9039736 0.11199506 1.6030113e-38
-1.8186469 -4.9023552 0.11267262 1.5201081e-38
-1.831475 -4.9041896 0.12443317 1.5200718e-38
-1.8279765 -4.9038501 0.12463991 1.529327e-38
-1.8161463 -4.902812 0.12763153 1.5753529e-38
-1.8233641 -4.9040432 0.13846336 1.5109234e-38
-1.8096073 -4.9027319 0.13974547 1.6397815e-38
-1.8039856 -4.9028559 0.15424135 1.6213784e-38
-1.7954528 -4.901895 0.15190518 1.6397815e-38
-1.7979561 -4.9028931 0.1677597 1.6397814e-38
-1.7879264 -4.9019265 0.16846542 1.6398174e-38
-1.7758119 -4.9006147 0.16625987 1.6398534e-38
-1.7896498 -4.9025407 0.17783971 1.5292908e-38
-1.7809565 -4.9018168 0.18086283 1.6398533e-38
-1.7757379 -4.9013166 0.18129258 1.6214143e-38
-1.7673922 -4.9004803 0.18119866 1.7043536e-38
-1.7664375 -4.9004912 0.18344246 1.7227925e-38
-1.7880191 -4.9031243 0.19364056 1.602975e-38
-1.7758121 -4.9019356 0.19424488 1.6398174e-38
-1.7711585 -4.9015217 0.19530271 1.639889e-38
-1.7642574 -4.9011703 0.20242797 1.7596707e-38
-1.7839284 -4.9033904 0.20790885 1.5937913e-38
-1.7726141 -4.9024048 0.21093656 1.6214141e-38
-1.76651 -4.9017172 0.20925541 1.6859507e-38
-1.7615939 -4.9013057 0.21092574 1.7412676e-38
-1.7813839 -4.904038 0.22700046 1.4833005e-38
-1.7784153 -4.9034705 0.22124793 1.603011e-38
-1.7615492 -4.9017291 0.21998776 1.6214144e-38
-1.7802098 -4.9042645 0.23427139 1.4833005e-38
-1.7707826 -4.9033694 0.23523633 1.6398174e-38
-1.7700572 -4.9030294 0.22956541 1.6398174e-38
-1.7649945 -4.9028206 0.23582885 1.4924134e-38
-1.7757502 -4.9042125 0.24259987 1.5201074e-38
-1.7683232 -4.9037418 0.24831595 1.5661332e-38
-1.7648767 -4.9033499 0.247284 1.6398177e-38
-1.7669861 -4.9044843 0.26686698 1.4371319e-38
-1.7645603 -4.9040203 0.26214731 1.5661688e-38
-1.763558 -4.9045172 0.2747905 1.4555706e-38
-1.7522285 -4.9035268 0.27774832 1.4740456e-38
-1.7449334 -4.9028463 0.27873856 1.5661331e-38
-1.7434112 -4.9026389 0.2775557 1.7412319e-38
-1.7573483 -4.9045067 0.28768003 1.4371678e-38
-1.7582879 -4.9047689 0.29125935 1.5107802e-38
-1.749907 -4.9038873 0.29028279 1.4831933e-38
-1.7452159 -4.9034872 0.29170832 1.7136095e-38
-1.7561064 -4.9050636 0.30210769 1.4924129e-38
-1.7477157 -4.9042482 0.30255324 1.5568418e-38
-1.7317023 -4.9027281 0.30417129 1.8334991e-38
-1.7547458 -4.9056892 0.31822982 1.5108531e-38
-1.7454448 -4.9045615 0.3139922 1.5384747e-38
-1.7318728 -4.9033823 0.31766215 1.7689627e-38
-1.7456343 -4.9055119 0.33371794 1.5477657e-38
-1.7409654 -4.9048619 0.32980517 1.5476941e-38
-1.7269261 -4.9035296 0.33124238 1.8058411e-38
-1.7169149 -4.9032102 0.34561643 1.8150604e-38
-1.7317619 -4.9052234 0.35689494 1.5569858e-38
-1.7241534 -4.9044962 0.35756254 1.6492173e-38
-1.7157474 -4.9037042 0.35853428 1.7782186e-38
-1.7190636 -4.9046373 0.37130237 1.621523e-38
-1.7119716 -4.9039631 0.37199458 1.7505965e-38
-1.7158329 -4.9047122 0.37970954 1.6031202e-38
-1.702119 -4.9036212 0.38555616 1.7505966e-38
-1.6969312 -4.903141 0.3863408 1.5755702e-38
-1.7020172 -4.9042535 0.3991611 1.6584736e-38
-1.7002695 -4.9046178 0.41057211 1.6584733e-38
-1.7012092 -4.9053078 0.42319667 1.5478387e-38
-1.6877915 -4.9055824 0.45735535 1.667585e-38
-1.6870708 -4.9053802 0.45459136 1.6584011e-38
-1.6784939 -4.9050875 0.46650127 1.6953154e-38
-1.677066 -4.905056 0.46884802 1.6216316e-38
-1.6738316 -4.9052825 0.48047861 1.6584373e-38
-1.6689144 -4.9049039 0.48283893 1.3266416e-38
-1.6614994 -4.9039631 0.47857484 1.1146281e-38
-1.6524291 -4.9037161 0.49249315 1.0040292e-38
-1.6558061 -4.9041901 0.49540812 1.0961893e-38
-1.6564022 -4.9048638 0.50842094 9.7637026e-39
-1.6556033 -4.904542 0.50328588 9.7637026e-39
-1.6484212 -4.9045801 0.51926297 1.2619955e-38
-1.6512794 -4.9049954 0.52201909 1.0777857e-38
-1.6544536 -4.9059138 0.53476799 1.1145551e-38
-1.6502674 -4.9053874 0.53246027 1.0868964e-38
-1.6489524 -4.9059935 0.54807168 1.225153e-38
-1.6475486 -4.9059567 0.5502587 1.3448984e-38
-1.6432029 -4.9061165 0.56282544 1.1145195e-38
-1.6308913 -4.9061475 0.5894751 1.1789843e-38
-1.6254292 -4.9062467 0.60310811 1.2341933e-38
-1.5997455 -4.9037776 0.60505444 1.3264963e-38
-1.5914805 -4.9029732 0.60547644 1.2619959e-38
-1.6200938 -4.9063282 0.61610198 1.2342296e-38
-1.5949312 -4.9040041 0.62002242 1.317277e-38
-1.5857972 -4.903161 0.62144578 1.1882767e-38
-1.6150495 -4.9065065 0.63054019 1.1052281e-38
-1.5930811 -4.9042702 0.62956178 1.3817062e-38
-1.5960376 -4.9046497 0.63134998 1.3448997e-38
-1.5817274 -4.9031792 0.63042879 1.3264967e-38
-1.5850455 -4.9036498 0.63338953 1.1513629e-38
-1.5880041 -4.9044013 0.64306259 1.3631952e-38
-1.5913872 -4.9049168 0.64682657 1.3631952e-38
-1.5802526 -4.9038124 0.64695394 1.1513629e-38
-1.5863783 -4.905057 0.66037953 1.3815983e-38
-1.571865 -4.9034767 0.65755576 1.3816346e-38
-1.5751722 -4.9039478 0.66054785 1.1697661e-38
-1.553591 -4.9018269 0.66119784 1.5750648e-38
-1.5870711 -4.9056435 0.67133617 1.3631592e-38
-1.5742108 -4.9044642 0.67352122 1.2065719e-38
-1.5528909 -4.9023471 0.67370558 1.3172072e-38
-1.551429 -4.9023356 0.67654741 1.6209832e-38
-1.5824265 -4.9059281 0.68716675 1.3539396e-38
-1.5686979 -4.9045682 0.68735814 1.1421432e-38
-1.551607 -4.9029555 0.68929553 1.5381518e-38
-1.5725766 -4.9053655 0.69605422 1.2434496e-38
-2.1832209 -4.9007545 -0.6910944 1.5383658e-38
-2.1720877 -4.9003582 -0.67598152 1.5384012e-38
-2.1628478 -4.9001255 -0.66139585 1.4923029e-38
-2.1691182 -4.901382 -0.64802694 1.5384731e-38
-2.1710658 -4.9028349 -0.62137061 1.1419248e-38
-2.1645377 -4.9021335 -0.62244344 1.6122665e-38
-2.1544991 -4.9031596 -0.57950449 1.6487839e-38
-2.1447351 -4.9021287 -0.58072555 1.5661675e-38
-2.1441655 -4.9026346 -0.56880873 1.6030458e-38
-2.1435862 -4.9033127 -0.55322379 1.6121929e-38
-2.1352208 -4.9031754 -0.5384658 1.5478362e-38
-2.124604 -4.9026198 -0.52781463 1.5755312e-38
-2.1147919 -4.9023709 -0.51236534 1.3083089e-38
-2.111094 -4.9026394 -0.49886143 1.0223969e-38
-2.1099591 -4.9031358 -0.48595154 1.5569476e-38
-2.0925691 -4.9014997 -0.48389134 1.5477287e-38
-2.0945086 -4.901823 -0.48113954 1.5477276e-38
-2.0833454 -4.900569 -0.4841218 1.5661317e-38
-2.1054986 -4.9034038 -0.47086075 1.4186551e-38
-2.0849319 -4.901278 -0.4724519 1.5845345e-38
-2.08846 -4.9018049 -0.46874642 1.5568759e-38
-2.0768976 -4.90063 -0.46921328 1.5661677e-38
-2.08218 -4.9017487 -0.4566803 1.5753512e-38
-2.0742421 -4.9011016 -0.45361805 1.5476924e-38
-2.0741925 -4.9014702 -0.44570246 1.5937539e-38
-2.0743172 -4.901619 -0.44281256 1.5661315e-38
-2.0793614 -4.9027529 -0.42945769 1.575387e-38
-2.0784068 -4.9025397 -0.4319517 1.5753871e-38
-2.068089 -4.9016228 -0.42958388 1.5476923e-38
-2.0786536 -4.9033904 -0.41445863 1.492411e-38
-2.0589101 -4.9013872 -0.41518444 1.5753149e-38
-2.051944 -4.9009476 -0.40979668 1.5844622e-38
-2.0450127 -4.9006186 -0.4021264 1.5752788e-38
-2.0707333 -4.9036078 -0.39312357 1.5107423e-38
-2.0369925 -4.9004216 -0.38935664 1.5476562e-38
-2.0338035 -4.9002547 -0.38616097 1.5476562e-38
-2.0644963 -4.9037747 -0.37642729 1.6122299e-38
-2.0268099 -4.9002986 -0.37046635 1.5109581e-38
-2.0255063 -4.9006929 -0.35936224 1.5109941e-38
-2.0400014 -4.902822 -0.3448641 1.492412e-38
-2.0292447 -4.9016209 -0.34759882 1.4833725e-38
-2.0239184 -4.9011374 -0.3465946 1.3084175e-38
-2.0164313 -4.9006901 -0.34026214 1.1426462e-38
-2.0109086 -4.9000316 -0.34254113 1.3823896e-38
-2.0074754 -4.8996081 -0.34426087 1.2162934e-38
-2.0384378 -4.9034061 -0.32920212 1.529327e-38
-2.0242462 -4.9018073 -0.33310196 1.2254421e-38
-2.0144453 -4.9010663 -0.3280912 9.9506134e-39
-2.0096922 -4.9004998 -0.33004767 9.8587737e-39
-2.0359881 -4.9035473 -0.32104376 1.4186196e-38
-2.0243549 -4.9024153 -0.32044747 9.8551822e-39
-2.0156143 -4.9013948 -0.32360074 1.0041733e-38
-2.0053463 -4.9003539 -0.3239668 9.9502519e-39
-2.0337503 -4.9040074 -0.30656001 1.3722703e-38
-2.0267215 -4.90309 -0.31115898 1.3448645e-38
-2.0219214 -4.9028215 -0.30670014 1.3172777e-38
-2.0136697 -4.9020905 -0.30475986 1.3079498e-38
-2.0071595 -4.9016576 -0.30018976 1.5387977e-38
-2.0319149 -4.9045424 -0.29135481 1.3351767e-38
-2.0181446 -4.9030809 -0.29323962 1.5387988e-38
-2.0082948 -4.9021153 -0.29289022 1.3167735e-38
-1.9968957 -4.9011073 -0.2901665 1.428127e-38
-2.0127213 -4.9031835 -0.27961072 1.4284161e-38
-1.9982582 -4.9019332 -0.27554256 1.0101905e-39
-1.9932854 -4.9013491 -0.27742487 7.000363e-39
-2.0158751 -4.9040971 -0.26692411 1.1224087e-38
-2.0111454 -4.9036794 -0.26578063 7.0014476e-39
-2.0109236 -4.9037762 -0.26326418 1.1027434e-39
-2.0009842 -4.9027429 -0.26415521 7.3468397e-40
-1.9292697 -4.9044881 -0.075762063 1.5752803e-38
-1.920784 -4.9043465 -0.060833145 1.5107445e-38
-1.9129424 -4.9036555 -0.058911175 1.455535e-38
-1.9110297 -4.9032807 -0.062808216 1.4371675e-38
-1.9043549 -4.9028077 -0.058725271 1.4002535e-38
-1.9008908 -4.9024506 -0.058982413 1.3911774e-38
-1.9034321 -4.9034252 -0.043700106 1.437024e-38
-1.9029049 -4.9038763 -0.033040985 1.4831215e-38
-1.9035912 -4.904027 -0.031293299 1.4924133e-38
-1.8958782 -4.9039078 -0.017534761 1.5293275e-38
-1.8949069 -4.9038615 -0.016468326 1.5753523e-38
-1.8719524 -4.9017739 -0.012201442 1.4831214e-38
-1.8659269 -4.9012809 -0.0099159395 1.4554627e-38
-1.8882416 -4.9037194 -0.0053924047 1.4831578e-38
-1.8792144 -4.9028654 -0.0044164872 1.464719e-38
-1.8746077 -4.9024448 -0.0035981697 1.5108158e-38
-1.8792126 -4.9035358 0.0097769639 1.409581e-38
-1.8794585 -4.9036241 0.011131196 1.5753175e-38
-1.8699864 -4.9026284 0.010044825 1.51078e-38
-1.8614813 -4.9020987 0.016792586 1.4278768e-38
-1.8549955 -4.9012384 0.012271201 1.4646821e-38
-1.8695041 -4.9031529 0.022170423 1.3635919e-38
-1.8714697 -4.9039755 0.035442717 1.4741902e-38
-1.8656842 -4.9039207 0.046507023 1.3358623e-38
-1.8674283 -4.9042139 0.049033303 1.2346633e-38
-1.8629425 -4.9043498 0.061378952 1.4556795e-38
-1.8575962 -4.9045157 0.076187424 1.4647543e-38
-1.8676223 -4.9062395 0.091521516 1.510888e-38
-1.848327 -4.9041862 0.088781796 1.4832293e-38
-1.8572464 -4.905663 0.10122652 1.5292911e-38
-1.8453139 -4.9045682 0.10322558 1.5201074e-38
-1.8373096 -4.9039087 0.10616626 1.6030113e-38
-1.8507712 -4.9057174 0.11604369 1.5846079e-38
-1.8408152 -4.904779 0.11719984 1.5753886e-38
-1.8408655 -4.9049168 0.12000745 1.5477301e-38
-1.8277853 -4.9034281 0.11610507 1.6582567e-38
-1.826815 -4.9034472 0.11855975 1.6490731e-38
-1.8355205 -4.9049826 0.13268246 1.5108876e-38
-1.8299879 -4.9042239 0.12831096 1.5661331e-38
-1.8278191 -4.90416 0.13153072 1.6582205e-38
-1.8207009 -4.9034848 0.13225931 1.6490011e-38
-1.8306036 -4.9050031 0.14351 1.4832289e-38
-1.8245814 -4.904458 0.1446851 1.5937556e-38
-1.8196965 -4.9040012 0.14531943 1.6029752e-38
-1.8256232 -4.9052286 0.15880069 1.5384742e-38
-1.8202034 -4.9046812 0.15865071 1.621414e-38
-1.8192754 -4.9046831 0.16064954 1.5661685e-38
-1.8101735 -4.9037247 0.15957466 1.6490009e-38
-1.8055899 -4.9039297 0.1735989 1.6582204e-38
-1.7997794 -4.9039798 0.18692569 1.6398173e-38
-1.7884536 -4.9027362 0.18450947 1.6490368e-38
-1.7960407 -4.9042521 0.20058379 1.6306333e-38
