# .PCD v0.7 - Point Cloud Data file format
VERSION 0.7
FIELDS x y z rgb
SIZE 4 4 4 4
TYPE F F F F
COUNT 1 1 1 1
WIDTH 780
HEIGHT 1
VIEWPOINT 0 0 0 1 0 0 0
POINTS 780
DATA ascii
-2.6734655 1.5021185 1.3893954 8.4827364e-39
-2.6738279 1.4952443 1.3962756 8.1139441e-39
-2.6731989 1.4781746 1.3947476 6.0870836e-39
-2.6727924 1.459149 1.3966258 8.1146714e-39
-2.6743309 1.4895816 1.4044303 8.1139441e-39
-2.6709645 1.4265342 1.3860803 7.2845408e-39
-2.6679721 1.3220433 1.387159 6.4537081e-39
-2.6677256 1.3136239 1.3871782 5.8094149e-39
-2.6654699 1.2354795 1.3877683 5.2555236e-39
-2.66835 1.2662436 1.4117849 4.7952672e-39
-2.6672988 1.2512745 1.4043603 4.9789396e-39
-2.6664429 1.2324412 1.4007 4.7959874e-39
-2.667057 1.2180762 1.4133312 4.1502607e-39
-2.6695349 1.2564162 1.4297334 4.9800228e-39
-2.6622939 1.1546675 1.3781122 3.5970841e-39
-2.6639018 1.1682884 1.3927963 3.8740283e-39
-2.6690125 1.2279557 1.4335905 4.1506208e-39
-2.6621792 1.1356173 1.3835552 3.5048899e-39
-2.6654422 1.1661562 1.4123142 3.5970827e-39
-2.6628644 1.1053954 1.4027399 3.3201371e-39
-2.6616299 1.0838764 1.395437 2.8595233e-39
-2.6641953 1.1041361 1.4193909 3.3194196e-39
-2.6638367 1.0898198 1.4201643 2.8598792e-39
-2.6622078 1.0535568 1.4133532 2.9509972e-39
-2.6639471 1.0663753 1.4299268 2.9509986e-39
-2.6635466 1.0525073 1.4300247 3.0428369e-39
-2.6588638 0.9223299 1.4197445 1.938646e-39
-2.6584344 0.90876359 1.4193887 2.0304829e-39
-2.6446278 0.43190596 1.4224753 1.0141687e-39
-2.6404505 0.35586786 1.3989177 4.6099216e-40
-2.6420367 0.3709687 1.4128052 6.4574916e-40
-2.640239 0.33649373 1.4032974 4.6206696e-40
-2.6417913 0.35431817 1.4157978 4.624355e-40
-2.6415496 0.33917221 1.4182878 4.624355e-40
-2.6414571 0.32010484 1.4240056 5.5354933e-40
-2.6405168 0.30548516 1.4178066 5.5390946e-40
-2.6359265 0.24374042 1.3840945 2.7695403e-40
-2.638799 0.25863039 1.4137129 4.6063343e-40
-2.6384463 0.22292304 1.4222374 3.6987413e-40
-2.6382508 0.2059911 1.4259357 2.776799e-40
-2.6358125 0.153026 1.4152644 2.766009e-40
-2.6366086 0.16044183 1.42229 4.6063203e-40
-2.6341319 0.1260424 1.404489 5.5318499e-40
-2.6360149 0.14046805 1.422233 1.8512274e-40
-2.6355402 0.1275662 1.4210871 1.8548287e-40
-2.6321793 0.077128589 1.3982767 4.6062923e-40
-2.6319921 0.064379506 1.4005736 5.5318779e-40
-2.6336675 0.094362669 1.4102058 2.5321463e-42
-2.6319199 0.045272186 1.4065515 4.6098936e-40
-2.6326776 0.059058789 1.4108273 4.6099216e-40
-2.6320269 0.026501728 1.4145938 1.8548147e-40
-2.6404943 0.10686522 1.4888177 3.3215804e-39
-2.6310713 -0.0092995623 1.4158114 9.328584e-41
-2.6300955 -0.020823527 1.4080642 9.3283037e-41
-2.6299913 -0.052880663 1.4183042 9.2932713e-41
-2.6377687 0.023032898 1.4857275 4.1499006e-39
-2.6283243 -0.1181566 1.4214382 4.6171944e-40
-2.6272519 -0.13329849 1.4138232 1.8512974e-40
-2.6471353 0.26637807 1.5124046 5.8090576e-39
-2.6760147 1.373149 1.4667115 9.774906e-39
-2.6698287 1.2494121 1.4358215 4.7041589e-39
-2.6698434 1.2304683 1.4428008 5.1644168e-39
-2.6680419 1.1644661 1.4445621 3.2286673e-39
-2.6659329 1.0947795 1.4438989 2.8598834e-39
-2.6654649 1.0829917 1.4424326 2.9513588e-39
-2.6672826 1.1026205 1.4575149 2.7680535e-39
-2.6666939 1.0837005 1.45714 2.9513602e-39
-2.6647234 1.0497004 1.4453549 2.9506399e-39
-2.6665018 1.0680498 1.4604181 2.7669689e-39
-2.6615961 0.94035316 1.4465367 2.4900233e-39
-2.6598885 0.90581673 1.4381475 2.2145154e-39
-2.6614497 0.92169231 1.4514507 2.4900247e-39
-2.6586978 0.84271067 1.4463009 2.3967487e-39
-2.6602752 0.85823649 1.4599313 2.3049132e-39
-2.6620092 0.87102842 1.4764448 2.1219596e-39
-2.6456702 0.41465706 1.4413542 1.1981985e-39
-2.6429479 0.33499235 1.4368095 4.6279703e-40
-2.6424613 0.30230147 1.4426186 4.624369e-40
-2.644007 0.31755191 1.4559581 6.4574916e-40
-2.6455758 0.33292964 1.4695339 6.4467016e-40
-2.6452584 0.31819716 1.4709582 7.3758466e-40
-2.6471486 0.34918782 1.4828438 1.9361306e-39
-2.6402996 0.25484389 1.4333373 6.4538763e-40
-2.6398594 0.24146102 1.4327835 4.6171523e-40
-2.6419311 0.27018592 1.4476892 4.6171663e-40
-2.6415899 0.25418755 1.4492791 4.6171663e-40
-2.6407349 0.23661354 1.4451795 2.7768411e-40
-2.639708 0.22142398 1.4381329 2.776813e-40
-2.641556 0.24447055 1.4523534 2.7768411e-40
-2.63761 0.17467168 1.4293724 3.6879653e-40
-2.6392138 0.190073 1.4433665 2.7696244e-40
-2.6408043 0.20501865 1.457363 2.7696244e-40
-2.6404953 0.18950558 1.4591707 4.6063623e-40
-2.6422217 0.22031249 1.4691272 1.8512834e-40
-2.6375041 0.15554827 1.4349481 4.6099216e-40
-2.6404047 0.17310397 1.4639533 1.01381e-39
-2.6422503 0.20182467 1.4761088 3.7554799e-43
-2.6353681 0.10752372 1.4261848 1.8512414e-40
-2.6401324 0.15384437 1.46755 7.3794339e-40
-2.6407053 0.14155112 1.4789393 2.952079e-39
-2.6361921 0.0842207 1.4445763 4.6027189e-40
-2.6396377 0.12181002 1.4730266 2.029764e-39
-2.6371965 0.071529001 1.4613613 2.7589044e-40
-2.6384633 0.071764976 1.4766884 4.0577091e-39
-2.6351337 0.025787685 1.452666 8.3049075e-40
-2.6347349 0.010418939 1.4533274 8.3049075e-40
-2.6369863 0.041681465 1.4695107 5.5391787e-40
-2.6364636 0.028290035 1.4679561 1.1992845e-39
-2.6383219 0.055038936 1.4809754 3.8733151e-39
-2.6331682 -0.020885283 1.4454936 6.4574356e-40
-2.6347773 -0.0051628351 1.459434 1.7520799e-39
-2.6366823 0.0096537452 1.4773076 2.8566226e-39
-2.631377 -0.054128617 1.4356203 1.8512974e-40
-2.6361115 -0.0075831795 1.4765451 2.2126951e-39
-2.6293635 -0.10361443 1.4288701 3.6916648e-40
-2.6292515 -0.11641753 1.4321034 1.1992705e-39
-2.6303616 -0.12102469 1.4472665 3.69521e-40
-2.6277919 -0.18274064 1.4381417 2.7697225e-40
-2.6482406 0.35238102 1.4949888 4.2424619e-39
-2.676949 1.3816352 1.4750373 9.774906e-39
-2.6762347 1.3601489 1.4740539 1.1895768e-38
-2.6773288 1.3756133 1.4818232 1.5858733e-38
-2.6701031 1.1312792 1.4815605 5.5342854e-39
-2.6425486 0.14084624 1.5016272 4.9803801e-39
-2.6708155 1.4675626 1.3695396 7.5604074e-39
-2.6702788 1.4580982 1.3664044 7.3756588e-39
-2.6741054 1.5014789 1.3974152 7.8373572e-39
-2.6714926 1.4751935 1.375046 7.745156e-39
-2.6711085 1.4650358 1.3740157 7.7451574e-39
-2.6708019 1.4539604 1.3742591 7.6529632e-39
-2.6703105 1.4395344 1.3734516 6.916117e-39
-2.6731029 1.4934287 1.3881 8.1139525e-39
-2.6719875 1.464933 1.3847514 7.2845436e-39
-2.6732292 1.470394 1.3979061 7.4685775e-39
-2.6747584 1.4731063 1.4155462 7.3771049e-39
-2.6706476 1.4327704 1.3799834 7.4689334e-39
-2.6705642 1.4206898 1.3833034 7.0997964e-39
-2.6722441 1.4486562 1.3937169 6.3625901e-39
-2.6716995 1.4351465 1.3919367 6.5473415e-39
-2.6738124 1.4644173 1.4071509 7.2845506e-39
-2.6734316 1.4536834 1.4063669 7.1919934e-39
-2.6728666 1.4366682 1.405596 7.0079637e-39
-2.6726017 1.422189 1.4075686 6.5469855e-39
-2.6753707 1.4792418 1.4207962 7.653689e-39
-2.6697237 1.3754114 1.3893249 6.0860046e-39
-2.6715636 1.4180189 1.3964311 6.8232053e-39
-2.6711507 1.4043732 1.3962998 6.0860018e-39
-2.6708372 1.3895159 1.3978131 6.1778415e-39
-2.6735256 1.40747 1.4240922 7.1930766e-39
-2.6708786 1.3726054 1.4043881 6.4544312e-39
-2.6702499 1.35829 1.4018763 5.7172221e-39
-2.6697249 1.3434436 1.4008139 5.9016175e-39
-2.6722455 1.3867118 1.415965 6.5466268e-39
-2.6719153 1.3712467 1.4174944 6.4544312e-39
-2.6714306 1.3588933 1.4160305 6.2707588e-39
-2.673491 1.3902612 1.4298539 6.9157709e-39
-2.6674812 1.3199034 1.3819493 5.9019693e-39
-2.6680026 1.3064773 1.3931155 5.3487983e-39
-2.6671281 1.2955042 1.3864101 5.3487983e-39
-2.6711943 1.3420472 1.4191998 6.0860102e-39
-2.6668451 1.2760012 1.3899624 4.5193991e-39
-2.6660166 1.2631065 1.3845085 4.5186803e-39
-2.6680253 1.2905514 1.3991081 4.795986e-39
-2.6693687 1.2992235 1.4123489 5.3488011e-39
-2.6706822 1.3077556 1.4252738 5.5331965e-39
-2.6662076 1.2423708 1.3942763 4.4264846e-39
-2.6687584 1.2853487 1.4098973 4.6108773e-39
-2.6679161 1.2709763 1.4048038 4.9792997e-39
-2.6675634 1.2576237 1.4053054 4.5186817e-39
-2.6696374 1.2913746 1.4184375 4.6108773e-39
-2.6690567 1.2735267 1.4177703 4.703796e-39
-2.6687443 1.257823 1.4196033 4.2431766e-39
-2.6707597 1.29126 1.4321367 5.2569698e-39
-2.6644528 1.2167324 1.3821176 4.7037932e-39
-2.6636555 1.2073462 1.3757806 4.7037932e-39
-2.6637762 1.1957338 1.3814151 3.5052458e-39
-2.6663647 1.24182 1.3963832 5.2555236e-39
-2.6659532 1.2294468 1.3958168 3.9662254e-39
-2.6653199 1.2102486 1.3949965 3.6892811e-39
-2.6673732 1.2385606 1.409827 4.1506194e-39
-2.6663833 1.2248263 1.4027079 4.0580651e-39
-2.6697736 1.281437 1.4236591 5.5324763e-39
-2.6688192 1.2519319 1.4226311 4.5194047e-39
-2.6686234 1.2388861 1.4249296 4.0584266e-39
-2.6615992 1.1474848 1.3722347 3.5970813e-39
-2.6610892 1.132678 1.3713398 3.5970813e-39
-2.6645186 1.2022874 1.3880982 3.7818313e-39
-2.6635115 1.1780473 1.3845414 3.6892769e-39
-2.6631923 1.1627464 1.38615 3.4126929e-39
-2.6629062 1.1467565 1.388404 2.767322e-39
-2.6652184 1.19145 1.4005059 3.320493e-39
-2.6645477 1.1765412 1.3976959 3.4126915e-39
-2.6677008 1.2336638 1.4155749 4.334652e-39
-2.6668069 1.2085905 1.4136943 3.6896385e-39
-2.6662943 1.193204 1.4129742 3.4126943e-39
-2.6689544 1.2389499 1.428934 4.0584266e-39
-2.6684289 1.2225567 1.428423 3.6896427e-39
-2.667758 1.2070332 1.4258265 3.5052528e-39
-2.6604824 1.1046078 1.3740302 2.7669605e-39
-2.6632557 1.1488595 1.391907 2.767322e-39
-2.6625884 1.1310567 1.3901716 2.7673192e-39
-2.6617613 1.1163881 1.3853658 2.5832895e-39
-2.6660817 1.186318 1.4128609 2.9517133e-39
-2.6646771 1.1588291 1.4056275 3.2283016e-39
-2.6637323 1.1448154 1.3991559 2.9524322e-39
-2.6668134 1.1884313 1.4210051 3.0439103e-39
-2.6662288 1.1738187 1.4191341 2.9520762e-39
-2.6598911 1.0815442 1.375109 3.4119726e-39
-2.6589842 1.0686948 1.3686792 3.1350256e-39
-2.6609519 1.095816 1.3828994 3.3201371e-39
-2.6637051 1.1534231 1.395734 3.6896371e-39
-2.6629472 1.1367372 1.3924987 3.59744e-39
-2.662436 1.1131923 1.39473 2.5836511e-39
-2.6645641 1.1521348 1.406655 3.59744e-39
-2.6646545 1.1407158 1.4118524 2.8598778e-39
-2.6636207 1.125635 1.4046849 2.8598764e-39
-2.6660583 1.1547214 1.4239128 2.8602407e-39
-2.6586323 1.035481 1.3763192 3.0428313e-39
-2.6608281 1.0768977 1.3881814 3.1353857e-39
-2.6599338 1.0626525 1.3824083 2.951356e-39
-2.6598463 1.0485353 1.3864126 2.8591617e-39
-2.6624353 1.0922687 1.4022295 3.1357472e-39
-2.6644704 1.1211765 1.4166236 2.6751292e-39
-2.6658776 1.13481 1.4288594 2.8598778e-39
-2.6616986 1.0717213 1.4006349 3.0439089e-39
-2.6608834 1.0591919 1.3952113 2.7676836e-39
-2.660857 1.0454117 1.3998325 2.8591617e-39
-2.659847 1.03206 1.3923306 2.8580827e-39
-2.6593997 1.0177687 1.3920175 2.7662486e-39
-2.6625807 1.0807455 1.4081333 3.0439089e-39
-2.6595848 1.0071117 1.3980939 2.6744103e-39
-2.6588726 0.99798787 1.3926985 2.6744103e-39
-2.6617327 1.0389367 1.4128164 3.042474e-39
-2.6612303 1.0261472 1.4112928 2.8584429e-39
-2.6607957 1.0128108 1.4107906 2.8588002e-39
-2.6630521 1.040329 1.4283801 3.0428355e-39
-2.6571655 0.95128989 1.38868 2.214507e-39
-2.659518 0.99501723 1.4016213 2.2148685e-39
-2.6592307 0.98001212 1.4035101 2.2152273e-39
-2.6586769 0.96463227 1.4022855 2.123033e-39
-2.6607709 0.99563098 1.4166502 2.5829308e-39
-2.6626415 1.0220987 1.4299227 2.9509972e-39
-2.6621385 1.0090598 1.4284773 2.6751264e-39
-2.6556239 0.91840565 1.3817189 1.9375628e-39
-2.6550975 0.90461904 1.3802565 1.8457287e-39
-2.6574976 0.94527358 1.3948818 2.2137895e-39
-2.6569073 0.93019557 1.3931059 2.1215953e-39
-2.659241 0.9577632 1.4116198 2.2148685e-39
-2.6605272 0.97439414 1.421309 2.4907366e-39
-2.6544459 0.87178659 1.3841088 1.8453685e-39
-2.6579723 0.9270187 1.4072078 2.2148699e-39
-2.656935 0.91236949 1.3998413 1.9382858e-39
-2.656455 0.89826137 1.3990635 1.8464503e-39
-2.6560557 0.88485724 1.3990154 1.8460902e-39
-2.6589234 0.94142026 1.4136194 2.1226757e-39
-2.6605542 0.95695955 1.4278927 2.4907338e-39
-2.6601722 0.94276005 1.428342 2.5825735e-39
-2.6545358 0.85351437 1.3917617 1.7531715e-39
-2.6566253 0.87941396 1.4079002 2.1219582e-39
-2.6554141 0.86615366 1.3979169 2.1215967e-39
-2.6579854 0.89461899 1.4189986 2.214514e-39
-2.6541054 0.827456 1.3958765 2.0286794e-39
-2.6535227 0.81890374 1.3918498 2.0286794e-39
-2.6561434 0.86415219 1.4075141 1.937204e-39
-2.6559939 0.84940833 1.4109844 2.3056264e-39
-2.6554117 0.83516699 1.4090108 2.1205149e-39
-2.6577706 0.87552375 1.4232389 2.2137909e-39
-2.6571259 0.86275756 1.419973 2.3056278e-39
-2.6540499 0.81572002 1.3994123 1.8446497e-39
-2.653574 0.80321139 1.3981082 1.8450098e-39
-2.6533229 0.78708529 1.4008371 1.6620577e-39
-2.6523528 0.77300799 1.3940868 1.5702208e-39
-2.655278 0.81646204 1.4140922 1.7535359e-39
-2.6548753 0.8024056 1.4142379 1.753896e-39
-2.6576941 0.85653126 1.4291247 2.3056264e-39
-2.6572335 0.84294689 1.42839 2.2134308e-39
-2.6567762 0.82927912 1.4277284 2.2134336e-39
-2.6530583 0.77029645 1.403646 1.4773063e-39
-2.6526105 0.75705874 1.4029461 1.478021e-39
-2.6548357 0.78346848 1.4205515 1.7542547e-39
-2.6538463 0.76920217 1.4136299 1.5702222e-39
-2.6531184 0.74883831 1.4120781 1.5694977e-39
-2.6546216 0.76294547 1.4253123 1.6620563e-39
-2.6542518 0.75055104 1.4252598 1.8457287e-39
-2.6533742 0.73697948 1.4194475 1.9379229e-39
-2.6530361 0.72397977 1.4199966 2.1208792e-39
-2.6512117 0.67860997 1.4140764 1.6606214e-39
-2.6516507 0.6714645 1.421982 1.3851135e-39
-2.6510158 0.63987535 1.4255906 1.3847519e-39
-2.6506302 0.62413776 1.4265457 1.3847519e-39
-2.6462612 0.56119543 1.3959547 1.2911116e-39
-2.6472878 0.57544327 1.4033374 1.2911144e-39
-2.6493392 0.60517806 1.4176381 1.2000005e-39
-2.6488957 0.59068567 1.4174398 1.2921976e-39
-2.6451609 0.52755731 1.3946322 2.7623516e-40
-2.6469886 0.55458826 1.407179 1.1985502e-39
-2.6463463 0.54238343 1.4037423 1.1063518e-39
-2.6483197 0.55842566 1.422004 1.4751399e-39
-2.6450474 0.50869626 1.400023 6.4537922e-40
-2.6443722 0.49497896 1.3967276 7.3793778e-40
-2.6469159 0.53983718 1.4115896 4.2038954e-45
-2.6466763 0.52408141 1.4143289 9.256277e-41
-2.6463509 0.50782061 1.4162006 7.3793778e-40
-2.6482043 0.53896838 1.4275854 4.6098375e-40
-2.6477127 0.52550673 1.42643 1.847556e-40
-2.6415792 0.43367264 1.3847306 7.3757765e-40
-2.6447747 0.49226874 1.4025971 8.2977468e-40
-2.6439748 0.465572 1.4024446 8.2977328e-40
-2.6460919 0.49144053 1.4189272 9.2197031e-40
-2.6451652 0.47749412 1.4126546 9.2197171e-40
-2.6404014 0.40045413 1.38232 7.3757905e-40
-2.6424043 0.42908075 1.3964237 7.3758045e-40
-2.6419525 0.41481993 1.3960428 7.3722312e-40
-2.6443827 0.45712048 1.4104383 8.2977328e-40
-2.6439457 0.44385964 1.4098811 9.2161158e-40
-2.6436589 0.42796844 1.412095 9.2125285e-40
-2.6431885 0.41536286 1.4108909 9.2125565e-40
-2.6459863 0.47212291 1.4245763 8.3013341e-40
-2.6456091 0.45956719 1.4244918 8.3013341e-40
-2.6451077 0.44587329 1.4233053 1.0138072e-39
-2.6395152 0.37949368 1.3790535 9.2197031e-40
-2.6384778 0.35281724 1.3760006 5.5355073e-40
-2.6409473 0.40252924 1.3882177 9.2196751e-40
-2.6401494 0.3930485 1.3819078 9.2196751e-40
-2.639344 0.36680695 1.3815223 6.4538622e-40
-2.6418133 0.39616278 1.4010434 8.2977748e-40
-2.6431274 0.40327403 1.4144859 9.2161578e-40
-2.638485 0.34645608 1.3783699 4.6098516e-40
-2.6408641 0.3903943 1.3915612 8.2977188e-40
-2.6404114 0.37255722 1.392451 5.5283046e-40
-2.639698 0.36086515 1.3879665 6.4502749e-40
-2.6386933 0.33424985 1.3852884 5.5390946e-40
-2.6417038 0.37702903 1.4065796 8.2977889e-40
-2.6432698 0.39214113 1.4202161 7.3830072e-40
-2.6375139 0.30079538 1.3829377 6.4537782e-40
-2.6396148 0.34173706 1.3938161 3.695154e-40
-2.6395459 0.32911295 1.3975098 3.695154e-40
-2.6390896 0.31448981 1.3972038 3.695154e-40
-2.6432045 0.37321553 1.4262146 6.4610789e-40
-2.6490159 0.39646241 1.4886084 6.1785575e-39
-2.6343424 0.23868573 1.3666277 4.6134529e-40
-2.6352043 0.2468113 1.3742 4.6134529e-40
-2.6383827 0.29572403 1.3953342 5.5390666e-40
-2.6370032 0.26898414 1.3881406 5.5282486e-40
-2.6395497 0.30729181 1.4053843 5.5390806e-40
-2.6382439 0.28309813 1.3981761 4.6098936e-40
-2.6406565 0.32471892 1.4126048 4.624355e-40
-2.648937 0.40056834 1.4861746 4.3339331e-39
-2.6488168 0.38808534 1.4891938 4.9796584e-39
-2.6480896 0.37507501 1.4850078 5.4409953e-39
-2.6479182 0.36306679 1.4872324 6.9154051e-39
-2.6357148 0.2482197 1.3799088 2.7695403e-40
-2.6352551 0.23243906 1.3799746 1.8547867e-40
-2.6351221 0.2239992 1.381385 1.8548007e-40
-2.6377084 0.27553377 1.3943703 4.6098656e-40
-2.6369529 0.25005016 1.3943218 3.6879373e-40
-2.636611 0.23318323 1.3962163 2.7695683e-40
-2.6395559 0.29291335 1.4106243 3.6879793e-40
-2.6389148 0.27776825 1.4082563 3.6915526e-40
-2.6379116 0.26350302 1.401162 6.4502189e-40
-2.6406209 0.29101804 1.4242642 4.6171243e-40
-2.6402066 0.27739063 1.4241141 3.6987974e-40
-2.6481705 0.35879457 1.4918355 5.7172249e-39
-2.6475322 0.34644815 1.4884962 5.0729373e-39
-2.6472161 0.33045912 1.4903879 4.7956301e-39
-2.6351492 0.21486969 1.3849926 1.8511853e-40
-2.6347327 0.1891086 1.3891717 3.684336e-40
-2.6369631 0.22745724 1.4025551 3.695154e-40
-2.6355088 0.20292889 1.3936545 1.8476401e-40
-2.6380949 0.244875 1.4100784 4.6099496e-40
-2.6324654 0.14115398 1.3787825 2.765967e-40
-2.6350634 0.18312196 1.3953407 2.7623797e-40
-2.6337802 0.15594777 1.3894759 2.7623656e-40
-2.6368399 0.21126448 1.4068668 2.7731837e-40
-2.6362374 0.19766243 1.4044151 1.8440527e-40
-2.6359599 0.18160503 1.406798 3.6807206e-40
-2.634949 0.17054166 1.3984631 1.847612e-40
-2.6385245 0.2378092 1.4178457 3.6987693e-40
-2.637862 0.22546677 1.4142098 3.6987693e-40
-2.6459162 0.28775027 1.4898963 4.4279266e-39
-2.6456552 0.27615762 1.4908756 4.4272063e-39
-2.6450524 0.26289701 1.4883028 5.2558866e-39
-2.6446133 0.24952474 1.4877522 5.809059e-39
-2.6326044 0.12244224 1.3871862 3.6915246e-40
-2.6316929 0.10882718 1.38098 1.847612e-40
-2.6338918 0.1435917 1.3952675 1.8439967e-40
-2.6333988 0.13629833 1.3918874 1.8439967e-40
-2.6357439 0.16626967 1.4096724 2.7695543e-40
-2.6347339 0.15116742 1.4028026 2.765995e-40
-2.6377304 0.19370322 1.4240085 3.695154e-40
-2.6367264 0.17963485 1.4168384 3.695154e-40
-2.6442137 0.23332424 1.4887023 5.0714981e-39
-2.6313431 0.10110642 1.3794966 2.765981e-40
-2.630193 0.074218027 1.3751441 3.6879653e-40
-2.6323583 0.11671629 1.3862458 3.671402e-43
-2.6316121 0.089436427 1.3869532 1.847626e-40
-2.6342013 0.13266851 1.4029565 1.847612e-40
-2.6336577 0.11824111 1.4015201 1.8511853e-40
-2.6351585 0.14535759 1.4100559 2.766009e-40
-2.6297979 0.042140033 1.3818489 1.0930128e-42
-2.6325927 0.1121423 1.3907434 3.671402e-43
-2.6323674 0.096571587 1.3935884 1.8440107e-40
-2.6322856 0.083901614 1.3971409 1.8104776e-42
-2.631372 0.068118267 1.3916845 4.6063203e-40
-2.631001 0.05529426 1.3917713 1.8404654e-40
-2.6341195 0.11473639 1.4083941 1.847612e-40
-2.633539 0.097506367 1.4075165 9.3647375e-41
-2.6347644 0.097625442 1.4223878 2.7732117e-40
-2.6284254 -0.0057367994 1.382324 7.258726e-43
-2.6313233 0.049661532 1.3977194 1.8512414e-40
-2.6304412 0.036740594 1.391619 1.0930128e-42
-2.6298668 0.023297895 1.3894515 9.328584e-41
-2.6392336 0.087440148 1.4804417 3.873671e-39
-2.6421337 0.14239627 1.4960202 4.4275679e-39
-2.6418211 0.135089 1.4948372 4.2428095e-39
-2.6411982 0.11708481 1.4937155 4.2431724e-39
-2.628777 -0.011198262 1.3885655 9.3284439e-41
-2.6278656 -0.024157908 1.3821228 1.847584e-40
-2.6312418 0.032632481 1.4028379 1.0930128e-42
-2.6303723 0.017639576 1.3976341 9.328584e-41
-2.6301253 0.0048105735 1.3992311 9.328584e-41
-2.640048 0.10296524 1.4847856 3.2290233e-39
-2.639055 0.069550633 1.4846877 4.1513355e-39
-2.6413195 0.11374206 1.4963927 4.2431724e-39
-2.6405168 0.087171219 1.4961576 4.426472e-39
-2.6264782 -0.055456486 1.3764683 9.1841101e-41
-2.6264646 -0.070487998 1.3816961 9.2932713e-41
-2.6295002 -0.015333066 1.3988522 9.4004706e-41
-2.6287072 -0.028308664 1.3938544 7.300765e-43
-2.6281927 -0.042601824 1.392724 9.220684e-41
-2.6273456 -0.05647058 1.3873881 9.220684e-41
-2.6311843 0.013560218 1.4089811 1.8548007e-40
-2.6306434 -0.00061155111 1.4074841 9.3643171e-41
-2.6400895 0.091275573 1.4894857 3.3208616e-39
-2.6396079 0.073788881 1.4898982 4.1513355e-39
-2.6388865 0.050482601 1.4894804 5.3480752e-39
-2.6262155 -0.091484524 1.3862008 2.7696524e-40
-2.6252265 -0.1041468 1.3787062 2.7660371e-40
-2.6294508 -0.034397081 1.405095 1.0902102e-42
-2.6288116 -0.047961492 1.4021816 3.7274539e-43
-2.628058 -0.06257993 1.398255 9.2571178e-41
-2.627342 -0.075448669 1.3941569 9.2932713e-41
-2.6274831 -0.088871546 1.4006928 8.2941875e-40
-2.6385989 0.044584554 1.4880986 4.3339233e-39
-2.6377852 0.032046553 1.4826946 3.9651464e-39
-2.6368079 0.0045034294 1.4806825 3.3204874e-39
-2.636447 -0.011819687 1.4821475 3.8733081e-39
-2.6394918 0.061641727 1.4928452 3.6892727e-39
-2.6389811 0.032701768 1.4970138 4.6105074e-39
-2.637851 0.018451037 1.4883744 4.8870957e-39
-2.637924 0.0055263448 1.4939008 4.3342806e-39
-2.6259847 -0.10849191 1.3894949 1.8440808e-40
-2.6251526 -0.12325699 1.384666 1.8405074e-40
-2.6249032 -0.13609017 1.3862362 2.7660371e-40
-2.6278255 -0.078006834 1.4009603 1.8512834e-40
-2.6272602 -0.10259139 1.4029012 3.6844481e-40
-2.6294291 -0.062952675 1.4150772 1.8512834e-40
-2.6287229 -0.09142559 1.4167007 5.5355773e-40
-2.6366098 -0.0028480361 1.4809113 3.1353717e-39
-2.636029 -0.02794008 1.4828441 4.2424493e-39
-2.6385589 0.015156819 1.4981735 4.7027058e-39
-2.6377497 -0.013152285 1.4984839 4.7023415e-39
-2.6257198 -0.1262221 1.3926347 1.8440527e-40
-2.6254609 -0.1403636 1.3945564 2.7696384e-40
-2.6250186 -0.15320477 1.3937815 2.7660371e-40
-2.6242061 -0.16873482 1.3894658 1.8512834e-40
-2.6274381 -0.11316613 1.4088629 2.7624918e-40
-2.6265664 -0.12721211 1.403293 2.7732818e-40
-2.6288996 -0.10162716 1.4225104 4.6171944e-40
-2.6248746 -0.17420658 1.3995659 2.7624637e-40
-2.624378 -0.18738414 1.3982518 7.3722172e-40
-2.6265595 -0.14619629 1.4100254 2.7732537e-40
-2.6265147 -0.159628 1.4142958 4.6170963e-40
-2.6259706 -0.17195953 1.412104 2.7732397e-40
-2.6255708 -0.18506065 1.4119377 7.3722172e-40
-2.6247728 -0.1928056 1.405003 2.7624778e-40
-2.6241634 -0.20366634 1.4014838 9.2212445e-41
-2.6270764 -0.14894111 1.4173006 2.7732397e-40
-2.6261904 -0.18257359 1.4185842 3.6844481e-40
-2.6254442 -0.20392817 1.4171677 6.4610369e-40
-2.6249011 -0.22009288 1.4163595 6.4574215e-40
-2.6261086 -0.19479166 1.4219747 3.6844481e-40
-2.6256402 -0.20743471 1.4208091 9.2934114e-41
-2.6750271 1.4035101 1.4437953 8.4841728e-39
-2.673919 1.3835893 1.4374549 7.3771063e-39
-2.6732986 1.3675352 1.4356632 7.2852722e-39
-2.6728289 1.3554547 1.4342831 6.2707616e-39
-2.6722825 1.3418621 1.4325106 6.3636775e-39
-2.6750267 1.3860565 1.450056 7.3774665e-39
-2.6761622 1.3872468 1.4634467 1.318542e-38
-2.6741107 1.3638191 1.4468831 8.3934121e-39
-2.6722777 1.3242753 1.438763 6.1800079e-39
-2.6748154 1.3640451 1.4553794 7.4707397e-39
-2.6742527 1.3537263 1.4522368 6.8253717e-39
-2.6762712 1.3814958 1.4668401 8.3004962e-39
-2.6758695 1.3694293 1.4662786 9.0377039e-39
-2.6755354 1.3541801 1.4676847 1.327798e-38
-2.6718509 1.2920038 1.4451519 5.44244e-39
-2.6741767 1.3325863 1.4588965 8.1157574e-39
-2.6734147 1.3065678 1.4589618 9.8671044e-39
-2.6697736 1.2438498 1.4371504 4.9803857e-39
-2.6711805 1.2584251 1.4490434 4.7970734e-39
-2.6736412 1.2986313 1.464569 8.3926918e-39
-2.6731105 1.285719 1.4627376 8.0235519e-39
-2.6729786 1.2786916 1.4636564 5.6271914e-39
-2.6694267 1.2240683 1.4400251 4.612322e-39
-2.6710038 1.2417151 1.4528888 4.6126836e-39
-2.6708393 1.228285 1.455708 4.6130437e-39
-2.6722705 1.2416098 1.4683468 8.6696444e-39
-2.6678505 1.1895074 1.4332471 3.2290275e-39
-2.6691785 1.1973441 1.4465948 3.4145019e-39
-2.6705825 1.2071557 1.4601622 6.3643991e-39
-2.6676447 1.172104 1.4369874 3.1368318e-39
-2.6671705 1.1548492 1.4374057 3.0449963e-39
-2.6692038 1.1879696 1.4502674 3.2293904e-39
-2.6688485 1.1732763 1.4512169 2.9535224e-39
-2.670356 1.1900672 1.4635423 4.4282923e-39
-2.669929 1.1732837 1.4643658 5.258053e-39
-2.6672428 1.1380644 1.4443063 2.9524434e-39
-2.6690514 1.1663088 1.4561881 3.4144977e-39
-2.6692343 1.1542859 1.4627287 4.4282909e-39
-2.668541 1.146304 1.4571546 3.3223049e-39
-2.6701212 1.1614233 1.4709638 4.4282909e-39
-2.6658568 1.1181412 1.4345899 2.3067026e-39
-2.6654584 1.1034845 1.4350045 2.675125e-39
-2.6669464 1.1213778 1.4466903 2.4914666e-39
-2.6666367 1.1051471 1.4487472 2.860252e-39
-2.6688194 1.13562 1.4643798 4.243185e-39
-2.6681185 1.1231215 1.4603304 2.491475e-39
-2.667635 1.1058519 1.4606435 3.1368346e-39
-2.6679287 1.0960146 1.4677489 2.491824e-39
-2.668304 1.0898666 1.4745238 7.0090427e-39
-2.6643739 1.0393628 1.4448152 2.8584443e-39
-2.6640556 1.026713 1.44548 2.6744132e-39
-2.6636827 1.0137471 1.4455935 2.5829364e-39
-2.665978 1.0537232 1.4591811 2.5825791e-39
-2.6656282 1.0408496 1.4595451 3.4123397e-39
-2.6647604 1.0130789 1.458952 1.9386474e-39
-2.6679139 1.0845716 1.4716804 2.3989081e-39
-2.6676745 1.070415 1.4738429 2.5832979e-39
-2.6621623 0.99306923 1.4345077 2.6747691e-39
-2.6618142 0.97843623 1.4355212 2.5825735e-39
-2.663362 0.99466449 1.4485364 2.4910995e-39
-2.6632695 0.98038322 1.4525369 2.1223226e-39
-2.6652915 1.02459 1.4612849 2.0304843e-39
-2.6646519 0.99700952 1.463397 1.6620633e-39
-2.6641514 0.98312789 1.4622875 2.2148783e-39
-2.667315 1.0531697 1.4756575 2.6747747e-39
-2.6665218 1.0252811 1.4760108 3.9665939e-39
-2.6660295 1.0130711 1.474399 4.9807444e-39
-2.6618314 0.95959467 1.4424915 2.5818574e-39
-2.6629303 0.96148556 1.4551922 2.305995e-39
-2.6642718 0.97063059 1.4682366 1.5687887e-39
-2.6600854 0.92473871 1.4337504 2.3985479e-39
-2.6628509 0.94253939 1.4610221 2.2138007e-39
-2.6643057 0.95833087 1.4730644 1.2925619e-39
-2.6641176 0.94412273 1.4758728 5.3480864e-39
-2.6593549 0.89055049 1.4371257 2.1223198e-39
-2.6591182 0.87863624 1.438521 2.1223184e-39
-2.6612816 0.90742582 1.4545249 2.1216009e-39
-2.6607842 0.89127111 1.45427 2.122317e-39
-2.6627514 0.92336947 1.4666944 2.1212436e-39
-2.6622431 0.91042989 1.4651519 1.9372096e-39
-2.6632478 0.91054446 1.4773401 5.1644168e-39
-2.6588895 0.85870069 1.4428959 2.3056292e-39
-2.6604774 0.8756665 1.4561341 2.0297612e-39
-2.6597862 0.84596348 1.4583843 2.3049188e-39
-2.6620724 0.8909182 1.4700729 2.0297626e-39
-2.66153 0.87629712 1.4687202 1.108165e-39
-2.656687 0.81390327 1.4321634 2.121961e-39
-2.6562042 0.80151677 1.4307333 1.9379285e-39
-2.6559353 0.78522736 1.433305 1.9375684e-39
-2.6582861 0.82903892 1.4461963 2.2134378e-39
-2.6578975 0.81485963 1.4465555 1.937211e-39
-2.6576014 0.80090284 1.447958 1.8457329e-39
-2.6572196 0.78497213 1.4490305 2.0301241e-39
-2.659411 0.83163851 1.4589536 1.8442994e-39
-2.6590979 0.81521982 1.4610385 2.2148755e-39
-2.6585896 0.80238932 1.4594564 1.3851149e-39
-2.6615148 0.85876518 1.4748245 1.1081692e-39
-2.6610193 0.8466081 1.473158 2.0290507e-39
-2.6556907 0.765966 1.4372405 1.937567e-39
-2.6555178 0.75057733 1.4406563 1.9375656e-39
-2.657002 0.76772285 1.4525717 1.5684285e-39
-2.6585042 0.78334147 1.4652542 9.2377939e-40
-2.654078 0.73255754 1.4295981 2.0297598e-39
-2.6538277 0.72005987 1.4310395 2.0286864e-39
-2.6551621 0.73293138 1.4426627 2.120882e-39
-2.6549377 0.71882486 1.4449949 2.0286892e-39
-2.6539092 0.70664555 1.4368473 1.6606256e-39
-2.6568084 0.75017208 1.4565128 2.0286892e-39
-2.6564829 0.73492795 1.4580237 1.659548e-39
-2.6584284 0.76493031 1.4709351 1.3840415e-39
-2.6579077 0.74965954 1.4700755 1.3833198e-39
-2.6578853 0.73785877 1.4740418 3.9658736e-39
-2.6530476 0.68783468 1.433109 1.7524569e-39
-2.6525717 0.67532659 1.4318043 1.7528184e-39
-2.6523321 0.66045785 1.4342242 1.5691474e-39
-2.6545491 0.70001888 1.4470127 1.7524611e-39
-2.6540802 0.68601608 1.4463289 1.7528198e-39
-2.652251 0.64160365 1.4400051 1.4765902e-39
-2.653774 0.65701634 1.4530118 1.4758728e-39
-2.6504755 0.60623986 1.4310871 1.3843932e-39
-2.6519048 0.62402588 1.4420999 1.3847519e-39
-2.6494913 0.56025678 1.4356105 1.3840289e-39
-2.6491616 0.54510808 1.4370302 8.2976487e-40
-2.6514928 0.58921438 1.449577 1.3843946e-39
-2.650512 0.57492614 1.4427698 1.5687859e-39
-2.6530778 0.60460484 1.4633483 1.4765916e-39
-2.651232 0.57283306 1.452284 1.6602598e-39
-2.6509459 0.55672413 1.4545809 1.1989173e-39
-2.6503446 0.54180139 1.4526212 1.0138002e-39
-2.6476445 0.50671607 1.4323475 9.2196751e-40
-2.6473787 0.49104548 1.434736 1.0145247e-39
-2.6488385 0.50863135 1.4461926 5.5318499e-40
-2.6503477 0.5239504 1.4590662 9.2202636e-41
-2.6471431 0.47425854 1.4378911 8.3013622e-40
-2.6487241 0.48964971 1.4516115 1.1985628e-39
-2.6484048 0.47431293 1.4532269 7.3758606e-40
-2.6502707 0.50501275 1.4649228 1.3825911e-39
-2.6513283 0.50382358 1.4782259 5.7164976e-39
-2.6450946 0.42736867 1.429786 8.2977608e-40
-2.6446066 0.41287592 1.4290445 8.2978029e-40
-2.6469858 0.45591334 1.4425606 9.2232904e-40
-2.6466269 0.44152611 1.4433577 7.3794059e-40
-2.6462586 0.42682493 1.4441514 7.3794059e-40
-2.648185 0.4570795 1.4567392 1.1063672e-39
-2.6501749 0.48592916 1.4706042 1.1982041e-39
-2.6495774 0.47106975 1.4686668 1.9357691e-39
-2.6494398 0.45741251 1.4718914 1.8435749e-39
-2.6506889 0.47529578 1.480679 5.255525e-39
-2.6499665 0.46091956 1.4770458 5.4399205e-39
-2.6444199 0.39402625 1.4335406 8.3013902e-40
-2.646106 0.41012138 1.4482876 7.3758326e-40
-2.6479845 0.43966812 1.460549 8.3013482e-40
-2.6476893 0.42423379 1.4624932 1.6598969e-39
-2.6472833 0.41011411 1.46262 5.5283186e-40
-2.6490593 0.43921852 1.4737922 3.9651464e-39
-2.6489484 0.42673197 1.4769219 4.7030687e-39
-2.6443725 0.37548634 1.4396166 6.4574916e-40
-2.6463499 0.4036707 1.4535692 6.4574776e-40
-2.6459661 0.39006251 1.4537823 5.5355353e-40
-2.6472323 0.39763248 1.4664751 3.6880074e-40
-2.6485763 0.40746915 1.4793068 4.794907e-39
-2.6431258 0.35410756 1.4321132 6.4646943e-40
-2.6442554 0.35611302 1.4451451 7.3794619e-40
-2.6457448 0.37084299 1.457987 5.531962e-40
-2.6474395 0.38722551 1.4727343 2.3052691e-39
-2.6469166 0.37342304 1.4713247 2.3052691e-39
-2.6417789 0.29301044 1.4376478 3.7096014e-40
-2.6440439 0.33679506 1.4495035 7.3758466e-40
-2.6429064 0.29556233 1.4504545 4.6207817e-40
-2.6457255 0.35217297 1.4644512 1.10637e-39
-2.6472232 0.36549312 1.4779001 2.1208792e-39
-2.6454661 0.31680769 1.4739861 3.5960065e-39
-2.6401525 0.26653695 1.4273502 7.3758326e-40
-2.6413875 0.27828258 1.4381682 4.6207677e-40
-2.6436679 0.30572829 1.4560776 8.2978169e-40
-2.6428373 0.28246161 1.4543134 4.6171523e-40
-2.6449406 0.30634636 1.4713448 1.8450084e-39
-2.6442416 0.29367602 1.4673864 1.0148904e-39
-2.6467113 0.33597937 1.4822615 1.7513793e-39
-2.6461475 0.32230842 1.4803056 3.8725948e-39
-2.6452522 0.29028171 1.4809057 4.3360855e-39
-2.6429195 0.27132803 1.4593117 3.695196e-40
-2.6427128 0.25682098 1.4620016 2.7732537e-40
-2.6416836 0.23379356 1.4577384 4.6171243e-40
-2.6409981 0.21898167 1.4547093 9.2340804e-40
-2.6442597 0.27473661 1.474399 2.9513546e-39
-2.6432102 0.24749771 1.4714028 3.1361088e-39
-2.6393061 0.20900558 1.4376949 3.695168e-40
-2.6426656 0.24543352 1.4655145 2.7732537e-40
-2.6415405 0.21199344 1.4638227 6.4538342e-40
-2.6416223 0.20118016 1.4686949 4.0577007e-39
-2.6441126 0.25605118 1.4793174 2.2134364e-39
-2.6434844 0.2421563 1.4766579 3.3201427e-39
-2.6432605 0.22786479 1.4790602 3.6889224e-39
-2.6394045 0.16695933 1.4539808 5.5354652e-40
-2.6388633 0.15115455 1.4530708 7.3865945e-40
-2.6413658 0.196312 1.4673209 1.106356e-39
-2.6405981 0.18028794 1.4637259 1.936481e-39
-2.6427469 0.20904927 1.4795632 3.8733165e-39
-2.639014 0.15834694 1.4523252 5.5354652e-40
-2.6374369 0.11946566 1.4470809 1.0145247e-39
-2.6364944 0.10415956 1.4411014 1.2914633e-39
-2.6389654 0.14588922 1.4561987 4.613523e-40
-2.6388454 0.13251218 1.4595408 1.7528128e-39
-2.6402287 0.14026622 1.4735969 2.952435e-39
-2.6349211 0.093340769 1.4258339 3.6879793e-40
-2.6364729 0.10988848 1.4387844 4.602761e-40
-2.6362364 0.093941219 1.4416265 4.6063483e-40
-2.637747 0.1134192 1.4530252 7.3830352e-40
-2.6369145 0.098340891 1.4483011 1.8476821e-40
-2.636467 0.085136399 1.447595 4.6098796e-40
-2.6363792 0.072397925 1.4510993 1.8449986e-39
-2.6395845 0.14261647 1.464916 7.3988559e-43
-2.638479 0.10411075 1.4652729 1.9371942e-39
-2.6379721 0.085807815 1.4656725 3.5970729e-39
-2.6404245 0.12910691 1.4799848 3.0439089e-39
-2.6393976 0.10232555 1.4770979 3.3212161e-39
-2.6330771 0.021938985 1.4290136 8.3048794e-40
-2.6346042 0.037065789 1.442173 8.3013622e-40
-2.6369596 0.079453453 1.4556267 9.2576783e-41
-2.6366303 0.065816753 1.4565152 6.450317e-40
-2.6358237 0.0525929 1.4514455 9.2197452e-40
-2.6391826 0.10850739 1.4722607 2.0301227e-39
-2.6378326 0.068750136 1.4700986 3.5048759e-39
-2.6325223 -0.009662251 1.4336014 1.291106e-39
-2.6346414 0.017196409 1.4497542 1.1989103e-39
-2.6364112 0.05035999 1.4593984 2.9427268e-44
-2.6376231 0.049121894 1.474591 3.8729535e-39
-2.6368618 0.022915259 1.4747328 3.8733067e-39
-2.6313322 -0.030769283 1.4266934 9.2231923e-40
-2.6307173 -0.045716237 1.4245694 4.6171103e-40
-2.6332617 -0.0016633372 1.4397323 8.3048794e-40
-2.6328976 -0.016258383 1.4405391 1.0141617e-39
-2.6325333 -0.030977866 1.4413865 8.3012921e-40
-2.6314032 -0.043101892 1.431983 9.2232484e-40
-2.6339552 -0.0012201604 1.4480124 1.2914647e-39
-2.6360304 0.015498571 1.4672748 2.5825721e-39
-2.6320517 -0.036126584 1.4373715 8.3012921e-40
-2.6309526 -0.056344196 1.4312522 1.1985418e-39
-2.6321003 -0.047259644 1.4419582 9.2268497e-40
-2.6320586 -0.060354706 1.4461521 1.5684075e-39
-2.6345105 -0.017940963 1.4607719 2.0283095e-39
-2.6339803 -0.031981688 1.4593608 2.1212282e-39
-2.633466 -0.044227786 1.457494 8.3084808e-40
-2.6331797 -0.061963178 1.4603723 2.0286626e-39
-2.6360579 -0.016248319 1.4790037 3.8733081e-39
-2.6274309 -0.15352686 1.4232632 1.107072e-39
-2.6292863 -0.10974628 1.4301325 1.1992719e-39
-2.6356549 -0.020443721 1.4756041 3.1350144e-39
-2.6352899 -0.034957498 1.4763681 3.2290149e-39
-2.6349435 -0.049528949 1.4773813 2.8595107e-39
-2.6284392 -0.1309578 1.4274348 2.7732537e-40
-2.6281288 -0.14469837 1.4285878 8.3049075e-40
-2.6279459 -0.16235527 1.4326949 5.5390526e-40
-2.6264896 -0.19003037 1.4249058 1.1985586e-39
-2.6298988 -0.13462038 1.4465141 7.3794059e-40
-2.6273015 -0.19531091 1.4366815 7.3794479e-40
-2.6276257 -0.19929759 1.4420607 2.7732818e-40
-2.6710093 1.1385559 1.489979 8.7593177e-39
-2.6691492 1.0790863 1.4886822 1.0326995e-38
-2.6695964 1.0728163 1.4963773 9.7734682e-39
-2.668587 1.0519451 1.4915791 7.4685845e-39
-2.6680849 1.0410659 1.4893742 9.0362675e-39
-2.6655784 0.95981127 1.4880241 7.7455287e-39
-2.677603 1.3831334 1.482464 1.6134239e-38
-2.675765 1.3471155 1.4730154 1.1618826e-38
-2.6747591 1.3198153 1.4705732 1.1157843e-38
-2.677211 1.3514847 1.4890504 1.5857653e-38
-2.676548 1.3375061 1.485994 1.5581423e-38
-2.6757579 1.3232051 1.4815111 1.5212279e-38
-2.6756179 1.3308525 1.477062 1.1711377e-38
-2.6720748 1.2241683 1.4722198 6.6409832e-39
-2.6709478 1.1569016 1.4826463 9.7741885e-39
-2.6701157 1.152169 1.4742202 3.8751171e-39
-2.669836 1.1369095 1.4762896 5.6261152e-39
-2.6692865 1.1249338 1.4738996 4.9807458e-39
-2.6689258 1.109727 1.4749641 6.9164911e-39
-2.6685648 1.095749 1.4755899 7.0090427e-39
-2.6685827 1.0832788 1.480283 9.3135691e-39
-2.6687651 1.0719959 1.4865496 8.022117e-39
-2.6675627 1.0293975 1.4872035 9.0362661e-39
-2.6670022 1.0377069 1.4774003 4.2428207e-39
-2.6657295 0.99677813 1.4765952 8.2068656e-39
-2.6651137 0.94852912 1.4864173 8.2983438e-39
-2.6642704 0.93222272 1.4820042 8.4827364e-39
-2.6638029 0.92441809 1.4791161 4.1499048e-39
-2.6632164 0.89890951 1.4811336 8.6674836e-39
-2.6631947 0.89355946 1.4827869 6.9161282e-39
-2.6627393 0.88067603 1.4818695 6.547703e-39
-2.6625869 0.86715645 1.4848654 7.376749e-39
-2.6471536 0.29912025 1.5008752 4.6126808e-39
-2.6469066 0.29054993 1.5009437 4.8889061e-39
-2.6461067 0.27141768 1.4980752 6.5462527e-39
-2.6465528 0.27731073 1.5013894 6.5462527e-39
-2.6470706 0.28069296 1.5064797 6.5462527e-39
-2.6472895 0.27363572 1.5116769 5.0733016e-39
-2.6465673 0.26556182 1.5057871 4.8885502e-39
