# .PCD v0.7 - Point Cloud Data file format
VERSION 0.7
FIELDS x y z rgb
SIZE 4 4 4 4
TYPE F F F F
COUNT 1 1 1 1
WIDTH 603
HEIGHT 1
VIEWPOINT 0 0 0 1 0 0 0
POINTS 603
DATA ascii
2.8035336 2.2962244 -1.1964728 5.1611448e-39
2.8174098 2.2704048 -1.1963018 4.8838362e-39
2.8246939 2.2576587 -1.1962327 5.0675086e-39
2.7892134 2.2879694 -1.1957625 5.2536992e-39
2.8037941 2.2623227 -1.1956207 5.5288427e-39
2.8109636 2.2505312 -1.1955717 5.0675086e-39
2.8170383 2.2372127 -1.1954457 5.1597029e-39
2.8235264 2.2240901 -1.195339 4.8834747e-39
2.7708826 2.2957063 -1.1953183 5.1618763e-39
2.7778926 2.2828305 -1.1952362 5.0693121e-39
2.7823739 2.2701414 -1.1950704 5.0696666e-39
2.7909138 2.2537098 -1.1949515 5.3448144e-39
2.7977893 2.2436666 -1.1949368 4.7912833e-39
2.8053188 2.2310369 -1.1948789 5.0675072e-39
2.8112617 2.2176561 -1.1947467 4.8834747e-39
2.8165228 2.2026691 -1.19455 5.1589798e-39
2.8296697 2.177788 -1.1943773 5.3433724e-39
2.7751741 2.248528 -1.1942695 5.2526174e-39
2.8155129 2.1704586 -1.1936963 5.3433724e-39
2.8227134 2.1576729 -1.1936231 5.2518971e-39
2.7586627 2.2882588 -1.1947019 4.6076137e-39
2.7650998 2.2761467 -1.1946192 5.3469836e-39
2.768852 2.2649014 -1.1944647 5.0696652e-39
2.7856154 2.23627 -1.1943232 5.4370114e-39
2.792119 2.2241602 -1.1942428 5.0675072e-39
2.797545 2.2096746 -1.1940645 5.1589798e-39
2.8036435 2.1972277 -1.1939615 5.3430095e-39
2.8093264 2.1837242 -1.193817 5.067503e-39
2.8297014 2.1447866 -1.19354 5.2518985e-39
2.7360964 2.2941775 -1.1940634 3.8711248e-39
2.7549515 2.2545214 -1.1937151 5.1615049e-39
2.7607198 2.2410345 -1.1935741 5.2533376e-39
2.7699232 2.2292199 -1.1935955 5.25226e-39
2.7901874 2.1902301 -1.1933132 5.4352051e-39
2.7948937 2.177254 -1.1931481 6.1738506e-39
2.8234026 2.1231396 -1.1927699 5.8972651e-39
2.743994 2.2817218 -1.194023 4.5146978e-39
2.7537057 2.2702575 -1.1940713 5.1607945e-39
2.7807617 2.2182927 -1.1936967 5.252623e-39
2.7841077 2.2035463 -1.1934391 5.3433724e-39
2.6945932 2.3389878 -1.1937511 3.3168721e-39
2.7232711 2.2874782 -1.193445 3.8711248e-39
2.7298801 2.2744126 -1.193344 4.2391885e-39
2.7372534 2.2617087 -1.193279 5.1607945e-39
2.7429214 2.2485316 -1.1931423 5.3451731e-39
2.7482386 2.2345212 -1.1929722 5.5299245e-39
2.7570927 2.2206371 -1.192929 5.6213971e-39
2.7633216 2.2092729 -1.192858 5.3444557e-39
2.7710881 2.1967549 -1.1928114 5.8054296e-39
2.7775574 2.1836233 -1.1927038 5.343371e-39
2.7813113 2.1714821 -1.1925267 5.8054268e-39
2.7879229 2.1561425 -1.1923681 6.1734904e-39
2.7952151 2.1434002 -1.1922992 5.8050709e-39
2.8018017 2.1303241 -1.1921972 5.7132354e-39
2.8080635 2.1170943 -1.19208 5.6214013e-39
2.7178807 2.3011205 -1.1936032 3.1339171e-39
2.7336159 2.2269716 -1.1922692 5.5292042e-39
2.7950311 2.110297 -1.1914517 5.6206768e-39
2.7043569 2.2940905 -1.1929518 3.0413614e-39
2.7087083 2.2791631 -1.1927245 4.1466327e-39
2.7183068 2.2684376 -1.1927876 4.7912805e-39
2.723666 2.2546935 -1.1926258 5.1593469e-39
2.7283604 2.2406776 -1.1924338 5.5292028e-39
2.7415562 2.2145357 -1.1922308 5.529563e-39
2.7515292 2.2031534 -1.1922903 5.5288427e-39
2.7549648 2.190865 -1.1920981 5.6203209e-39
2.7633944 2.1760833 -1.1920173 5.5284812e-39
2.7684183 2.1624753 -1.1918471 5.437003e-39
2.775394 2.1495833 -1.1917635 5.8979826e-39
2.7819393 2.1364877 -1.1916596 5.713234e-39
2.7888324 2.1235566 -1.191572 5.7132354e-39
2.7082584 2.2467277 -1.1918849 5.1593455e-39
2.7212367 2.2204833 -1.1916717 5.4373673e-39
2.7287047 2.2078242 -1.1916112 5.5292042e-39
2.7356131 2.1949003 -1.1915243 5.620681e-39
2.7554948 2.1557298 -1.1912241 5.437003e-39
2.7581911 2.1406705 -1.1909357 5.8969036e-39
2.7683618 2.1294324 -1.1910057 5.7132326e-39
2.7756095 2.1166692 -1.1909348 5.7132354e-39
2.7815456 2.1032853 -1.1908022 5.6206768e-39
2.8229504 2.0257206 -1.1902789 5.9898223e-39
2.663285 2.3390665 -1.1926588 4.4232196e-39
2.6847568 2.3003783 -1.1924264 2.9491671e-39
2.691112 2.2871928 -1.1923134 2.7644157e-39
2.6959667 2.2758942 -1.1921961 4.2388298e-39
2.7023852 2.2601414 -1.1920203 4.7912805e-39
2.7156031 2.2340105 -1.1918184 5.529563e-39
2.743149 2.1822734 -1.1914668 5.7125137e-39
2.7496591 2.1691611 -1.1913613 5.8054282e-39
2.8346481 2.0151992 -1.1904205 5.898714e-39
2.6623104 2.3053193 -1.1917673 4.0544413e-39
2.6886003 2.2529879 -1.1913568 4.791642e-39
2.6950586 2.2398512 -1.1912488 4.8834775e-39
2.7007713 2.2284441 -1.1911585 5.7125137e-39
2.7083025 2.2137632 -1.1910489 5.5281238e-39
2.7154753 2.1996017 -1.1909398 5.712155e-39
2.7222271 2.1879358 -1.1908795 5.620681e-39
2.7291811 2.1750336 -1.1907946 5.7125137e-39
2.7338579 2.1592555 -1.1905572 5.8972651e-39
2.7437687 2.1496904 -1.1906607 6.1734919e-39
2.7477622 2.1352475 -1.1904334 5.9887391e-39
2.7554553 2.1221509 -1.1903695 6.0820165e-39
2.759546 2.1083097 -1.1901609 5.9894621e-39
2.7690206 2.0994101 -1.1902659 6.2660504e-39
2.7999213 2.030246 -1.1895889 6.0816578e-39
2.8103118 2.0191097 -1.1896691 6.0820207e-39
2.8173742 2.0062587 -1.1895896 6.0827424e-39
2.8244724 1.9934247 -1.1895117 5.8983497e-39
2.6784768 2.2831323 -1.1917688 3.8707633e-39
2.683259 2.2666535 -1.1915172 4.2388298e-39
2.8315544 1.9805831 -1.1894329 6.6351917e-39
2.6929612 2.2058425 -1.1903112 5.5292056e-39
2.7335382 2.1278861 -1.189749 5.9894607e-39
2.6503987 2.2992067 -1.1911955 3.8700458e-39
2.6564219 2.2833643 -1.1910037 4.8838306e-39
2.6622961 2.2722964 -1.1909276 3.7782075e-39
2.6695142 2.2595189 -1.1908555 3.962603e-39
2.675946 2.2463698 -1.1907462 4.5157754e-39
2.6824949 2.2350643 -1.1906879 5.7125151e-39
2.686888 2.2191617 -1.1904373 5.7125137e-39
2.700166 2.193059 -1.1902384 5.5281238e-39
2.7100704 2.1816192 -1.1902939 5.8961861e-39
2.7173667 2.1689267 -1.1902266 5.896905e-39
2.7206454 2.154171 -1.1899663 5.8972637e-39
2.7272618 2.141109 -1.1898657 6.081655e-39
2.7409294 2.1151907 -1.189685 5.9898237e-39
2.7485936 2.1026247 -1.1896335 6.1738534e-39
2.7548718 2.0894024 -1.189517 6.2660504e-39
2.7968884 2.011528 -1.1890073 6.1742163e-39
2.8045487 1.9981705 -1.1889358 6.3582432e-39
2.8087056 1.9852536 -1.1887528 6.1742135e-39
2.8185842 1.9738151 -1.1888076 6.6351917e-39
2.8254464 1.9608693 -1.1887186 6.7284663e-39
2.8321786 1.9478621 -1.1886233 7.0050532e-39
2.6302655 2.2903697 -1.1902673 4.6990862e-39
2.6403842 2.2774904 -1.1902937 4.1462712e-39
2.679889 2.1984198 -1.1896658 6.0805774e-39
2.6848156 2.1851017 -1.1894996 5.804352e-39
2.6938963 2.173269 -1.1895164 5.7125179e-39
2.6993787 2.1600907 -1.1893733 6.0802158e-39
2.7078564 2.1475914 -1.189352 6.1731317e-39
2.7128026 2.133322 -1.1891624 6.2642455e-39
2.7200894 2.1208918 -1.1891013 5.9894607e-39
2.7281704 2.1085229 -1.1890695 5.8979868e-39
2.7350626 2.0955915 -1.1889819 6.0820179e-39
2.7479749 2.0693157 -1.1887656 6.2664035e-39
2.7801592 2.0046375 -1.1882474 6.542996e-39
2.789012 1.9915769 -1.188225 6.3586048e-39
2.79599 1.9787457 -1.1881429 6.4504389e-39
2.7960656 1.9622984 -1.1877278 6.9106954e-39
2.6487038 2.267993 -1.1903434 4.3306611e-39
2.6564538 2.2529049 -1.1902308 5.1597015e-39
2.6704767 2.2262635 -1.1900442 5.2518985e-39
2.6745267 2.212682 -1.1898408 5.6203195e-39
2.7419009 2.0826342 -1.1888916 6.2656903e-39
2.8045321 1.9667472 -1.1881367 6.2664091e-39
2.8183184 1.9406561 -1.1879559 6.9128576e-39
2.6177709 2.2823522 -1.1896268 4.8831202e-39
2.6258395 2.2702394 -1.1896011 4.8834761e-39
2.6611142 2.2057049 -1.1891946 5.6203209e-39
2.6651011 2.194648 -1.1890531 6.080576e-39
2.6723983 2.1786587 -1.1889018 6.0809389e-39
2.6798909 2.1659958 -1.1888421 6.0809403e-39
2.6860683 2.1527414 -1.1887213 6.1731345e-39
2.6923444 2.1395183 -1.1886046 6.1731317e-39
2.6995924 2.1299894 -1.1886159 6.0809361e-39
2.7086248 2.1148365 -1.1885468 5.896905e-39
2.7145345 2.1014402 -1.1884129 5.8979854e-39
2.7218251 2.088697 -1.188344 6.0820165e-39
2.729027 2.075912 -1.1882709 6.2656903e-39
2.7353559 2.0607729 -1.1881075 6.2664049e-39
2.7673483 1.9968883 -1.1876026 6.7270258e-39
2.7747767 1.9841971 -1.1875401 6.6355546e-39
2.7860818 1.9624069 -1.1873816 6.9106954e-39
2.7945418 1.9483482 -1.1873201 6.7281034e-39
2.6419334 2.2452073 -1.1895276 5.2526174e-39
2.6524544 2.2341278 -1.1896139 5.2515356e-39
2.6553152 2.2191536 -1.1893336 5.3440955e-39
2.7835963 1.9721911 -1.1875433 6.2667679e-39
2.5950699 2.2889214 -1.1890001 4.8823999e-39
2.7467082 2.0026839 -1.1870285 6.6351903e-39
2.6122508 2.2629168 -1.18894 5.4362883e-39
2.6188419 2.2518249 -1.1888885 5.1597029e-39
2.6356795 2.2254243 -1.1888065 5.067866e-39
2.6425283 2.2124727 -1.1887168 5.2518999e-39
2.649617 2.1963365 -1.1885546 5.8043478e-39
2.652806 2.1849501 -1.1883768 6.0802144e-39
2.6605089 2.1724021 -1.1883273 5.9883803e-39
2.665473 2.1606352 -1.1882019 5.9887461e-39
2.6728482 2.1496701 -1.1881812 6.1734989e-39
2.6808138 2.1334317 -1.1880469 6.0812976e-39
2.6885271 2.1205854 -1.1879902 6.2649686e-39
2.6956625 2.1080725 -1.1879218 5.896905e-39
2.7026079 2.096941 -1.1878816 6.2664106e-39
2.7082732 2.0819125 -1.1876979 6.2656903e-39
2.7137418 2.0679622 -1.1875347 6.3578859e-39
2.7219698 2.0581157 -1.1875721 6.5426345e-39
2.7270491 2.0419598 -1.1873392 6.4507948e-39
2.7334793 2.0288095 -1.1872298 6.543352e-39
2.7557056 1.9907703 -1.1870404 6.5429974e-39
2.7604237 1.9767882 -1.18685 6.5437177e-39
2.7698998 1.9648134 -1.1868771 6.6355504e-39
2.7821171 1.9421104 -1.1867273 6.8199417e-39
2.5702136 2.3083687 -1.1886253 4.4228609e-39
2.5782394 2.2953453 -1.188575 4.6065319e-39
2.5830951 2.2808757 -1.1883771 5.1586281e-39
2.5897195 2.2678177 -1.1882771 5.1586211e-39
2.598511 2.2558534 -1.1882803 5.6196006e-39
2.6027102 2.2433946 -1.1881105 5.7117934e-39
2.6794837 2.099659 -1.1871425 6.7252251e-39
2.6921604 2.0733991 -1.1869184 6.2656889e-39
2.7072215 2.04814 -1.1868031 6.4504361e-39
2.7202535 2.0219212 -1.1865925 6.6351889e-39
2.7263088 2.0064552 -1.1864113 6.7281062e-39
2.7371056 1.9811647 -1.1861461 6.8199431e-39
2.7479641 1.9702622 -1.1862488 6.5440792e-39
2.634876 2.1935623 -1.187969 5.619602e-39
2.6406343 2.1785603 -1.187789 5.9883789e-39
2.6471088 2.165431 -1.1876818 5.9883803e-39
2.6548772 2.152914 -1.1876352 6.1727758e-39
2.6610694 2.1396513 -1.1875148 6.1731359e-39
2.6673028 2.1264081 -1.1873963 6.0812976e-39
2.6738718 2.1133235 -1.1872935 6.0812976e-39
2.6834157 2.1016874 -1.1873314 6.3575244e-39
2.6873341 2.0873082 -1.187103 6.2664106e-39
2.70151 2.0616302 -1.1869463 6.4504403e-39
2.5562565 2.299931 -1.1879232 4.3306667e-39
2.5649559 2.2879252 -1.1879222 4.3303037e-39
2.569839 2.2739725 -1.1877383 4.8827572e-39
2.5765502 2.2609553 -1.1876423 5.3430137e-39
2.5835896 2.2480936 -1.1875616 5.619602e-39
2.5927174 2.233413 -1.1875076 5.9876601e-39
2.6005819 2.2237484 -1.1875371 5.5281196e-39
2.6189401 2.1838036 -1.1871639 6.4489969e-39
2.6268075 2.1713867 -1.1871234 5.8961833e-39
2.6337733 2.1584902 -1.1870393 6.080576e-39
2.6408534 2.1456475 -1.1869605 6.0805802e-39
2.6470659 2.1323943 -1.1868409 6.1731345e-39
2.6540563 2.1195092 -1.186758 6.0805788e-39
2.6608858 2.1041272 -1.1866057 6.3571628e-39
2.6644886 2.0920601 -1.1864252 6.7252237e-39
2.6732597 2.0783515 -1.1863835 6.6337497e-39
2.6808658 2.0674238 -1.1863718 6.173852e-39
2.6880248 2.0546186 -1.1862967 6.4504403e-39
2.6932383 2.0410149 -1.1861333 6.6351889e-39
2.7062314 2.0144901 -1.1859136 6.7281048e-39
2.7124443 2.0014024 -1.1857982 6.9124988e-39
2.7191386 1.9883772 -1.1857013 6.8206619e-39
2.7279255 1.9731953 -1.1856227 6.8210235e-39
2.7313747 1.9616408 -1.1854497 6.8199417e-39
2.740911 1.9503587 -1.1854964 6.9124988e-39
2.7492738 1.9378656 -1.1854714 6.8192228e-39
2.75424 1.9243308 -1.1853011 6.9124974e-39
2.6143706 2.1978874 -1.187362 5.5281266e-39
2.5633752 2.2540908 -1.1870074 5.1586253e-39
2.5702336 2.2411432 -1.1869181 5.619602e-39
2.6990228 1.994421 -1.1851517 6.9124988e-39
2.7124729 1.9683996 -1.1849607 6.8206619e-39
2.5458534 2.2937522 -1.1874026 4.5146992e-39
2.5524848 2.2797801 -1.1872793 4.1459125e-39
2.5581303 2.2678018 -1.1871723 4.8827558e-39
2.577966 2.2286091 -1.18687 5.7117948e-39
2.5843539 2.2165101 -1.1867859 5.8961861e-39
2.5917523 2.2026637 -1.1866927 5.7121508e-39
2.5997932 2.1904831 -1.1866643 6.0802116e-39
2.6057067 2.1769645 -1.1865276 6.3568013e-39
2.6155405 2.1655464 -1.1865811 6.4489969e-39
2.6193113 2.1522775 -1.186376 6.3568027e-39
2.6276405 2.1387649 -1.1863238 5.9887447e-39
2.6309428 2.1239824 -1.1860635 6.2653301e-39
2.6383207 2.1113014 -1.1859994 6.2649714e-39
2.6549337 2.0869546 -1.1859615 6.3571656e-39
2.6762023 2.0445445 -1.1856275 6.4508004e-39
2.6796918 2.0338523 -1.1854779 6.6351903e-39
2.6867712 2.0210092 -1.1853989 6.6359105e-39
2.6935124 2.0080063 -1.1853043 6.8203004e-39
2.7059162 1.98149 -1.1850641 6.8206633e-39
2.728961 1.9404757 -1.1848277 6.9124974e-39
2.5380774 2.2738752 -1.1866258 4.5146964e-39
2.5447683 2.2608485 -1.1865287 4.8827586e-39
2.5506449 2.2474365 -1.1863933 5.1586267e-39
2.5535951 2.2324874 -1.1861167 5.5270448e-39
2.5647666 2.2217331 -1.1862339 5.7117948e-39
2.6720862 2.0134299 -1.184693 6.6359119e-39
2.6856239 1.9874504 -1.1845063 6.8203018e-39
2.6921351 1.9743385 -1.1844007 6.8206633e-39
2.6990902 1.9614367 -1.1843162 6.8206619e-39
2.7068863 1.9489329 -1.1842709 6.8210235e-39
2.7182145 1.921886 -1.1839796 7.1890857e-39
2.5313795 2.2898254 -1.1867968 4.5150593e-39
2.5734336 2.2096415 -1.1862296 6.0805774e-39
2.5799413 2.1965277 -1.186124 6.0802116e-39
2.5866072 2.1834893 -1.1860257 6.0802116e-39
2.5929046 2.1702762 -1.1859101 6.3564426e-39
2.5999353 2.1574101 -1.1858289 6.4489969e-39
2.6065154 2.144331 -1.1857268 6.5408338e-39
2.620548 2.1185856 -1.1855631 6.4493613e-39
2.6260955 2.1050177 -1.1854123 6.4497228e-39
2.6665733 2.0270143 -1.1848456 6.6348301e-39
2.6800628 2.0010116 -1.1846563 6.8206591e-39
2.7137837 1.9360039 -1.1841834 7.0043329e-39
2.5048609 2.3061054 -1.1862833 3.8693298e-39
2.5157616 2.2769089 -1.1859226 4.7898427e-39
2.5263085 2.2678289 -1.1860607 4.7894826e-39
2.5285077 2.254601 -1.1858014 5.2508209e-39
2.5366175 2.2375302 -1.1856513 5.6192433e-39
2.5433197 2.2271469 -1.1856217 5.8958288e-39
2.5524361 2.2135198 -1.1855942 6.0802172e-39
2.5795035 2.1633046 -1.1852646 6.3564426e-39
2.6403763 2.0463731 -1.1844215 6.8177823e-39
2.6471417 2.0333817 -1.1843281 6.6344686e-39
2.6538129 2.0203454 -1.18423 6.6348301e-39
2.6562726 2.0051591 -1.1839302 6.8195829e-39
2.6672878 1.9943362 -1.1840402 6.8203004e-39
2.6739995 1.9813192 -1.1839441 6.8203004e-39
2.6768882 1.9663587 -1.1836649 6.9128618e-39
2.686161 1.9546883 -1.1836927 6.8203032e-39
2.5296423 2.2200441 -1.1849631 5.6188803e-39
2.49088 2.2994297 -1.1856252 4.0533609e-39
2.4989648 2.2865617 -1.1855807 4.5143391e-39
2.5037944 2.2725847 -1.1853945 4.790563e-39
2.5099156 2.2592881 -1.1852705 4.7894826e-39
2.5170875 2.2464893 -1.185196 5.3422949e-39
2.5244086 2.2337606 -1.1851287 5.8036359e-39
2.5365703 2.2071297 -1.1848773 5.988023e-39
2.5442019 2.195708 -1.1848539 5.9883803e-39
2.5660868 2.1563251 -1.1846182 6.3560824e-39
2.6260405 2.0392823 -1.1837403 6.9117786e-39
2.6398225 2.0143812 -1.1835895 6.9121387e-39
2.645175 1.9994349 -1.1833968 7.0958097e-39
2.6522613 1.9875517 -1.1833426 6.9124974e-39
2.6600409 1.973999 -1.1832701 6.9132191e-39
2.6662509 1.9608294 -1.1831526 7.0057805e-39
2.6738901 1.9479936 -1.1830935 7.0064951e-39
2.5166895 2.2132847 -1.1843387 5.9880272e-39
2.5224748 2.2000105 -1.1842037 6.5408338e-39
2.5305319 2.187449 -1.1841661 6.0802158e-39
2.4977312 2.2528925 -1.1846823 5.1593441e-39
2.5107868 2.2266846 -1.1844728 5.7118004e-39
2.6220069 2.0203362 -1.1831179 6.9128562e-39
2.6324122 1.9927653 -1.1827812 6.8210235e-39
2.6394978 1.9799254 -1.1827027 7.0046931e-39
2.4518428 2.2951221 -1.1841511 4.0533581e-39
2.481952 2.244746 -1.1839236 5.1593427e-39
2.490896 2.2328346 -1.1839337 5.1589826e-39
2.5024412 2.2041461 -1.1836084 6.2646099e-39
2.5089705 2.1928089 -1.1835486 6.4486354e-39
2.5170922 2.1797719 -1.1835012 6.7255838e-39
2.611083 1.9980692 -1.1821704 7.2816415e-39
2.6254754 1.9726593 -1.1820279 6.912859e-39
2.4358954 2.3008683 -1.1837395 3.7774901e-39
2.4427364 2.2903798 -1.1837124 4.0533581e-39
2.4511809 2.2767863 -1.1836619 4.9745969e-39
2.4635448 2.2509806 -1.1834388 4.9749529e-39
2.4715145 2.2357526 -1.1833303 5.6196006e-39
2.4849641 2.2148478 -1.1832694 6.0794942e-39
2.4898872 2.1993411 -1.1830475 6.540838e-39
2.4957745 2.1859341 -1.1829126 6.4486368e-39
2.5026903 2.1730137 -1.1828262 6.6333882e-39
2.513238 2.1594067 -1.1828492 6.9099765e-39
2.6264951 1.9419684 -1.1812837 7.2812855e-39
2.482537 2.17904 -1.1822748 6.3564426e-39
2.4893167 2.1660552 -1.182182 6.5404737e-39
2.4297059 2.2835832 -1.1830841 4.0533595e-39
2.4431784 2.2575729 -1.1828941 5.1586281e-39
2.4563427 2.2314162 -1.1826899 5.342655e-39
2.4699352 2.2054625 -1.1825056 5.9872999e-39
2.476995 2.1926103 -1.1824259 6.448641e-39
2.4970796 2.1535356 -1.1821351 6.9096178e-39
2.4427681 2.2243624 -1.1820362 5.4348506e-39
2.4694309 2.1722076 -1.1816431 6.2642455e-39
2.4763424 2.1592853 -1.1815563 6.5404737e-39
2.4582262 2.1663818 -1.1811032 7.3716777e-39
2.3376722 2.2849393 -1.1799014 5.9894705e-39
2.2216198 2.2086778 -1.173907 8.5741838e-39
2.2014196 2.2146869 -1.1733538 1.060286e-38
2.2180262 2.1738155 -1.1728958 1.1155673e-38
2.8301575 2.211035 -1.1952391 5.066787e-39
2.8340545 2.1965659 -1.1950077 4.975306e-39
2.8363321 2.164748 -1.1942788 5.2518999e-39
2.8355701 2.1313708 -1.1934043 5.0682247e-39
2.8393145 2.0010936 -1.1902254 5.9905453e-39
2.8385096 1.9676812 -1.1893482 6.7284663e-39
2.7899423 2.3220768 -1.1966546 4.515781e-39
2.7983143 2.3089671 -1.1966141 5.253346e-39
2.7725308 2.3285692 -1.1962109 4.6998093e-39
2.77811 2.3159497 -1.1960852 4.6079766e-39
2.7849538 2.3029952 -1.1959953 5.7146899e-39
2.764967 2.3090997 -1.1954519 4.6083354e-39
2.755779 2.3333042 -1.1957456 4.9753144e-39
2.7592552 2.3225896 -1.1955949 4.9763948e-39
2.750613 2.3019381 -1.1947681 4.0547986e-39
2.7461236 2.3157456 -1.1949619 4.8845579e-39
2.7203469 2.3188825 -1.1941406 2.9491671e-39
2.7308414 2.3062866 -1.1941874 3.9629603e-39
2.7068713 2.3283679 -1.1939106 3.3179511e-39
2.7110984 2.3141041 -1.1936959 2.9491671e-39
2.681303 2.3317599 -1.193103 2.9480895e-39
2.691293 2.3204288 -1.1931642 3.1331955e-39
2.6953139 2.3099575 -1.1930387 3.1335598e-39
2.6685321 2.3250868 -1.1924869 3.1328409e-39
2.6776934 2.3107014 -1.1924417 3.5016207e-39
2.6534977 2.3172896 -1.1917634 3.5016235e-39
2.6485014 2.3352048 -1.1920438 4.4232196e-39
2.6284699 2.3381653 -1.1914189 4.0551546e-39
2.6369302 2.3252122 -1.1913855 3.2243163e-39
2.6178379 2.3145533 -1.1904472 4.3303037e-39
2.6143253 2.3322363 -1.1907737 4.3313813e-39
2.62256 2.3177369 -1.1906931 3.5012619e-39
2.6034586 2.3119082 -1.1898775 4.0537182e-39
2.601388 2.3231783 -1.1900915 4.6998037e-39
2.5815001 2.32933 -1.1895524 4.6072479e-39
2.5872319 2.3185208 -1.1894783 2.7633353e-39
2.5507836 2.3140037 -1.1880894 4.2381165e-39
2.546756 2.3278213 -1.1882997 3.5930974e-39
2.5230627 2.3320239 -1.1875782 4.0533581e-39
2.533323 2.3208344 -1.1876526 3.7771299e-39
2.5123687 2.3264816 -1.1870636 3.961524e-39
2.4762597 2.324327 -1.1857466 5.0675128e-39
2.4815938 2.3175297 -1.1857604 3.9608079e-39
2.5609372 2.3360085 -1.1890032 3.5927373e-39
2.5404158 2.3410141 -1.1884133 4.790563e-39
2.5072265 2.3419201 -1.187276 5.0667898e-39
2.4883208 2.3329949 -1.1863885 4.8827614e-39
2.4744112 2.3378141 -1.1860247 5.1597071e-39
2.7078781 2.3454213 -1.194379 4.0544371e-39
2.6887112 2.3535469 -1.1939155 4.7920077e-39
2.6967812 2.3450139 -1.1939807 4.0544371e-39
2.6736393 2.3443265 -1.1931545 4.9764004e-39
2.6699781 2.3564734 -1.1933349 4.9764004e-39
2.6707597 2.2953193 -1.1918086 3.7778502e-39
2.6636968 2.239943 -1.1901547 4.4239399e-39
2.8089759 1.9523053 -1.1879252 6.7284649e-39
2.8256421 1.9279457 -1.1878887 6.8199431e-39
2.6388683 2.2600594 -1.1897979 5.0678702e-39
2.8047667 1.93363 -1.1873037 6.8206619e-39
2.6291034 2.2385054 -1.1889088 4.8838348e-39
2.7919133 1.9269176 -1.1866838 6.8206619e-39
2.6137235 2.232053 -1.1882074 5.3440899e-39
2.6200824 2.2173135 -1.1880553 5.2518957e-39
2.6278968 2.2048779 -1.1880124 5.3440955e-39
2.7563195 1.9584078 -1.1862397 6.5440764e-39
2.763617 1.9452755 -1.1861609 6.6348315e-39
2.60848 2.211293 -1.1874967 5.4362855e-39
2.5408163 2.3081872 -1.1875931 3.3157917e-39
2.6484673 2.1000414 -1.1860678 6.0812976e-39
2.6617711 2.0739508 -1.1858702 6.3571642e-39
2.6683731 2.0608821 -1.1857688 6.2653287e-39
2.616164 2.1327984 -1.185771 6.4490025e-39
2.6335599 2.092299 -1.1853502 6.3586076e-39
2.6400332 2.083055 -1.1853416 6.4489983e-39
2.6464238 2.0659535 -1.1851305 6.5415569e-39
2.6546926 2.0537572 -1.1851096 6.5415555e-39
2.6609917 2.0432816 -1.1850636 6.7263069e-39
2.7223749 1.925931 -1.1842278 6.7281076e-39
2.5153279 2.2949228 -1.1863652 4.2391899e-39
2.5206461 2.2811892 -1.1862022 3.6853001e-39
2.5598464 2.2025812 -1.1855752 5.8961847e-39
2.5665545 2.1895628 -1.185479 5.8961847e-39
2.5733943 2.1766064 -1.1853889 6.1724072e-39
2.5874348 2.1508646 -1.1852257 6.2646071e-39
2.5944974 2.1380136 -1.1851461 6.4489997e-39
2.6337407 2.0633047 -1.1846198 6.7259482e-39
2.6950226 1.9426887 -1.1836976 6.8206633e-39
2.7015646 1.9295914 -1.1835935 6.7295467e-39
2.5602081 2.1697364 -1.1847534 6.0798529e-39
2.5736458 2.1437094 -1.184562 6.2646085e-39
2.581059 2.1310244 -1.1844988 6.3568041e-39
2.587038 2.1176608 -1.1843683 6.4490011e-39
2.5905981 2.1030238 -1.1841208 6.5419156e-39
2.6007223 2.0917504 -1.1841884 6.4497186e-39
2.6205904 2.052573 -1.1838874 6.6351959e-39
2.6348929 2.0269551 -1.1837366 6.63447e-39
2.6809862 1.9354162 -1.183022 6.8206633e-39
2.6874888 1.9223003 -1.1829162 6.7295453e-39
2.695883 1.9100796 -1.182899 6.8210235e-39
2.4716954 2.3062184 -1.1851269 3.7767754e-39
2.4862537 2.2798665 -1.1849663 3.9615254e-39
2.4925144 2.2662227 -1.1848385 4.6987275e-39
2.5058098 2.2405221 -1.1846503 5.2511782e-39
2.5393441 2.1776426 -1.1842251 6.2646071e-39
2.5449793 2.161797 -1.1840193 6.3568013e-39
2.5527551 2.1474795 -1.1839274 6.4489969e-39
2.5618544 2.1376181 -1.183995 6.7255796e-39
2.5654562 2.126863 -1.1838477 6.5415527e-39
2.57393 2.1128345 -1.1837873 6.8184997e-39
2.5793841 2.0972157 -1.1835814 6.818141e-39
2.5871539 2.0846043 -1.1835324 6.8185011e-39
2.613198 2.0300248 -1.1830562 6.8192228e-39
2.6277244 2.0070915 -1.1829813 6.7281076e-39
2.6469016 1.9672359 -1.182639 7.1894458e-39
2.6557038 1.9516041 -1.1825496 7.0057749e-39
2.6602595 1.9411072 -1.1824422 6.8210249e-39
2.6665368 1.927865 -1.1823251 6.9132191e-39
2.6193404 1.9859493 -1.1821511 6.9128604e-39
2.6331906 1.9601175 -1.1819789 7.0976104e-39
2.6400783 1.9471838 -1.1818912 7.1890843e-39
2.6467922 1.9341679 -1.1817951 6.9139408e-39
2.4720547 2.2724974 -1.1842828 4.2373934e-39
2.4790208 2.2596011 -1.1841986 4.9749557e-39
2.5324461 2.1553388 -1.1834173 6.7255838e-39
2.5396569 2.1425581 -1.1833445 6.6333882e-39
2.5460818 2.1294053 -1.1832349 6.6337441e-39
2.5592363 2.1032443 -1.18303 6.8184983e-39
2.5660994 2.0902989 -1.1829412 6.818141e-39
2.6009583 2.0258296 -1.1825218 6.9114198e-39
2.6063919 2.0122082 -1.1823655 6.9128562e-39
2.6546171 1.9216777 -1.1817513 7.0979691e-39
2.4544582 2.2634158 -1.183437 5.1586281e-39
2.5584896 2.0698748 -1.1821562 6.7266656e-39
2.5871563 2.0186682 -1.1818573 6.8192242e-39
2.5937564 2.0055983 -1.181756 6.912859e-39
2.6001103 1.9924121 -1.1816431 6.8203032e-39
2.6068878 1.9794263 -1.18155 6.9125002e-39
2.6138246 1.9665159 -1.1814644 6.9124974e-39
2.6204226 1.9534452 -1.181363 7.0046931e-39
2.6313877 1.9297884 -1.1811454 7.0972516e-39
2.6384437 1.9133359 -1.180974 7.0057763e-39
2.6477423 1.9016013 -1.1810009 6.9142981e-39
2.4211526 2.2982826 -1.1831585 3.4090691e-39
2.4368253 2.2707593 -1.1830071 4.6058158e-39
2.450093 2.2446518 -1.1828077 5.1593427e-39
2.4664824 2.2201197 -1.1827571 5.7125165e-39
2.5067921 2.14202 -1.1821821 6.8177809e-39
2.5148344 2.1297021 -1.1821502 7.0025351e-39
2.5188022 2.1153438 -1.1819242 6.9110569e-39
2.5336003 2.0899291 -1.1817957 7.2805583e-39
2.5441875 2.0623751 -1.1814657 6.9114156e-39
2.5641868 2.0232441 -1.1811707 6.9121415e-39
2.5991938 1.9589221 -1.1807601 7.0050532e-39
2.6081123 1.9442022 -1.1806979 7.0968901e-39
2.6125891 1.9329152 -1.1805676 7.2812827e-39
2.6225386 1.9215616 -1.180627 7.1898102e-39
2.6256731 1.9067209 -1.1803596 7.0979747e-39
2.4161193 2.2765238 -1.1824298 3.6849385e-39
2.4233377 2.2637467 -1.1823575 4.3292289e-39
2.4363589 2.2375224 -1.1821464 5.1586253e-39
2.4501159 2.2116466 -1.1819698 5.7117976e-39
2.4564614 2.1984563 -1.1818565 6.2642483e-39
2.4632831 2.1854913 -1.1817657 6.3564454e-39
2.4838269 2.1466339 -1.1814964 6.7255866e-39
2.4302523 2.2508256 -1.182271 5.066431e-39
2.4914622 2.1340539 -1.1814438 6.8177809e-39
2.4983699 2.12113 -1.1813569 7.0025337e-39
2.5252402 2.0690732 -1.1809735 7.2805583e-39
2.53267 2.056396 -1.1809112 7.1887256e-39
2.5994473 1.9260662 -1.1799341 7.2812827e-39
2.6064565 1.91319 -1.1798522 7.28201e-39
2.3836651 2.2926586 -1.1817052 4.3295849e-39
2.3931944 2.2811172 -1.1817452 4.6054487e-39
2.4022877 2.2694633 -1.181767 4.8820384e-39
2.4230356 2.2295597 -1.1814783 5.6196006e-39
2.4302909 2.2171462 -1.1814166 6.1727716e-39
2.4374697 2.2050319 -1.1813598 5.6195992e-39
2.4440019 2.1919301 -1.1812552 6.0805788e-39
2.4496465 2.1786795 -1.181116 6.9114156e-39
2.4616973 2.1539705 -1.1809093 7.0947293e-39
2.4697254 2.1393228 -1.1808178 7.0943706e-39
2.3684487 2.3012841 -1.1813926 3.5005445e-39
2.3744411 2.287843 -1.1812606 4.3303051e-39
2.3816855 2.275162 -1.1811914 4.6054487e-39
2.389312 2.2621696 -1.181128 4.4217791e-39
2.3983061 2.2507362 -1.181152 5.2501006e-39
2.4034097 2.2377942 -1.1810015 5.0664296e-39
2.4158821 2.2103794 -1.180741 5.8961819e-39
2.4230933 2.1975837 -1.180668 6.0809333e-39
2.4299338 2.1846151 -1.1805776 6.726667e-39
2.4362471 2.1714373 -1.1804634 6.9110569e-39
2.4428098 2.15835 -1.1803604 7.0954524e-39
2.4490626 2.1451156 -1.1802428 7.4635132e-39
2.4565516 2.1324668 -1.1801832 7.4627943e-39
2.4637303 2.1215131 -1.1801558 7.1872836e-39
2.3696756 2.269839 -1.1806365 5.4359324e-39
2.3759956 2.2556465 -1.1804968 4.5132544e-39
2.4307835 2.1520286 -1.1797794 7.096174e-39
2.4368229 2.1386933 -1.1796517 7.3716763e-39
2.3548043 2.2603965 -1.1798768 5.5274078e-39
2.3623543 2.2477758 -1.1798199 5.7107186e-39
2.3965511 2.183778 -1.1793894 6.0809347e-39
2.410445 2.1579669 -1.1792192 6.7270258e-39
2.3412192 2.2541223 -1.1792425 5.5277707e-39
2.3473079 2.2408104 -1.1791171 5.6185216e-39
2.3578165 2.2277374 -1.1791523 5.5270462e-39
2.3289967 2.2477081 -1.1786522 5.5281308e-39
2.2544348 2.2420645 -1.1759025 6.728839e-39
2.2612796 2.2291152 -1.1758127 7.1901759e-39
2.2446573 2.2370329 -1.1754328 6.728839e-39
2.2517631 2.2242024 -1.1753552 7.1901759e-39
2.2611196 2.2109916 -1.1753466 7.0054231e-39
2.2366369 2.2164021 -1.1746284 7.8359027e-39
2.2461088 2.2047036 -1.1746622 7.2823716e-39
2.2241416 2.2129052 -1.1741027 8.1132098e-39
2.2278626 2.1977155 -1.1738468 9.2191944e-39
2.2234204 2.1804221 -1.1732522 1.0232988e-38
2.5694611 2.320559 -1.1889088 3.593096e-39
2.5584676 2.317322 -1.1884423 3.9618827e-39
2.518518 2.3155439 -1.1870006 3.8693284e-39
2.5004654 2.3202186 -1.1864884 4.0533581e-39
2.4657488 2.3187342 -1.1852371 4.4217819e-39
2.5538239 2.3479524 -1.1890583 4.4210546e-39
2.5378804 2.3497016 -1.1885453 4.790563e-39
2.5964105 2.3374829 -1.1902808 4.9760305e-39
2.5756385 2.3427494 -1.1896886 4.6987233e-39
