# .PCD v0.7 - Point Cloud Data file format
VERSION 0.7
FIELDS x y z rgb
SIZE 4 4 4 4
TYPE F F F F
COUNT 1 1 1 1
WIDTH 1016
HEIGHT 1
VIEWPOINT 0 0 0 1 0 0 0
POINTS 1016
DATA ascii
-2.7488227 0.80652213 0.58322775 4.0450848e-39
-2.7399452 0.77804643 0.58407462 5.2421861e-39
-2.7188916 0.74284458 0.58544981 6.9924499e-39
-2.7731667 0.8661207 0.58126742 4.8791811e-39
-2.7626753 0.84806669 0.5819627 4.788412e-39
-2.7484012 0.8202284 0.58297294 4.8770007e-39
-2.7387185 0.79500473 0.58378232 6.2566561e-39
-2.729552 0.78295833 0.58431685 5.9804448e-39
-2.7243862 0.77116162 0.5847162 6.4414257e-39
-2.7119536 0.74288327 0.58567494 6.8087789e-39
-2.7039206 0.73243606 0.58614129 7.4541427e-39
-2.5949459 0.52407938 0.59377158 1.7765965e-38
-2.5823483 0.49702767 0.59471178 1.6295173e-38
-2.5764313 0.48320875 0.59517509 1.3625121e-38
-2.7309155 0.79912329 0.58395576 5.7967654e-39
-2.7131474 0.75811142 0.58533776 7.0871525e-39
-2.6999619 0.73201984 0.58627832 7.0846694e-39
-2.6049151 0.55048877 0.5929296 9.3945824e-39
-2.5981817 0.53749973 0.59340334 1.2706044e-38
-2.7851143 0.85310119 0.58113343 4.5103958e-39
-2.7839322 0.84546822 0.58132148 3.4036713e-39
-2.7740836 0.82302719 0.58208179 3.9528892e-39
-2.7654212 0.81427586 0.58253527 3.9528892e-39
-2.7620728 0.80119956 0.58290052 4.9663069e-39
-2.7534375 0.78704649 0.5834589 5.6109546e-39
-2.7695074 0.82447147 0.58220249 5.1521386e-39
-2.756407 0.81834012 0.58274919 6.0722761e-39
-2.7390699 0.7707597 0.58424586 7.2704591e-39
-2.7388339 0.76150459 0.58443487 6.9935205e-39
-2.7316473 0.75643003 0.5847683 6.7165833e-39
-2.608803 0.51588976 0.59348077 1.804254e-38
-2.5993311 0.50356209 0.59403068 1.6479919e-38
-2.5825553 0.46365649 0.59535873 1.6387385e-38
-2.5746026 0.45116034 0.59586257 1.9149979e-38
-2.5692089 0.43815383 0.59629303 1.5376101e-38
-2.7402146 0.78994858 0.58383268 6.3503021e-39
-2.7377055 0.77800012 0.58414847 6.5346961e-39
-2.7912784 0.81745195 0.581631 3.8614054e-39
-2.7787988 0.79331434 0.58251029 4.7826471e-39
-2.7922487 0.8345319 0.58126491 4.046524e-39
-2.601902 0.46994105 0.59460562 1.3714081e-38
-2.7880757 0.83075327 0.58147478 4.3241969e-39
-2.7534463 0.77114367 0.58377022 7.0860721e-39
-2.5944912 0.45722589 0.59509605 1.9149979e-38
-2.5868323 0.44461104 0.59559256 1.740045e-38
-2.5787561 0.43092978 0.59612358 1.4545617e-38
-2.5712779 0.41947684 0.59659147 8.8464561e-39
-2.7466645 0.7731337 0.58395201 7.5474089e-39
-2.6704288 0.56574225 0.59049737 1.7028398e-38
-2.6033146 0.43587956 0.59522694 2.0067635e-38
-2.6559839 0.5567888 0.59114313 1.6292265e-38
-2.5927081 0.42491895 0.59578699 1.5834549e-38
-2.584347 0.41270775 0.59629852 9.8551948e-39
-2.5799742 0.3986448 0.59671634 9.4860521e-39
-2.5726819 0.38588184 0.59720391 1.5279932e-38
-2.5653727 0.37312549 0.59769183 1.306834e-38
-2.6873357 0.57370442 0.58979082 1.5095193e-38
-2.6563675 0.50755608 0.59209514 1.7395761e-38
-2.6003737 0.40450382 0.59593725 9.2105484e-39
-2.5928183 0.39184704 0.59643126 8.6580963e-39
-2.5857396 0.37899759 0.59691352 9.0229188e-39
-2.5788102 0.36326629 0.5974474 1.3805918e-38
-2.5724804 0.35328728 0.59784895 1.7209587e-38
-2.5690114 0.3386274 0.59824908 1.7944992e-38
-2.6787257 0.56136155 0.59031302 1.6292265e-38
-2.672045 0.54835129 0.59078544 1.8226201e-38
-2.6626179 0.53708518 0.59131306 1.7674129e-38
-2.6045432 0.41852912 0.59552675 1.0406922e-38
-2.5227675 0.26228374 0.60125059 1.0954349e-38
-2.5982008 0.35647491 0.59694898 1.6281514e-38
-2.7066185 0.57990247 0.58904153 1.1413862e-38
-2.6993632 0.56712437 0.58952808 1.6565968e-38
-2.6921546 0.55432749 0.5900135 1.8594987e-38
-2.6813853 0.5270735 0.5908981 1.5649808e-38
-2.6744833 0.51424086 0.59137428 1.6111503e-38
-2.662663 0.50399148 0.59195995 1.6296968e-38
-2.5982044 0.37262732 0.59663242 1.711667e-38
-2.5875337 0.36169097 0.59719414 1.6381627e-38
-2.5742378 0.31919792 0.59845954 1.2052048e-38
-2.5656705 0.30758858 0.59896594 1.0860705e-38
-2.6842616 0.54180717 0.59051579 1.9147442e-38
-2.6626141 0.50342518 0.59197265 1.6756151e-38
-2.7245014 0.57101834 0.58863318 1.693584e-38
-2.6632171 0.45744842 0.59285367 1.9146392e-38
-2.6572795 0.43805775 0.59342688 1.877654e-38
-2.5702035 0.27233982 0.59950888 1.5085134e-38
-2.7135041 0.57629997 0.58888787 1.6567058e-38
-2.713855 0.5630585 0.58913583 1.5648356e-38
-2.7045813 0.54769838 0.58973867 1.3347074e-38
-2.6993849 0.5359394 0.59013826 2.0341648e-38
-2.6855967 0.50742936 0.59114581 1.6848344e-38
-2.6536551 0.43917722 0.59352303 2.3477388e-38
-2.7219343 0.52311683 0.58965516 1.6017507e-38
-2.6915538 0.46611628 0.59176111 1.896344e-38
-2.6747794 0.43224201 0.59297097 1.9885038e-38
-2.7440238 0.5770101 0.58788013 1.693584e-38
-2.7396293 0.5708304 0.58814424 1.7304621e-38
-2.7327716 0.55759144 0.58862692 1.8411683e-38
-2.686244 0.4677664 0.59190172 1.8962001e-38
-2.677541 0.46343622 0.5922699 1.8962001e-38
-2.6721783 0.44061196 0.59289169 1.8868735e-38
-2.6546714 0.41007763 0.59406 2.0155138e-38
-2.5884283 0.27787089 0.59880704 1.5177331e-38
-2.5805843 0.26244715 0.59936458 1.7842711e-38
-2.5724382 0.2538704 0.59979784 9.6675721e-39
-2.5665288 0.24054843 0.60025138 1.2055644e-38
-2.5626717 0.22617821 0.60065842 1.4813224e-38
-2.7230268 0.55388957 0.5890168 1.8596783e-38
-2.7157784 0.53668594 0.58958983 1.6016431e-38
-2.7065775 0.51386404 0.5903365 1.6020031e-38
-2.6971321 0.49879715 0.59093928 1.7400796e-38
-2.6640856 0.4395183 0.59317666 2.3293351e-38
-2.6501677 0.40886062 0.59423047 2.2918451e-38
-2.7470565 0.54283082 0.58845091 1.5557608e-38
-2.7386 0.53108919 0.5889563 1.5649804e-38
-2.735709 0.52182627 0.58923185 1.6569602e-38
-2.7132103 0.47811797 0.59082079 1.8226604e-38
-2.7069364 0.46097237 0.59136093 1.8595022e-38
-2.69016 0.43389088 0.5924378 2.0901342e-38
-2.7490382 0.55793786 0.58809036 1.8411683e-38
-2.7425771 0.54845262 0.58848667 1.9333268e-38
-2.7302024 0.51691407 0.58950746 1.638737e-38
-2.7190962 0.50719774 0.59005946 1.7032375e-38
-2.7066817 0.48016128 0.59099334 1.8504264e-38
-2.7002661 0.46530229 0.59149337 1.9053841e-38
-2.6881065 0.43859231 0.59241259 1.9975798e-38
-2.6700058 0.40424281 0.5936749 1.8309076e-38
-2.6627495 0.38857731 0.59421813 1.8671011e-38
-2.6545949 0.3762337 0.59472549 1.7841633e-38
-2.6499996 0.36230958 0.59514785 1.6829288e-38
-2.6017606 0.27172095 0.59849334 1.9771605e-38
-2.5930848 0.25756907 0.59905314 1.8301164e-38
-2.5864091 0.24661726 0.59948498 9.3917041e-39
-2.5786068 0.23139125 0.6000374 1.1413879e-38
-2.5748391 0.21987247 0.60038573 1.4904337e-38
-2.5689642 0.20653646 0.6008383 1.4079967e-38
-2.562511 0.19343433 0.60130507 1.5283192e-38
-2.7095244 0.49497858 0.5906105 1.7861771e-38
-2.676059 0.42852202 0.5930022 2.3475946e-38
-2.6688113 0.41764423 0.59345126 2.3475585e-38
-2.649013 0.37555012 0.59492058 2.1243819e-38
-2.6015637 0.28604946 0.5982191 2.2162191e-38
-2.7210777 0.45765877 0.59096539 1.859466e-38
-2.7609375 0.53581107 0.58813637 1.5465412e-38
-2.7511246 0.52161992 0.58873391 1.6569961e-38
-2.7508049 0.50774062 0.58901632 1.7672355e-38
-2.7431848 0.49522984 0.58950949 1.7859264e-38
-2.7322257 0.48671985 0.59003305 1.8043293e-38
-2.7249863 0.47178945 0.59056127 1.9057436e-38
-2.7047648 0.43103942 0.59201807 2.1269407e-38
-2.6899807 0.40738547 0.59296286 2.2917363e-38
-2.686388 0.39290029 0.59336358 1.9592239e-38
-2.6760986 0.38157547 0.59392059 1.9128755e-38
-2.6698749 0.36838052 0.59438175 1.7566856e-38
-2.6606128 0.34032282 0.59523296 2.2249329e-38
-2.5881689 0.21287845 0.60008872 1.2152521e-38
-2.5821829 0.1995873 0.60054398 1.3349973e-38
-2.5754616 0.18659329 0.60101742 1.5562658e-38
-2.5711551 0.17237394 0.6014362 1.3443973e-38
-2.7689004 0.56401384 0.58732456 1.7397535e-38
-2.7393939 0.5130977 0.58928287 1.6664311e-38
-2.7333627 0.49796271 0.5897758 1.7677024e-38
-2.7222481 0.48541304 0.59038359 1.8873048e-38
-2.6926363 0.42158204 0.59259826 2.3196475e-38
-2.6826663 0.40674627 0.59321356 2.2637179e-38
-2.6739442 0.39891633 0.593651 2.2357355e-38
-2.675329 0.38762543 0.59382713 1.9128755e-38
-2.6478832 0.33013761 0.59584701 2.179267e-38
-2.5915475 0.2275245 0.59969175 1.0221812e-38
-2.6957736 0.43646544 0.59220451 2.3476668e-38
-2.5960236 0.24112491 0.59927952 8.0084151e-39
-2.773623 0.52907741 0.58785522 1.6385929e-38
-2.7685788 0.51501381 0.58829498 1.7031299e-38
-2.6998224 0.38609076 0.5930596 1.9592239e-38
-2.7624054 0.51790106 0.58843946 1.5745233e-38
-2.7587514 0.50366729 0.58883727 1.7672355e-38
-2.7519205 0.49071774 0.58931339 1.7859264e-38
-2.746103 0.47735864 0.5897646 1.822732e-38
-2.7225327 0.44185504 0.59122753 2.1176146e-38
-2.7012327 0.39619875 0.59281564 1.9592239e-38
-2.6889625 0.37504074 0.59362972 1.7192663e-38
-2.6822941 0.36192492 0.59410375 1.6455113e-38
-2.6758416 0.34873658 0.59457225 2.3182073e-38
-2.6649058 0.32606649 0.5953725 2.2341156e-38
-2.5974956 0.19425946 0.60014969 1.9424785e-38
-2.588578 0.1779592 0.60075939 1.6389183e-38
-2.5831764 0.1661583 0.60116649 1.850572e-38
-2.5760524 0.15532972 0.6016106 1.3811683e-38
-2.5667293 0.14138487 0.60218734 1.2708942e-38
-2.7507958 0.5081836 0.58900791 1.7400079e-38
-2.7388139 0.48282328 0.58989483 1.9703882e-38
-2.7194753 0.44085565 0.59134674 2.3477743e-38
-2.7134757 0.42732769 0.59180707 2.1912599e-38
-2.7004163 0.40456504 0.59267831 2.1899974e-38
-2.686147 0.3923454 0.59338236 1.8485552e-38
-2.7812645 0.50891131 0.58800137 1.7582676e-38
-2.7745001 0.49283624 0.58853662 1.8044366e-38
-2.7655962 0.48153773 0.58904785 1.832023e-38
-2.7199981 0.39387417 0.59225005 2.0521032e-38
-2.7111704 0.37777391 0.59285295 1.9502564e-38
-2.7056947 0.36640024 0.59325403 2.262818e-38
-2.7707906 0.49719477 0.58857203 1.7674873e-38
-2.7505548 0.4582423 0.58999407 1.8870891e-38
-2.7415862 0.44456923 0.59055394 2.0900987e-38
-2.7376862 0.43164667 0.59093416 2.2557246e-38
-2.7216389 0.40695697 0.5919404 2.1724254e-38
-2.7153981 0.39277792 0.59242135 2.1431456e-38
-2.6973097 0.35407895 0.59376848 2.327355e-38
-2.6802168 0.32970911 0.59480256 2.2158573e-38
-2.6619685 0.29108578 0.59615338 1.7468166e-38
-2.5933712 0.16099741 0.60093558 1.6477071e-38
-2.5862815 0.14758632 0.60142922 1.1421807e-38
-2.5801737 0.13434449 0.60188746 9.6733315e-39
-2.5738344 0.12058383 0.60236347 1.2981899e-38
-2.5664864 0.10799234 0.60284942 1.5739464e-38
-2.765156 0.51594263 0.58838826 1.7400079e-38
-2.7572231 0.48729128 0.58920789 1.8783005e-38
-2.7252786 0.42132708 0.59154028 2.0809508e-38
-2.7173989 0.40977612 0.59202319 2.1534814e-38
-2.6491804 0.27724209 0.59684098 2.2068196e-38
-2.590657 0.16152851 0.6010136 2.1820065e-38
-2.7789085 0.47715113 0.58870035 1.8319871e-38
-2.7713976 0.46392214 0.58920407 1.8871247e-38
-2.7436628 0.41229001 0.59111869 2.1726424e-38
-2.7389636 0.4002085 0.59150839 2.1258948e-38
-2.7348814 0.38441807 0.59195065 2.1070233e-38
-2.7270911 0.37185633 0.59245044 1.6551256e-38
-2.719316 0.35921741 0.59295118 2.143469e-38
-2.7110429 0.34718657 0.59345627 2.3464772e-38
-2.5982549 0.12455715 0.60149044 1.711916e-38
-2.7559936 0.43872711 0.59019923 2.1083586e-38
-2.7490082 0.42583993 0.59067917 2.163711e-38
-2.7355483 0.416271 0.59130496 2.1726424e-38
-2.6749337 0.28222409 0.59590477 1.8756732e-38
-2.6652398 0.27117151 0.59643692 2.1976359e-38
-2.6465106 0.2316353 0.59782135 1.5907689e-38
-2.5971489 0.14158756 0.60119283 2.1725367e-38
-2.5919814 0.12864645 0.60161459 1.5743075e-38
-2.5880642 0.11383831 0.60203224 1.5649076e-38
-2.5787773 0.098794281 0.60262936 1.3348158e-38
-2.5704651 0.089530535 0.60308158 1.5832756e-38
-2.5669663 0.074983962 0.60348046 1.6935489e-38
-2.6560369 0.25906628 0.59697378 2.1883085e-38
-2.6464827 0.24769153 0.59750777 2.1699053e-38
-2.7540364 0.39078024 0.5912022 1.8396592e-38
-2.7481353 0.37745467 0.59165549 2.1159192e-38
-2.7406421 0.36477298 0.59214795 1.6643452e-38
-2.7626154 0.41873378 0.5903753 2.1727505e-38
-2.7576206 0.40632778 0.59078097 2.1812482e-38
-2.733206 0.35206786 0.59263897 2.3464772e-38
-2.6972811 0.28789449 0.59506595 2.0049252e-38
-2.6637957 0.2249267 0.59738994 1.5548634e-38
-2.6589458 0.21156859 0.59780949 2.3388459e-38
-2.646693 0.198884 0.59845704 2.3205144e-38
-2.645334 0.18398504 0.59879315 2.246759e-38
-2.5809615 0.067971118 0.60316205 1.6293002e-38
-2.7820792 0.45799848 0.58897227 1.8870891e-38
-2.7735822 0.44572225 0.5894894 2.3480608e-38
-2.7677498 0.43236914 0.58994102 2.1362321e-38
-2.6928861 0.28873086 0.59519267 2.2161818e-38
-2.6869526 0.27621198 0.59563118 2.2068915e-38
-2.6784594 0.26440886 0.59613895 2.1242764e-38
-2.6699386 0.25195566 0.59666038 2.1882722e-38
-2.6658304 0.23992901 0.59702981 1.9864521e-38
-2.6510699 0.21327461 0.59803259 2.3385233e-38
-2.5916193 0.095431805 0.6022771 1.454742e-38
-2.5848565 0.083150223 0.6027379 1.5923507e-38
-2.570322 0.055992942 0.6037432 1.5371426e-38
-2.5633638 0.043662909 0.60421139 9.9412625e-39
-2.5576024 0.030620208 0.60465449 1.3716956e-38
-2.7819288 0.4091827 0.58993351 2.1260024e-38
-2.7765677 0.39553845 0.59037536 2.3375815e-38
-2.7671623 0.38386846 0.5909102 1.6735645e-38
-2.7602518 0.37095109 0.59138829 1.6549104e-38
-2.7528677 0.35822508 0.591878 1.618176e-38
-2.7834411 0.42448005 0.58958459 2.1633859e-38
-2.7712061 0.41436863 0.59018105 1.9600168e-38
-2.7222099 0.30370447 0.59394443 2.2813289e-38
-2.7152455 0.29418981 0.59435761 2.2720372e-38
-2.7005293 0.26940581 0.59532237 2.2254025e-38
-2.6819844 0.2288857 0.59672004 2.060532e-38
-2.6767612 0.21617042 0.59713924 2.0609275e-38
-2.6704695 0.20300281 0.59760207 2.3298781e-38
-2.6654694 0.19711563 0.59788024 2.2834929e-38
-2.6541305 0.17818578 0.5986203 2.1820063e-38
-2.5949235 0.061125934 0.60284156 2.0981273e-38
-2.5729034 0.022490162 0.60431546 2.2537796e-38
-2.5621772 -0.0048243334 0.60519981 1.4545625e-38
-2.7645419 0.40096533 0.59066063 1.9971826e-38
-2.704535 0.28367525 0.59491241 2.2161824e-38
-2.6905594 0.257725 0.59587586 1.9771967e-38
-2.6837575 0.24490069 0.59634858 2.2162562e-38
-2.6454532 0.16598241 0.59914196 2.1364482e-38
-2.5821707 0.047323775 0.60352719 1.8498128e-38
-2.5750606 0.035442598 0.60399151 1.3523192e-38
-2.564872 0.010025781 0.60482115 1.3894143e-38
-2.5134954 -0.078830339 0.60823488 1.0306802e-38
-2.7811995 0.37936085 0.59054142 1.710515e-38
-2.7652178 0.35162687 0.59160513 2.3461895e-38
-2.7307906 0.28698933 0.59399247 2.2626738e-38
-2.6974301 0.22192034 0.59635347 1.9410383e-38
-2.6838882 0.19597277 0.59730279 2.3297339e-38
-2.6591523 0.13944511 0.59921575 1.5005131e-38
-2.6490605 0.12400134 0.5998469 1.7122009e-38
-2.7577937 0.34581998 0.59196067 2.015334e-38
-2.7460668 0.31160632 0.59301275 2.2441639e-38
-2.7372229 0.30383691 0.59345293 2.2905486e-38
-2.719764 0.27427933 0.5946005 2.051023e-38
-2.7119606 0.26317909 0.59507209 2.2346222e-38
-2.7017093 0.23638329 0.59593081 1.7196979e-38
-2.6896856 0.20934014 0.59685218 2.3477427e-38
-2.6762822 0.18461195 0.59777313 2.2650182e-38
-2.6690273 0.17031592 0.59828937 2.1823302e-38
-2.6588616 0.15895659 0.59884292 2.163676e-38
-2.6518881 0.14606458 0.59932256 2.0989234e-38
-2.6466916 0.13197982 0.59976768 1.8224053e-38
-2.645767 0.11640279 0.60010296 1.9698811e-38
-2.5851583 0.01593052 0.60404491 2.2720024e-38
-2.5754917 -0.0084696719 0.60483766 1.0680977e-38
-2.5665581 -0.023463817 0.60542232 1.5009846e-38
-2.5609477 -0.037336677 0.6058768 1.5282829e-38
-2.7050364 0.25026724 0.59555054 2.2161478e-38
-2.6412358 0.13465969 0.59989285 2.1080686e-38
-2.5870659 0.031092549 0.60368574 2.3097437e-38
-2.5768135 0.003592849 0.60455835 9.6610813e-39
-2.7563391 0.30647758 0.59277874 2.2441639e-38
-2.744983 0.27964723 0.59367412 2.1070246e-38
-2.7214644 0.23424758 0.5953294 1.5456791e-38
-2.7159717 0.22892167 0.59561265 1.5456791e-38
-2.7124131 0.21577676 0.59598595 2.246326e-38
-2.7042942 0.20182903 0.59652364 2.3482094e-38
-2.6914613 0.17553833 0.59745657 2.2561223e-38
-2.6744215 0.14342836 0.59864044 1.5925292e-38
-2.6624577 0.12710872 0.59934974 1.7215642e-38
-2.6482446 0.098799281 0.60036713 2.0527136e-38
-2.5915129 -0.019864477 0.60453922 1.6852677e-38
-2.5813084 -0.03125149 0.60509455 1.620694e-38
-2.5689394 -0.074141398 0.60633755 1.1314103e-38
-2.7609308 0.31773552 0.59240866 2.225725e-38
-2.7491255 0.29368272 0.59326428 2.2534543e-38
-2.7325189 0.26527759 0.59436154 2.0141456e-38
-2.7238815 0.25675461 0.59480977 2.2160399e-38
-2.718257 0.24331722 0.59525615 2.2162562e-38
-2.7131844 0.22894107 0.59570301 2.1064491e-38
-2.6934662 0.19049521 0.59709817 2.2742017e-38
-2.6798353 0.16330197 0.59807479 2.2467235e-38
-2.6705661 0.15261932 0.5985859 2.2004104e-38
-2.6647491 0.142841 0.5989669 1.8503182e-38
-2.6614323 0.12489026 0.59942663 1.8687184e-38
-2.654294 0.11206464 0.59991032 1.9698811e-38
-2.5912039 -0.0053272126 0.60426444 1.3906015e-38
-2.5741069 -0.044051364 0.60557979 1.5008047e-38
-2.5671687 -0.056957416 0.60605854 1.6934776e-38
-2.5574417 -0.068536751 0.60660213 1.5917023e-38
-2.5857162 -0.0021684114 0.60438132 1.2890428e-38
-2.7342334 0.21954276 0.59520167 2.0979111e-38
-2.7269328 0.20678294 0.5956893 2.3483896e-38
-2.6834006 0.11932738 0.59882015 1.5002235e-38
-2.7771094 0.31288621 0.59197688 2.3465135e-38
-2.7687192 0.29986724 0.5925051 2.244235e-38
-2.7615631 0.28704926 0.59298921 2.2255443e-38
-2.7555721 0.27376026 0.59344465 2.2255806e-38
-2.7371099 0.23307425 0.59484285 1.9326103e-38
-2.7172985 0.19388543 0.59625572 2.3112951e-38
-2.7082601 0.18319967 0.59675938 2.3113311e-38
-2.6963398 0.15631244 0.59767425 2.2558352e-38
-2.6765544 0.11938381 0.599042 1.887049e-38
-2.6675708 0.10509206 0.5996145 1.9604094e-38
-2.6610763 0.092006497 0.6000824 2.0709015e-38
-2.6535628 0.079332739 0.60057533 2.2914112e-38
-2.6467843 0.06636218 0.60105014 2.2829477e-38
-2.6407428 0.053093415 0.60150683 2.2546424e-38
-2.5871191 -0.050917052 0.60529065 1.2061402e-38
-2.5819113 -0.063284084 0.60570246 1.7850972e-38
-2.5769281 -0.078219034 0.60615724 1.1314103e-38
-2.5684752 -0.090503067 0.60667318 1.480888e-38
-2.5629244 -0.10397997 0.60711795 1.4262912e-38
-2.5550842 -0.1165075 0.60761869 1.3260653e-38
-2.7449903 0.26183653 0.59402281 2.0046382e-38
-2.7309146 0.2355797 0.5949955 2.1430032e-38
-2.508604 -0.1918468 0.61060816 9.94308e-39
-2.7686071 0.24854104 0.5935142 1.5637218e-38
-2.7589681 0.23972622 0.59400082 1.5361713e-38
-2.7532854 0.22604772 0.59445375 2.309383e-38
-2.739238 0.20020291 0.5954175 2.3207302e-38
-2.699966 0.12181893 0.59823191 1.2151385e-38
-2.5832417 -0.098087855 0.60634089 1.4903238e-38
-2.7822022 0.29123905 0.59223503 2.3094563e-38
-2.777858 0.27849233 0.59262621 2.1983905e-38
-2.7676201 0.26728424 0.59317917 2.2163613e-38
-2.7614899 0.25405139 0.59363806 2.1978519e-38
-2.7299497 0.18824664 0.59595424 2.3204791e-38
-2.7236257 0.17509235 0.59641784 2.2746689e-38
-2.7175939 0.1618197 0.5968743 2.3112243e-38
-2.7094646 0.14910068 0.59738815 1.8134751e-38
-2.6942136 0.12553014 0.59834659 1.8410949e-38
-2.6869831 0.1113501 0.59885979 2.0159792e-38
-2.6816492 0.099439383 0.59926677 2.2089054e-38
-2.6746893 0.084901199 0.59977823 2.1906821e-38
-2.6677179 0.072109796 0.60025585 2.2275235e-38
-2.6608567 0.059135038 0.6007334 2.3197909e-38
-2.6523101 0.047181387 0.60124594 2.2268045e-38
-2.6499081 0.032071862 0.60162014 2.2175855e-38
-2.6432045 0.019070998 0.60209316 2.1987498e-38
-2.588876 -0.084654652 0.60589427 2.34601e-38
-2.5753794 -0.11062055 0.60684246 1.4449464e-38
-2.5694773 -0.12394558 0.60729569 1.1236322e-38
-2.5598595 -0.13607778 0.60784662 1.1236315e-38
-2.5524845 -0.14849839 0.60833001 1.1604025e-38
-2.5096316 -0.22544102 0.61123282 5.5209296e-39
-2.7797143 0.24507882 0.59322041 1.7664078e-38
-2.7746649 0.23140913 0.59365255 1.5179126e-38
-2.7680354 0.21837817 0.59412372 2.3482078e-38
-2.7576427 0.20358813 0.59475189 2.3484243e-38
-2.754257 0.1921647 0.59508592 2.3113668e-38
-2.7445619 0.18073417 0.59562558 2.3022195e-38
-2.7367513 0.16818067 0.59612584 2.2561944e-38
-2.7296188 0.15535296 0.59660941 2.3480307e-38
-2.7140727 0.1141291 0.59792316 1.3254501e-38
-2.6965032 0.090185151 0.59896439 2.2091566e-38
-2.6895571 0.077282161 0.59944332 2.3010993e-38
-2.6698146 0.038130127 0.60085326 2.2542473e-38
-2.6623836 0.025423111 0.60134417 2.0331944e-38
-2.5827734 -0.13092604 0.60699946 1.1235963e-38
-2.575218 -0.14358276 0.6074934 1.0961891e-38
-2.5736811 -0.15908118 0.60784709 9.0167951e-39
-2.7842259 0.26681066 0.59264767 2.1711647e-38
-2.7038941 0.11901546 0.5981589 7.8243448e-39
-2.6991501 0.10504331 0.59858716 2.1904667e-38
-2.6819074 0.064663514 0.5999397 2.2550742e-38
-2.6753182 0.051616184 0.60040987 2.2362399e-38
-2.6553128 0.012570598 0.60182619 2.1802381e-38
-2.645731 -0.00056416343 0.60239553 1.7120951e-38
-2.6380577 -0.011591208 0.6028614 1.1234501e-38
-2.5654354 -0.15526748 0.60804093 1.0962612e-38
-2.5570161 -0.16888033 0.60858172 1.1233785e-38
-2.5519893 -0.18343368 0.60903049 1.1965232e-38
-2.6422188 0.0030733803 0.60243863 2.2102398e-38
-2.7355411 0.11993158 0.59711045 1.8779025e-38
-2.7317221 0.11211046 0.59738803 1.9141696e-38
-2.7792804 0.21222661 0.59387809 2.3487483e-38
-2.7723672 0.19931044 0.59435618 2.3484965e-38
-2.7667246 0.18588033 0.59480304 2.3483883e-38
-2.7604649 0.17950228 0.59513187 2.3115103e-38
-2.7246459 0.10904519 0.59767854 1.8776852e-38
-2.7163138 0.096426554 0.59819704 2.0894459e-38
-2.7087774 0.083968505 0.59868652 2.1541627e-38
-2.7039056 0.070084639 0.5991171 2.2737652e-38
-2.6977587 0.056530941 0.59958285 2.3009922e-38
-2.6903024 0.044047374 0.60007012 2.217621e-38
-2.6831181 0.031146536 0.60055685 2.1987854e-38
-2.6757662 0.01840763 0.60104573 1.986809e-38
-2.6575377 -0.020968134 0.60241073 2.1741531e-38
-2.6487257 -0.033247955 0.60293829 1.9890063e-38
-2.6435752 -0.04718497 0.60337901 2.1819677e-38
-2.587909 -0.15363012 0.60727698 9.0167951e-39
-2.5841503 -0.16641042 0.60764974 1.0583388e-38
-2.739826 0.14962082 0.59638929 2.0899197e-38
-2.7277236 0.12309144 0.59730315 1.1598944e-38
-2.6661153 0.0075666951 0.60157245 2.3094916e-38
-2.6581798 -0.0031646048 0.60204101 1.354155e-38
-2.5844374 -0.14961831 0.60731149 1.9342658e-38
-2.5756629 -0.16537026 0.60790575 1.0962607e-38
-2.5673883 -0.17433493 0.60835081 1.0774609e-38
-2.566123 -0.18864474 0.60867238 1.0678807e-38
-2.5580068 -0.19722141 0.60910469 3.683512e-39
-2.5651577 -0.17221828 0.60838199 2.8541171e-39
-2.5580616 -0.1858594 0.60888028 2.2101924e-39
-2.7526569 0.11400799 0.59666908 1.6381569e-38
-2.7781091 0.16349237 0.59487092 2.2746678e-38
-2.7520344 0.12736948 0.59642756 1.5471125e-38
-2.7411301 0.10269502 0.59726608 1.9422215e-38
-2.7343774 0.088074297 0.59777242 2.1448342e-38
-2.7207484 0.06155343 0.59873575 2.1356519e-38
-2.7139935 0.048492976 0.59921157 2.2271998e-38
-2.7059517 0.035517879 0.59972763 2.1714151e-38
-2.6510129 -0.067457221 0.60353392 2.2734776e-38
-2.6488004 -0.08263997 0.60390341 2.015259e-38
-2.6383746 -0.093769968 0.60446101 2.2081482e-38
-2.7686608 0.16650428 0.5951196 2.3389181e-38
-2.7413828 0.11934307 0.5969317 1.7581911e-38
-2.7241032 0.075816631 0.59834713 2.2093721e-38
-2.6979227 0.029225806 0.60011232 2.2450639e-38
-2.6873462 0.012120728 0.60079181 2.3093109e-38
-2.6764264 -0.015183314 0.60168236 1.6856616e-38
-2.6665521 -0.0266062 0.60222769 2.3489292e-38
-2.6579542 -0.038483672 0.60274035 2.2929259e-38
-2.6550529 -0.054334722 0.60314536 2.1724958e-38
-2.5516908 -0.24726003 0.61029059 9.2047961e-39
-2.7356172 0.11617228 0.59718156 7.3626604e-39
-2.6792603 -0.00032157678 0.60129893 2.3099597e-38
-2.5602376 -0.21929337 0.60946441 2.3927844e-39
-2.555835 -0.23181865 0.60985315 1.0496606e-38
-2.7723176 0.11740846 0.59596229 1.7303176e-38
-2.7623391 0.10588733 0.59651291 1.8317668e-38
-2.7288845 0.040856566 0.5988763 2.2822651e-38
-2.7539268 0.097218215 0.59695667 2.0437442e-38
-2.7456055 0.080945268 0.5975464 2.1544147e-38
-2.7381494 0.068862848 0.59802598 2.1266845e-38
-2.7352872 0.053979304 0.59841067 2.2089043e-38
-2.7188935 0.027273899 0.59946769 2.125785e-38
-2.7108772 0.00032501569 0.60025668 2.135654e-38
-2.6899436 -0.021956712 0.6013748 2.1187994e-38
-2.67939 -0.049176671 0.60225177 2.1173945e-38
-2.6719563 -0.06453041 0.60279453 2.1355805e-38
-2.6646476 -0.074427515 0.60322648 2.0616801e-38
-2.6604254 -0.090228416 0.60367346 1.4904663e-38
-2.6497991 -0.099993937 0.60421091 2.0703966e-38
-2.6431024 -0.11804438 0.60478252 2.2819812e-38
-2.7599595 0.12273843 0.59626025 1.7767372e-38
-2.7054436 0.01927105 0.60006243 2.0698208e-38
-2.7006097 0.0049694064 0.60050005 2.1630239e-38
-2.6923583 -0.0093814079 0.60104984 2.1002525e-38
-2.6803794 -0.032292712 0.60188878 2.2838512e-38
-2.673769 -0.048254386 0.60241675 2.117575e-38
-2.6401861 -0.11181651 0.60475552 2.2840676e-38
-2.5799248 -0.21314658 0.6087029 2.4853444e-39
-2.5671628 -0.23933499 0.60963154 1.6584507e-39
-2.5589721 -0.2516093 0.61013865 5.7957242e-39
-2.5525465 -0.26492274 0.61060876 1.5669852e-39
-2.7758632 0.096900038 0.59624851 2.0527121e-38
-2.7678695 0.086335383 0.59671581 2.1545223e-38
-2.7617977 0.07307899 0.59717321 2.27416e-38
-2.7560484 0.058113806 0.59765363 2.1354001e-38
-2.749084 0.046954438 0.59809905 2.1538389e-38
-2.7410488 0.032647915 0.59864098 2.1442242e-38
-2.6940536 -0.056645401 0.60192055 2.1173945e-38
-2.6803339 -0.082521029 0.60287422 2.1169615e-38
-2.7589624 0.090731464 0.59691972 2.1545223e-38
-2.7325954 0.022039834 0.59912407 2.1621958e-38
-2.7235098 0.010261214 0.59965062 2.2178375e-38
-2.7195799 -0.0041205003 0.60006034 2.135654e-38
-2.7117631 -0.015025058 0.60052854 2.0815613e-38
-2.7044759 -0.029082701 0.6010412 2.2568401e-38
-2.699019 -0.046377227 0.60155773 2.2004061e-38
-2.6861398 -0.069157235 0.60242337 2.2186638e-38
-2.6724851 -0.093185887 0.60333878 1.5272002e-38
-2.7196994 0.01148342 0.59975082 2.024083e-38
-2.7107661 -0.00504837 0.60036552 1.8677106e-38
-2.7016203 -0.022704713 0.60100931 2.3488945e-38
-2.6914487 -0.039643839 0.60167235 2.2193132e-38
-2.6613295 -0.10626072 0.60395813 2.2832735e-38
-2.5583725 -0.30285767 0.61116219 7.2784129e-39
-2.5528722 -0.31379247 0.61155546 9.6744133e-39
-2.5720785 -0.25871313 0.60985106 1.2914773e-39
-2.5651736 -0.27163279 0.61032897 1.5669852e-39
-2.5595679 -0.28601143 0.61079323 2.1169164e-39
-2.774616 0.050324637 0.59720159 2.116817e-38
-2.7654827 0.038561877 0.59772938 2.1718108e-38
-2.7621689 0.023831729 0.59812587 2.1534435e-38
-2.7751081 0.065377429 0.59689063 2.1540909e-38
-2.7516866 0.020614702 0.59853029 2.236635e-38
-2.7458994 0.01505615 0.5988276 2.1074177e-38
-2.707725 -0.065415464 0.6016472 2.0341302e-38
-2.7002654 -0.076314859 0.60210359 1.9691615e-38
-2.6925986 -0.08868964 0.60259569 2.0331577e-38
-2.6884699 -0.099551879 0.60294288 1.9042653e-38
-2.7379329 0.0025655904 0.59933174 2.1911154e-38
-2.7289264 -0.013083951 0.5999316 2.0722337e-38
-2.7243614 -0.023603622 0.6002863 2.2663492e-38
-2.7175276 -0.03408955 0.60071427 2.2013781e-38
-2.7108145 -0.049315635 0.60123116 2.2834178e-38
-2.6799929 -0.1058943 0.60334319 2.134684e-38
-2.6735013 -0.11278668 0.60368961 1.9132351e-38
-2.5532746 -0.34989101 0.61224955 9.4860451e-39
-2.5460918 -0.35944775 0.61267066 1.0684224e-38
-2.7126393 -0.017922502 0.60055673 2.3495065e-38
-2.5748203 -0.29284886 0.61043048 2.2083903e-39
-2.5720158 -0.30426899 0.61074555 9.5843728e-39
-2.5649569 -0.32028332 0.61128914 9.6729685e-39
-2.5586016 -0.33342516 0.61175352 9.6689986e-39
-2.7729864 0.018211976 0.59788376 2.162591e-38
-2.7645743 0.0054587168 0.59840745 2.0345982e-38
-2.7195559 -0.086069338 0.60166651 2.0796516e-38
-2.7094777 -0.097513512 0.60221887 1.8673876e-38
-2.7560189 0.009929941 0.59859854 2.3107883e-38
-2.7545676 -0.003977356 0.5989182 1.7398627e-38
-2.7457685 -0.017918404 0.59947783 2.1557852e-38
-2.7415428 -0.032225523 0.59989572 2.1554606e-38
-2.7349873 -0.045369223 0.60036665 2.2470432e-38
-2.7266862 -0.060000136 0.60092366 2.1539481e-38
-2.7212598 -0.070854574 0.60131294 1.9142763e-38
-2.7030842 -0.10275055 0.60252964 1.9228482e-38
-2.7392995 -0.015303588 0.59963727 1.8677106e-38
-2.6896527 -0.10454539 0.60300219 5.8875317e-39
-2.6869204 -0.12205381 0.60343421 0
-2.5651786 -0.35340044 0.61193067 4.8780811e-39
-2.5625696 -0.36475143 0.61223799 1.0868624e-38
-2.5811212 -0.31262535 0.61061269 2.3031055e-39
-2.5679235 -0.3388958 0.61155707 4.1441202e-39
-2.768369 -0.012948981 0.5986445 1.6853016e-38
-2.7505803 -0.052919563 0.60000682 2.0627609e-38
-2.7368922 -0.077520043 0.60093451 1.9783811e-38
-2.7312002 -0.092189193 0.60140717 2.0428097e-38
-2.7222106 -0.10511459 0.60195309 1.9417203e-38
-2.7583587 -0.025015296 0.59920692 2.0175643e-38
-2.7536821 -0.038433868 0.59962207 2.1185817e-38
-2.7402194 -0.064413436 0.60056937 2.3014962e-38
-2.7158804 -0.10758077 0.60220754 2.1534465e-38
-2.5787237 -0.36058816 0.61163038 8.6548537e-39
-2.752187 -0.08656776 0.60061365 1.9325721e-38
-2.7675986 -0.045665044 0.59931052 2.1458442e-38
-2.7608495 -0.05864777 0.59978461 2.2647981e-38
-2.7556643 -0.074685961 0.60026771 2.1541633e-38
-2.7429116 -0.098529205 0.6011501 8.6451077e-39
-2.7357268 -0.11269902 0.60166156 1.8221549e-38
-2.7683468 -0.029886473 0.59897709 2.13749e-38
-2.728652 -0.10526721 0.60174644 1.9228482e-38
-2.7199745 -0.12311824 0.60237861 1.0952532e-38
-2.7715814 -0.082491368 0.59990221 2.1445114e-38
-2.7644691 -0.094848216 0.60037595 2.0335903e-38
-2.7571137 -0.1058759 0.60083145 1.9506513e-38
-2.7514393 -0.10990191 0.60109514 2.1167838e-38
-2.7446866 -0.11103694 0.60133725 2.1625222e-38
-2.7639749 -0.10785981 0.60064685 1.9322122e-38
-2.7608185 -0.10895371 0.60077113 1.9228113e-38
-2.6155589 0.56075925 0.59238178 1.4079262e-38
-2.6262615 0.55642444 0.59211814 1.4172169e-38
-2.613179 0.53154635 0.59303153 1.7674129e-38
-2.6202803 0.55838251 0.59227455 1.1870174e-38
-2.6168828 0.54404521 0.59266609 1.6014985e-38
-2.6164763 0.56254709 0.59231693 1.1870174e-38
-2.6503389 0.562186 0.59122121 1.3710464e-38
-2.6278679 0.51464039 0.59288436 1.7395761e-38
-2.6196489 0.49381667 0.59356004 1.9607712e-38
-2.6114776 0.4810923 0.59407538 1.7767418e-38
-2.6461859 0.56426036 0.59131593 1.6291183e-38
-2.6370075 0.55001521 0.59189379 1.5554371e-38
-2.6243823 0.5229755 0.59283465 1.7858516e-38
-2.6117389 0.49631065 0.59376872 1.8965592e-38
-2.6411903 0.5639137 0.59148538 1.2793914e-38
-2.6266115 0.53818083 0.59246415 1.4174685e-38
-2.6377552 0.5174039 0.59250832 2.0618235e-38
-2.6378539 0.50093502 0.59282774 1.7212086e-38
-2.6315916 0.49229509 0.59320086 1.7583385e-38
-2.6149836 0.46304733 0.59431469 1.3533648e-38
-2.610033 0.45198691 0.59469259 1.960737e-38
-2.6496906 0.54166877 0.59164429 1.8686461e-38
-2.6443624 0.52717328 0.59210175 1.8502446e-38
-2.6317768 0.5037393 0.59297073 2.1449446e-38
-2.6251225 0.49222434 0.59341294 2.2185569e-38
-2.6194346 0.47695878 0.59389722 2.2830208e-38
-2.6503568 0.49407792 0.59255493 1.8321662e-38
-2.6425886 0.48399118 0.59300542 1.8502462e-38
-2.6164672 0.43024525 0.59490895 2.034601e-38
-2.6262009 0.4238795 0.59471673 2.2556523e-38
-2.6201322 0.410671 0.59517306 2.062007e-38
-2.6109152 0.39902073 0.59570146 1.8773296e-38
-2.60695 0.38451052 0.59611487 1.9046288e-38
-2.6292343 0.43851781 0.59433115 2.3292631e-38
-2.617775 0.42541349 0.59496105 1.6940172e-38
-2.6449029 0.43116856 0.59396493 1.8776183e-38
-2.6395941 0.40079907 0.5947327 1.8491669e-38
-2.6282952 0.39000556 0.59531212 2.0426687e-38
-2.6166785 0.3631371 0.59621674 1.5542156e-38
-2.6400788 0.43308181 0.5940845 2.3477748e-38
-2.6385224 0.4173058 0.59444422 2.0897032e-38
-2.6294162 0.40174899 0.59504557 2.1905758e-38
-2.6205804 0.38243407 0.59571171 1.8587116e-38
-2.6141047 0.3699325 0.59616739 1.4447697e-38
-2.6410596 0.43119934 0.59408945 2.3201519e-38
-2.6342666 0.41494694 0.59462905 2.3477385e-38
-2.615268 0.37956044 0.59594089 2.337226e-38
-2.6462052 0.39046878 0.59471983 1.8208963e-38
-2.6406853 0.38339132 0.59503818 2.0151544e-38
-2.6361787 0.36704931 0.59550506 1.6459066e-38
-2.6309667 0.35589835 0.59589326 1.6180681e-38
-2.6245477 0.34278229 0.59635925 1.6370107e-38
-2.638608 0.40064541 0.59476781 2.2360237e-38
-2.6306944 0.37500498 0.59552777 2.2075029e-38
-2.6261151 0.32483187 0.59665984 2.234657e-38
-2.6420085 0.36403346 0.59537435 2.0966516e-38
-2.6164629 0.28022075 0.59784806 2.2346586e-38
-2.6254187 0.30942878 0.59698421 2.2437323e-38
-2.6094983 0.26709962 0.59833187 2.244022e-38
-2.6028275 0.25408536 0.59880412 2.2350196e-38
-2.6085477 0.21703798 0.5993436 1.8220857e-38
-2.6028728 0.20532838 0.59975779 2.0898113e-38
-2.6373456 0.28208029 0.59713161 2.216039e-38
-2.6299407 0.27294135 0.59755176 2.2532418e-38
-2.6152344 0.24746436 0.59852976 2.244131e-38
-2.6101043 0.2325318 0.59898931 1.9043059e-38
-2.6208417 0.2609084 0.59808379 2.2351997e-38
-2.603883 0.17189313 0.60037982 1.9518423e-38
-2.6325786 0.23884752 0.59813374 2.1791968e-38
-2.6287837 0.22255501 0.59857649 1.8034305e-38
-2.6151636 0.20228228 0.59941721 2.3479222e-38
-2.610091 0.18800686 0.59986204 1.5740574e-38
-2.6285548 0.24276981 0.59818798 2.1791968e-38
-2.6230161 0.22841942 0.59864944 1.93135e-38
-2.6431394 0.21457157 0.59826547 2.0617571e-38
-2.6323762 0.19068214 0.59908396 2.2833131e-38
-2.6227934 0.1783538 0.59963745 2.2097368e-38
-2.6181698 0.16620821 0.60002601 2.2835299e-38
-2.6111622 0.15161622 0.60053998 2.0990663e-38
-2.6331887 0.2054892 0.5987674 2.3386669e-38
-2.6210637 0.19547726 0.59935838 2.3111506e-38
-2.6139033 0.16215952 0.60024428 2.2097738e-38
-2.6088386 0.15219247 0.60060441 2.2739871e-38
-2.6010494 0.10698344 0.6017437 1.3627263e-38
-2.6336946 0.17234142 0.59940028 2.1637832e-38
-2.6260068 0.16074637 0.59987777 2.2281051e-38
-2.6189706 0.14878231 0.60034132 2.2096305e-38
-2.6103215 0.13465698 0.60089958 2.1909407e-38
-2.6025505 0.11708243 0.60149699 1.3627263e-38
-2.6019218 0.12234171 0.60141444 2.1636009e-38
-2.6403913 0.1396808 0.59982198 1.5833098e-38
-2.606966 0.087275103 0.60193712 1.57438e-38
-2.5992763 0.074672617 0.6024344 2.2828054e-38
-2.6385219 0.1530735 0.59962058 2.2373605e-38
-2.6308529 0.1404628 0.60011727 2.0530425e-38
-2.6226876 0.12743045 0.60063845 2.0898088e-38
-2.6198599 0.11305455 0.60101223 2.0709374e-38
-2.6108787 0.10304988 0.60150069 2.0526074e-38
-2.6350965 0.10545882 0.60066491 2.0618254e-38
-2.6245935 0.094254524 0.60122633 2.2458196e-38
-2.6212804 0.079618409 0.60162091 2.2361677e-38
-2.6128581 0.067983314 0.60212314 2.2917009e-38
-2.6048098 0.055119187 0.60263729 2.2820855e-38
-2.5989864 0.025293721 0.6034112 2.07886e-38
-2.6349421 0.12175666 0.60035062 2.0527862e-38
-2.5951483 0.043313906 0.60318315 2.2637553e-38
-2.6181791 0.032178555 0.60265136 2.1437571e-38
-2.6369405 0.087991595 0.60094696 2.0983071e-38
-2.6342723 0.073025607 0.60132706 2.2272361e-38
-2.6272767 0.060142562 0.60180724 2.2734043e-38
-2.6174319 0.048675898 0.6023525 2.2175471e-38
-2.60835 0.036865994 0.60287952 2.0792926e-38
-2.6069946 0.021208584 0.60323048 2.07886e-38
-2.600807 0.0091301575 0.60366851 2.2904773e-38
-2.6359921 0.041219778 0.60189414 2.2450999e-38
-2.6287954 0.025033806 0.60244554 2.2725414e-38
-2.6083295 -0.011319952 0.6038242 1.9612058e-38
-2.6030471 -0.025933824 0.60428244 1.9891533e-38
-2.5981078 -0.037563842 0.60467112 1.6847626e-38
-2.6186652 0.014885243 0.60297424 2.2537795e-38
-2.6115286 0.00095089251 0.60347962 2.1910797e-38
-2.6001434 -0.017603641 0.60421389 2.1917652e-38
-2.5978658 -0.072577737 0.60536492 1.8218298e-38
-2.5980375 -0.089125544 0.60568351 2.0609257e-38
-2.6373789 0.012846543 0.60240483 2.1250289e-38
-2.6229403 -0.016965868 0.60345894 2.0169533e-38
-2.6163721 -0.032925949 0.60398555 1.7771029e-38
-2.6082828 -0.045367051 0.60449266 1.7489745e-38
-2.5999398 -0.057549305 0.605003 1.6662512e-38
-2.6286635 0.005625735 0.60283005 2.1536615e-38
-2.6197689 -0.0092494609 0.60341114 2.0810581e-38
-2.6103888 -0.014074371 0.60381109 2.0810581e-38
-2.6360571 -0.026778262 0.6032241 2.118332e-38
-2.6297054 -0.039921463 0.60368836 1.6664316e-38
-2.6175997 -0.065064371 0.60457516 2.0155478e-38
-2.6111391 -0.07942123 0.60506678 2.0428458e-38
-2.6038396 -0.094783105 0.60560536 2.1347556e-38
-2.592587 -0.11948971 0.60645586 1.3255261e-38
-2.6213105 -0.052238967 0.60420305 1.9059593e-38
-2.5949721 -0.10443558 0.60608321 2.0245154e-38
-2.6346862 -0.011044559 0.60296047 2.1178646e-38
-2.6327188 -0.074167117 0.6042611 1.9330034e-38
-2.6343324 -0.058745459 0.60390651 1.877832e-38
-2.6248376 -0.086692095 0.60476309 2.00586e-38
-2.6160097 -0.098357312 0.60527909 2.2362043e-38
-2.6070261 -0.11469542 0.6058917 1.8501377e-38
-2.6048782 -0.12575649 0.60617834 1.5275997e-38
-2.5962462 -0.13697635 0.60667926 8.2846251e-39
-2.6290257 -0.1217417 0.60531336 2.2819812e-38
-2.6287146 -0.10346285 0.60496545 2.1996506e-38
-2.6222751 -0.11890832 0.60547769 2.330309e-38
-2.6167686 -0.13018486 0.60587794 1.5282481e-38
-2.5891957 -0.17052235 0.607566 2.1828323e-38
-2.6242886 -0.13564999 0.60574007 1.9244697e-38
-2.5196106 0.13004456 0.60394388 1.2151079e-38
-2.5325949 0.59695756 0.59437436 8.9397209e-39
-2.5129969 -0.1117457 0.6088959 1.3717311e-38
-2.5092289 -0.25830579 0.61188966 4.4228679e-39
-2.5136411 -0.013292812 0.60694629 1.0218581e-38
-2.5151222 -0.046812303 0.60755467 7.7325471e-39
-2.5200408 0.099421568 0.6045298 1.1781931e-38
-2.5338016 0.58657247 0.59453851 1.0506686e-38
-2.5272181 0.34227368 0.59953862 9.1219555e-39
-2.5348914 0.66905659 0.59288716 4.7920035e-39
-2.5636206 1.16521 0.582232 4.4275608e-39
-2.5684645 1.196566 0.58146 2.6744033e-39
-2.5640512 1.1817344 0.58189428 3.6863931e-39
-2.5747881 1.1628897 0.58191383 1.8548147e-40
-2.5741556 1.1678151 0.58183795 9.2217294e-39
-2.5659547 1.1639097 0.58218145 5.8068926e-39
-2.5873139 1.1636838 0.58149034 1.2169832e-38
-2.5804677 1.1402023 0.58217329 1.0511745e-38
-2.5694447 1.1293474 0.5827449 1.2171628e-38
-2.5834982 1.1222187 0.58242691 1.1158918e-38
-2.5728819 1.1111194 0.58299005 1.1895771e-38
-2.569418 1.09877 0.58334476 1.0140805e-38
-2.5614271 1.0844463 0.58388561 8.5724013e-39
-2.5861392 1.0879204 0.58301276 7.3752959e-39
-2.5758965 1.0765532 0.58356905 6.6352169e-39
-2.5724437 1.0619661 0.58396721 5.7157731e-39
-2.5666416 1.048555 0.58441889 7.9288242e-39
-2.5852258 1.0554655 0.58367831 5.8097666e-39
-2.5775733 1.042848 0.58417469 1.0051479e-38
-2.5682175 1.0293676 0.58474344 6.9143093e-39
-2.5611591 1.0180614 0.58519477 9.4046787e-39
-2.5817516 1.0079004 0.58472329 9.955326e-39
-2.5663822 0.98292267 0.58571309 7.8337363e-39
-2.5695362 1.0138596 0.58500433 7.742621e-39
-2.5709138 0.99680173 0.58529365 8.4798301e-39
-2.5789318 0.97466016 0.58546627 9.7709291e-39
-2.5704648 0.96429271 0.58594513 1.0970194e-38
-2.5664222 0.9512518 0.5863322 6.8188655e-39
-2.558434 0.94008839 0.58681101 8.8464547e-39
-2.5562465 0.88935679 0.58787608 1.0047517e-38
-2.5722322 0.93021387 0.58655512 4.9746081e-39
-2.5652006 0.9173454 0.58703625 4.1469971e-39
-2.5757186 0.89722508 0.58708787 9.1248464e-39
-2.5698504 0.88243836 0.58756858 1.0140077e-38
-2.5611784 0.87023288 0.58809006 9.4936275e-39
-2.5782211 0.91047633 0.58674669 4.5150565e-39
-2.5568693 0.87299711 0.58817631 1.0600686e-38
-2.57342 0.86367857 0.58781987 1.1062025e-38
-2.5684352 0.84998286 0.58825046 1.1244626e-38
-2.5595062 0.83794433 0.58877712 1.0692529e-38
-2.5774286 0.82847381 0.58837897 1.0046811e-38
-2.5646572 0.81850052 0.58899021 9.9553119e-39
-2.5566604 0.80628723 0.58948988 1.0140421e-38
-2.5734816 0.79789406 0.58910656 9.4014431e-39
-2.5673344 0.78458184 0.58956754 8.4791253e-39
-2.561156 0.77085829 0.59003758 9.309609e-39
-2.5589309 0.75579685 0.59040505 8.4783952e-39
-2.571476 0.74833971 0.59014261 8.9404636e-39
-2.5604048 0.73907346 0.59068471 1.0137933e-38
-2.5616157 0.7296856 0.59082919 7.8355636e-39
-2.5542226 0.72522396 0.59115732 1.0045717e-38
-2.5692501 0.7177183 0.59081495 8.4802071e-39
-2.5630054 0.70444471 0.59127837 8.940465e-39
-2.5514967 0.69402778 0.59185719 8.2954515e-39
-2.5617957 0.65906322 0.59220678 1.1148485e-38
-2.5577848 0.65772933 0.59236348 1.0046087e-38
-2.5493486 0.64930785 0.59280324 6.9110625e-39
-2.5654747 0.63393158 0.59257931 9.7662726e-39
-2.5546362 0.62656492 0.59307659 1.0502396e-38
-2.5617011 0.64018983 0.5925796 9.1237562e-39
-2.5531158 0.62972695 0.59306413 1.0414501e-38
-2.5539114 0.58477306 0.59391886 1.0043556e-38
-2.5475855 0.56390476 0.59453368 1.01307e-38
-2.5487659 0.59581298 0.5938701 8.1096071e-39
-2.5685194 0.57053846 0.59372205 1.2431626e-38
-2.5692749 0.58517838 0.59341061 9.5836554e-39
-2.5567923 0.57556129 0.59400547 1.0044266e-38
-2.5552492 0.55576223 0.59444362 1.1694061e-38
-2.5475972 0.54705399 0.59486336 5.8929575e-39
-2.5661204 0.54032952 0.59439194 1.1602953e-38
-2.5562396 0.54263049 0.59466863 1.2246889e-38
-2.5549867 0.52693808 0.59501684 1.1329605e-38
-2.546932 0.51458013 0.59552115 1.3169906e-38
-2.5662243 0.52132434 0.59476084 1.0590966e-38
-2.5644398 0.50581092 0.59512287 1.1049421e-38
-2.556433 0.49351037 0.59562463 1.5190985e-38
-2.5530441 0.47879744 0.59602314 1.068243e-38
-2.5466802 0.48120838 0.59618312 9.6722454e-39
-2.5682032 0.46966743 0.59570843 1.6388818e-38
-2.558326 0.45135576 0.59638876 1.5836375e-38
-2.54952 0.44560334 0.59678817 1.1515073e-38
-2.5559909 0.42848331 0.59691286 9.2119862e-39
-2.5490913 0.41423032 0.59741676 9.028318e-39
-2.5649822 0.40447405 0.59709036 1.0039587e-38
-2.5576117 0.39380029 0.59753954 9.4860521e-39
-2.5522645 0.38035426 0.59797704 1.1968122e-38
-2.54425 0.36755896 0.59848869 1.1600072e-38
-2.5573897 0.36076403 0.59819394 9.2101953e-39
-2.5439782 0.33471441 0.59914094 1.1050864e-38
-2.5550022 0.31286851 0.5992099 1.3983832e-38
-2.547827 0.30047125 0.59968644 1.1042938e-38
-2.5445888 0.31391567 0.59952855 1.123202e-38
-2.5426564 0.29865569 0.59989041 1.3899201e-38
-2.5515714 0.27813107 0.60000217 1.02157e-38
-2.5465298 0.26739427 0.60037667 1.0310059e-38
-2.5605383 0.26028666 0.60005969 8.1042107e-39
-2.54949 0.24940987 0.60063255 9.3917055e-39
-2.5456569 0.23488033 0.60104197 8.4729932e-39
-2.5552123 0.21358946 0.60114795 1.1323119e-38
-2.5483384 0.20174633 0.60160381 9.8512249e-39
-2.5394213 0.18866268 0.6021505 1.8140902e-38
-2.5524585 0.1812185 0.60187173 1.1051211e-38
-2.5431054 0.16985682 0.60239899 1.6388837e-38
-2.5363822 0.15686366 0.60287237 1.6941651e-38
-2.55742 0.16106066 0.60210508 1.1606552e-38
-2.5528448 0.1483317 0.60250342 1.2153605e-38
-2.5426962 0.13699459 0.60305601 1.2242916e-38
-2.5354218 0.12422445 0.60354298 1.0218574e-38
-2.5562832 0.12914199 0.60276735 1.0501643e-38
-2.5438073 0.10442498 0.60365784 1.5653048e-38
-2.535085 0.08984226 0.60422754 1.785853e-38
-2.5474792 0.11774462 0.60327739 1.2886116e-38
-2.5569272 0.11302955 0.60306209 1.5744519e-38
-2.5572996 0.096458256 0.60337454 1.739719e-38
-2.5485651 0.084475763 0.60389376 1.6200093e-38
-2.5421777 0.071109228 0.60436356 1.5461459e-38
-2.5355296 0.058085121 0.60483521 1.5554744e-38
-2.5577052 0.063267037 0.60401154 1.684042e-38
-2.5433693 0.037640128 0.60498041 1.0681343e-38
-2.5380318 0.021397561 0.60547239 1.3616836e-38
-2.5492716 0.050965052 0.60452718 1.5918836e-38
-2.5531096 0.016386272 0.60507959 1.5365311e-38
-2.5438595 0.0047541927 0.6056087 1.4910092e-38
-2.5375786 -0.0088379607 0.60607952 1.454383e-38
-2.5527821 -0.016508829 0.60573471 1.7489757e-38
-2.5455909 -0.029312663 0.60621971 1.4363409e-38
-2.5370693 -0.0415789 0.60673749 1.2150338e-38
-2.5544782 -0.05052935 0.60634589 1.4727135e-38
-2.5437231 -0.061585262 0.60691267 1.3158013e-38
-2.538631 -0.075237565 0.60734594 9.4756054e-39
-2.5315127 -0.088071138 0.60782921 1.2144245e-38
-2.5498905 -0.097124338 0.60740805 1.2975421e-38
-2.5370336 -0.12328347 0.60833925 1.114196e-38
-2.5491903 -0.080750331 0.6071102 1.0768492e-38
-2.5390306 -0.091949008 0.60766029 1.1688289e-38
-2.5381522 -0.1078558 0.60800058 1.2982268e-38
-2.5325322 -0.12160736 0.60845298 1.0865017e-38
-2.5468259 -0.12889421 0.60813022 1.1420707e-38
-2.5403106 -0.14197142 0.60859859 1.1696577e-38
-2.5324771 -0.15451573 0.60909945 1.5466149e-38
-2.5458355 -0.16152148 0.60880166 1.528248e-38
-2.5386803 -0.19076107 0.60960746 1.1046866e-38
-2.5364773 -0.17344946 0.60934007 1.0222544e-38
-2.5301728 -0.18661183 0.6098032 1.3991755e-38
-2.5492785 -0.19634156 0.60937166 7.9179963e-39
-2.5391862 -0.20488268 0.60986763 8.3786298e-39
-2.5292363 -0.21926075 0.61047328 5.6149273e-39
-2.5481355 -0.21279551 0.6097312 3.0374321e-39
-2.5413954 -0.22578175 0.61020511 4.9713585e-39
-2.5362947 -0.23996469 0.61064905 1.0587006e-38
-2.5287282 -0.25208303 0.61113286 6.3499672e-39
-2.5422521 -0.25981015 0.61084384 6.1655913e-39
-2.5332112 -0.27121198 0.61136156 5.3405026e-39
-2.5285275 -0.28394496 0.61176354 6.1662976e-39
-2.5242085 -0.29899421 0.61219901 4.32455e-39
-2.5388765 -0.30697131 0.61187762 1.1886378e-38
-2.5310969 -0.31909546 0.61236846 4.6976583e-39
-2.5239985 -0.3319369 0.6128512 5.7067516e-39
-2.5455515 -0.28048509 0.61114138 3.5905975e-39
-2.5433996 -0.29264691 0.61144972 5.5227344e-39
-2.5412385 -0.34051144 0.61245775 9.0243509e-39
-2.5345399 -0.35351452 0.61293066 7.4588315e-39
-2.5294516 -0.36724418 0.61336529 8.7474095e-39
-2.5453935 -0.32663253 0.61205053 8.5633742e-39
-2.5317791 -0.33588803 0.61267525 9.0243509e-39
-2.5423956 -0.37400666 0.61307627 1.0866822e-38
-2.5101879 -0.28894117 0.61245865 4.6933297e-39
-2.5631323 1.1760688 0.58203518 6.4562262e-39
-2.5602286 1.0680296 0.58424622 5.7136165e-39
-2.5556614 1.0538749 0.58467227 5.8983651e-39
-2.5528581 1.0387944 0.58505893 4.7001849e-39
-2.5585043 1.0030624 0.5855751 8.5727558e-39
-2.5571508 0.98730052 0.5859279 7.8337363e-39
-2.5576296 0.97074991 0.58623654 8.0184834e-39
-2.5493987 0.95931524 0.58672857 7.4653195e-39
-2.5501435 0.92312068 0.58741337 5.8047247e-39
-2.5486755 0.90947795 0.58772838 4.5150565e-39
-2.5538704 0.93909883 0.58697897 5.6217782e-39
-2.5488966 0.87729275 0.58835179 1.0324107e-38
-2.5475848 0.88597488 0.58822435 1.1707393e-38
-2.5535891 0.85713923 0.58859378 1.0969471e-38
-2.551513 0.85810739 0.58864242 1.1246778e-38
-2.5514777 0.82541597 0.589284 1.0969101e-38
-2.5460019 0.81123251 0.5897401 1.0599256e-38
-2.5473363 0.77835178 0.59034085 9.401062e-39
-2.5514104 0.7923466 0.58993393 9.7698473e-39
-2.5485582 0.7447682 0.59095889 1.0598889e-38
-2.5443375 0.73042667 0.59137732 1.0045717e-38
-2.5485339 0.75838721 0.59069294 7.6493422e-39
-2.5446765 0.74607545 0.59105968 7.0958153e-39
-2.543143 0.68191189 0.59236658 8.9401132e-39
-2.5477684 0.71406209 0.59158617 1.0046799e-38
-2.5413055 0.69868428 0.59209788 8.9404552e-39
-2.5454295 0.66638273 0.59259635 8.2021713e-39
-2.5456285 0.61480105 0.59360033 9.4918479e-39
-2.5390911 0.6017071 0.59406972 8.4784092e-39
-2.5396137 0.63365281 0.59342694 7.554627e-39
-2.5419998 0.59131157 0.59417868 1.0136836e-38
-2.5461755 0.61245227 0.59362847 9.3085062e-39
-2.540375 0.60031754 0.59405518 9.5850889e-39
-2.5471225 0.58247375 0.59418494 8.4776665e-39
-2.5413144 0.56651103 0.59468681 7.7379477e-39
-2.5417163 0.53372031 0.59531611 8.2900411e-39
-2.5430803 0.48394424 0.59624678 1.068243e-38
-2.5408115 0.5005753 0.59599489 9.0319249e-39
-2.5423329 0.46775964 0.59658813 1.0317974e-38
-2.5420001 0.45512521 0.59684652 1.1238489e-38
-2.5407844 0.43501478 0.59728014 7.8283286e-39
-2.5416534 0.40152749 0.59790778 8.9361237e-39
-2.5345135 0.38893738 0.59838694 9.0297641e-39
-2.5398686 0.3532795 0.59891111 1.0406216e-38
-2.5385213 0.33643687 0.59928489 1.0125664e-38
-2.5311234 0.32429111 0.59976375 1.2421188e-38
-2.5361726 0.27854773 0.60049546 1.0674519e-38
-2.5396864 0.30334857 0.59989512 1.0491206e-38
-2.5364192 0.23968743 0.60124868 8.4729932e-39
-2.5346158 0.25782219 0.60095209 1.0034191e-38
-2.5370672 0.22277974 0.60155874 1.4814306e-38
-2.528831 0.21063812 0.60206491 1.4538802e-38
-2.5286808 0.17656218 0.60273731 1.7494818e-38
-2.527231 0.16156414 0.60307831 1.6941651e-38
-2.5280592 0.11148953 0.60403228 1.5739834e-38
-2.5267918 0.078974515 0.60471058 1.1415316e-38
-2.5305979 0.044044681 0.60527086 1.251986e-38
-2.5307481 0.0096450131 0.60593981 1.5091954e-38
-2.5237174 -0.0015484443 0.60638809 1.5646943e-38
-2.5311718 -0.019968834 0.60650617 1.749264e-38
-2.5305302 -0.053487528 0.60718375 1.021677e-38
-2.5229747 -0.065793432 0.60767078 1.6742469e-38
-2.5235579 -0.10056635 0.60833299 1.279104e-38
-2.5251083 -0.13186391 0.60889566 1.1236317e-38
-2.5235846 -0.16646044 0.60962301 9.8505144e-39
-2.5237303 -0.19971851 0.61026978 9.9423611e-39
-2.5230534 -0.23247227 0.61093348 4.8813209e-39
-2.5174291 -0.24590966 0.6113798 5.7985955e-39
-2.5237083 -0.26541474 0.61155742 7.7307492e-39
