# .PCD v0.7 - Point Cloud Data file format
VERSION 0.7
FIELDS x y z rgb
SIZE 4 4 4 4
TYPE F F F F
COUNT 1 1 1 1
WIDTH 1046
HEIGHT 1
VIEWPOINT 0 0 0 1 0 0 0
POINTS 1046
DATA ascii
-1.8803085 2.3788149 0.93174124 4.3324673e-39
-1.8757273 2.3799906 0.94552618 4.2395542e-39
-1.8747734 2.3809447 0.96049267 4.3313883e-39
-1.8658925 2.3823898 0.97299284 4.2388326e-39
-1.8615124 2.3835511 0.9868086 4.2381123e-39
-1.8504728 2.3860359 1.0140902 2.9462973e-39
-1.8449739 2.3872771 1.0277342 3.408353e-39
-1.8382014 2.3885159 1.0396043 2.5789497e-39
-1.8306531 2.3894639 1.0454447 2.1190533e-39
-1.8284733 2.3909974 1.0686198 8.279586e-40
-1.8230669 2.3913615 1.067434 1.5647936e-39
-1.8158932 2.3921406 1.0709141 5.5320615e-39
-2.3704433 2.2658577 -0.32438585 8.6616977e-39
-2.3670287 2.2679012 -0.29420775 7.9244914e-39
-2.3586965 2.2692766 -0.28214166 8.9386433e-39
-2.3536453 2.2713113 -0.25435433 8.2947144e-39
-2.3360577 2.2751839 -0.21235667 7.8340978e-39
-2.3291538 2.2764869 -0.1995777 7.2805653e-39
-2.3209145 2.277961 -0.18570565 6.9117856e-39
-2.3147531 2.2792492 -0.17216347 7.8340992e-39
-2.3085804 2.2805381 -0.15862302 6.7277516e-39
-2.30562 2.2815983 -0.14458902 6.8203074e-39
-2.2999845 2.2828491 -0.1309661 6.8203046e-39
-2.2953768 2.2839124 -0.1191351 6.6351959e-39
-2.2908132 2.2852316 -0.1028767 6.9117814e-39
-2.2812245 2.2867332 -0.090381928 6.1752939e-39
-2.2721877 2.2881913 -0.077870376 6.1752939e-39
-2.26754 2.2894912 -0.062057026 7.0972446e-39
-2.2660098 2.2903931 -0.048771862 7.2816373e-39
-2.2588758 2.2917345 -0.03564607 6.6351889e-39
-2.2542725 2.2928991 -0.022078786 7.1883654e-39
-2.2500699 2.2940481 -0.0082357256 5.5288441e-39
-2.2435083 2.2953646 0.005245029 5.4366471e-39
-2.2398584 2.296474 0.019172998 5.9894551e-39
-2.2333117 2.2977896 0.032656025 5.2515285e-39
-2.2266762 2.2991114 0.046125364 5.988009e-39
-2.2239621 2.3001542 0.060197111 5.6185006e-39
-2.220489 2.3012509 0.074152336 5.8021674e-39
-2.2155099 2.3024552 0.087876119 5.7092487e-39
-2.2104323 2.3036659 0.1015848 5.617053e-39
-2.2075546 2.3047154 0.11554591 5.4319429e-39
-2.2000277 2.3061059 0.12896387 5.1542798e-39
-2.1971216 2.307162 0.14300616 4.7851386e-39
-2.1908922 2.3084552 0.15653788 5.1535596e-39
-2.1851068 2.3097165 0.17013782 4.7847784e-39
-2.1798453 2.3109405 0.18381831 4.6007501e-39
-2.1733439 2.312238 0.19705792 5.153198e-39
-2.1719465 2.3132019 0.2115823 6.5336031e-39
-2.165411 2.3145165 0.22506703 3.863911e-39
-2.1633332 2.3155143 0.23923652 6.5339647e-39
-2.1544423 2.3169975 0.25237724 4.8776985e-39
-2.1537971 2.3178923 0.26674902 6.7183699e-39
-2.1483595 2.3191288 0.28040239 6.0769704e-39
-2.1430426 2.3203568 0.2940743 7.1836907e-39
-2.1377759 2.3215811 0.30775392 3.3986392e-39
-2.1323462 2.3225129 0.31621742 4.133319e-39
-2.1246161 2.3234107 0.32096177 3.0312944e-39
-2.1209064 2.3244984 0.33443707 2.5717554e-39
-2.1160798 2.3256872 0.34810957 2.4802801e-39
-2.1098523 2.326962 0.3613342 3.1231327e-39
-2.1028724 2.3282828 0.37431744 3.3071625e-39
-2.0998974 2.3293614 0.38864222 3.2149682e-39
-2.0985689 2.3303576 0.40380886 3.1231327e-39
-2.0930212 2.3315914 0.41726789 2.9394632e-39
-2.0878186 2.3327539 0.42997578 3.5826704e-39
-2.0783515 2.3343067 0.44351214 2.3884488e-39
-2.0780184 2.3351603 0.45761582 3.5830305e-39
-2.0728939 2.336345 0.47080934 3.677017e-39
-2.0672596 2.3377059 0.48631242 4.3238157e-39
-2.0576677 2.3382635 0.48271027 2.8512136e-39
-2.0685956 2.3384724 0.50121421 4.696187e-39
-2.0573063 2.3392351 0.49878371 3.682405e-39
-2.0548956 2.340265 0.51305336 3.5916471e-39
-2.0538399 2.3412275 0.52802068 3.4076117e-39
-2.0447598 2.341795 0.52528393 3.1310277e-39
-2.044162 2.3427048 0.53998291 3.3157776e-39
-2.0347261 2.3442082 0.55271995 3.961503e-39
-2.0260448 2.3456411 0.56528509 3.7767516e-39
-2.0250847 2.3465936 0.58021629 3.7767502e-39
-2.0220988 2.3476558 0.59424639 5.619567e-39
-2.013984 2.3491223 0.60815954 3.8693018e-39
-2.0079632 2.3503346 0.62060249 4.1455299e-39
-2.0063217 2.3513274 0.63528872 4.0536958e-39
-1.9987613 2.3527343 0.64894158 4.4232042e-39
-1.9925537 2.3540065 0.6621511 4.7923497e-39
-1.985942 2.3553267 0.67562407 4.9767493e-39
-1.980065 2.3565948 0.68921 4.6083326e-39
-1.9765172 2.3576968 0.70315367 4.7923679e-39
-1.9711124 2.3589311 0.71681213 5.3451815e-39
-1.9683903 2.3599744 0.73088259 4.9756717e-39
-1.9656497 2.3610191 0.74495029 4.6983618e-39
-1.9593405 2.3623178 0.75846982 5.0656982e-39
-1.9592732 2.3632145 0.77367043 4.4188826e-39
-1.9487759 2.3647687 0.78582424 4.4181553e-39
-1.9441886 2.3659451 0.79960829 4.3256052e-39
-1.9386567 2.3671882 0.81324708 4.2334095e-39
-1.9343923 2.3683414 0.82708079 4.4181679e-39
-1.9268357 2.3697164 0.8401978 4.6965625e-39
-1.9239628 2.3707829 0.85445601 4.4214162e-39
-1.9198049 2.3719285 0.86830598 4.7920035e-39
-1.9136716 2.3730791 0.87954009 4.6079724e-39
-1.9066579 2.3745635 0.89526379 4.3321058e-39
-1.9011617 2.3758042 0.90890819 4.3321072e-39
-1.8986926 2.3768277 0.92298841 4.4243014e-39
-1.8929946 2.3780847 0.9366309 4.3313883e-39
-1.8888016 2.3791313 0.94875038 4.4232252e-39
-1.8838565 2.3806393 0.9677034 4.238834e-39
-1.8809708 2.3815043 0.97850722 3.6845784e-39
-1.8709657 2.3830509 0.99120158 3.0374097e-39
-1.8693351 2.3840165 1.0054398 3.3139938e-39
-1.8640116 2.3852451 1.0191108 3.6838581e-39
-1.8554614 2.3868876 1.0354303 2.4842387e-39
-1.8471686 2.3881428 1.0455008 1.9303447e-39
-1.8389957 2.3895497 1.0583198 1.1953006e-39
-1.8361216 2.3907073 1.0741273 1.2878493e-39
-2.3619859 2.2718122 -0.23441023 9.3077859e-39
-2.3556685 2.273169 -0.21990666 7.7419036e-39
-2.3487232 2.2744551 -0.20747024 7.6497065e-39
-2.342978 2.2757137 -0.19386412 7.6493464e-39
-2.333801 2.2771809 -0.1813882 7.8344579e-39
-2.3308344 2.2782946 -0.16645397 7.4653167e-39
-2.325104 2.2795348 -0.15314387 7.0965356e-39
-2.3193972 2.2807906 -0.13953187 7.2809282e-39
-2.3182683 2.2817557 -0.12461541 6.9128632e-39
-2.309751 2.2831762 -0.11203632 6.7273929e-39
-2.3034356 2.2844753 -0.098517731 6.635556e-39
-2.295815 2.2859299 -0.084132023 6.5437177e-39
-2.2903061 2.2871089 -0.071557328 6.4511619e-39
-2.2846241 2.288363 -0.057941478 6.3593236e-39
-2.2887595 2.2890005 -0.041413628 6.2671294e-39
-2.2796726 2.2895651 -0.044213437 7.4656698e-39
-2.2748232 2.2907596 -0.030469691 6.543359e-39
-2.2691684 2.2919242 -0.018339816 6.359325e-39
-2.263979 2.2932553 -0.002741724 6.4508004e-39
-2.2594733 2.2944255 0.011053 6.3589607e-39
-2.255192 2.2955852 0.024980688 6.8195801e-39
-2.2453887 2.2971027 0.037452053 5.1600574e-39
-2.2367449 2.299417 0.065101586 6.0794843e-39
-2.2336068 2.3004899 0.079108238 5.8940071e-39
-2.2273359 2.3017859 0.092633627 5.8925595e-39
-2.222934 2.302949 0.10644609 5.8918379e-39
-2.2173872 2.304193 0.12008266 5.6145335e-39
-2.2148514 2.3052952 0.1354073 5.2457524e-39
-2.2121935 2.3062847 0.14864679 5.3375879e-39
-2.2054272 2.3075933 0.16171151 5.1535568e-39
-2.2004259 2.3087988 0.17543194 5.1535568e-39
-2.1952636 2.3100159 0.18912759 5.0613625e-39
-2.1901734 2.3112278 0.20283437 5.1535568e-39
-2.1847794 2.3124611 0.21649449 4.8769741e-39
-2.1786594 2.3137462 0.23004296 5.0613653e-39
-2.1742251 2.3149116 0.24385044 4.4170791e-39
-2.1676662 2.3162279 0.25733161 4.8784174e-39
-2.1638904 2.3173463 0.27124026 4.4181735e-39
-2.1624672 2.3181813 0.28353193 7.7375792e-39
-2.1549959 2.320559 0.31386676 5.0613976e-39
-2.1419806 2.3222828 0.32546309 2.9398177e-39
-2.1384811 2.3234038 0.3397983 2.9394589e-39
-2.1334257 2.3247037 0.35504895 2.8479836e-39
-2.1271989 2.3258753 0.36651447 3.397919e-39
-2.1219501 2.3270886 0.3800337 4.1329645e-39
-2.1128225 2.3276989 0.37796116 2.755432e-39
-2.1178186 2.3282418 0.3940492 4.1333274e-39
-2.1161473 2.3292575 0.40908387 3.3068037e-39
-2.1088386 2.3305769 0.42159078 4.3169998e-39
-2.1049724 2.3316677 0.43490225 2.7561537e-39
-2.0957811 2.3331494 0.44760969 3.0359762e-39
-2.0910709 2.3344469 0.46329129 3.6827819e-39
-2.0837235 2.3359256 0.47846329 4.2337865e-39
-2.0842032 2.3366115 0.49081799 4.7858729e-39
-2.0787582 2.3378487 0.50447023 4.696187e-39
-2.0702696 2.3392749 0.51718575 5.0649667e-39
-2.0667119 2.340194 0.52799147 3.4072544e-39
-2.0593755 2.3417768 0.54495877 3.407253e-39
-2.0513308 2.3431959 0.55815679 3.5001661e-39
-2.0474427 2.344208 0.57009971 3.5930792e-39
-2.0399292 2.3457098 0.58543748 3.7774677e-39
-2.0334265 2.3470223 0.59892726 3.7771075e-39
-2.0296431 2.3481412 0.61283469 3.9614988e-39
-2.0244687 2.349359 0.62652856 3.6845504e-39
-2.0249891 2.3502131 0.64180708 3.7778278e-39
-2.0153072 2.3517103 0.65409851 3.7771103e-39
-2.0063987 2.3531618 0.66667092 3.9622275e-39
-2.0026381 2.3543265 0.68139046 4.8845565e-39
-1.9998428 2.3553891 0.69569069 4.6072479e-39
-1.9947737 2.356602 0.70943928 4.7912833e-39
-1.989836 2.3578062 0.72322828 4.5139761e-39
-1.9829828 2.3591084 0.73606509 4.8816712e-39
-1.9775478 2.3603449 0.7497189 4.6036382e-39
-1.9733541 2.3616083 0.76553029 3.9579017e-39
-1.9712849 2.3624899 0.77773416 3.9575429e-39
-1.9653797 2.3637619 0.79135096 3.9568198e-39
-1.9566458 2.365231 0.80446273 4.4167148e-39
-1.9513283 2.3664589 0.81813455 4.1401321e-39
-1.946522 2.3676507 0.83188486 3.7727957e-39
-1.943681 2.3687024 0.84593719 4.141944e-39
-1.9387348 2.3699043 0.85966605 4.235583e-39
-1.9331665 2.37115 0.87329936 4.3292261e-39
-1.9238321 2.3726292 0.88576126 4.6068948e-39
-1.9204576 2.3737421 0.90012378 4.5157782e-39
-1.9169425 2.3747814 0.91304088 4.3317471e-39
-1.9137321 2.3759317 0.92826861 4.3317471e-39
-1.904675 2.3773837 0.94064701 4.5154209e-39
-1.9033331 2.378371 0.95564854 4.0540826e-39
-1.8988807 2.3795376 0.96945328 3.8675305e-39
-1.8942949 2.3807135 0.9832375 3.499827e-39
-1.8891691 2.3818755 0.99604255 3.497669e-39
-1.8856477 2.3830671 1.0115501 2.5739134e-39
-1.8804172 2.384284 1.0251514 2.020741e-39
-1.8733876 2.3855999 1.0379807 1.9289056e-39
-1.8624308 2.3872602 1.0513158 1.5615636e-39
-1.8533665 2.3887239 1.0638822 2.0214599e-39
-1.8484759 2.3900974 1.0806124 1.9314195e-39
-2.3699973 2.272264 -0.21575007 8.6631396e-39
-2.3626068 2.2736208 -0.20271772 7.0043399e-39
-2.3600264 2.2745683 -0.19009273 8.202523e-39
-2.3558819 2.2758539 -0.17383486 7.8333817e-39
-2.3481262 2.2772191 -0.16115505 7.2805681e-39
-2.3369951 2.2788181 -0.1491069 9.2166749e-39
-2.3328094 2.2799702 -0.1351842 7.1887312e-39
-2.3330936 2.280838 -0.11999829 6.912503e-39
-2.3226326 2.2823908 -0.10781518 6.7281118e-39
-2.3192744 2.283582 -0.092098825 6.912503e-39
-2.315953 2.2846322 -0.078727432 7.1890899e-39
-2.3034878 2.2863083 -0.067189164 6.4511619e-39
-2.2988231 2.2874916 -0.053388074 5.8983469e-39
-2.2988565 2.2883723 -0.038325593 6.2671294e-39
-2.2898116 2.2898462 -0.025556317 6.5433576e-39
-2.285533 2.2910571 -0.010756453 6.4511605e-39
-2.279038 2.2923317 0.0020959037 5.8057925e-39
-2.2732329 2.2935944 0.015692864 6.1745723e-39
-2.2654922 2.2951858 0.032249786 6.5429946e-39
-2.2599893 2.296236 0.042635769 6.450799e-39
-2.2543416 2.2974877 0.056256849 8.5702167e-39
-2.2512851 2.2985532 0.07025218 6.1713226e-39
-2.2457147 2.2998009 0.083908997 6.1702394e-39
-2.2442567 2.3007951 0.098871358 6.4435683e-39
-2.237123 2.3019857 0.10942063 5.6145321e-39
-2.2344146 2.3030574 0.12399446 5.521619e-39
-2.22965 2.3041332 0.13582534 5.4294234e-39
-2.2230101 2.3057492 0.15430269 5.3375879e-39
-2.2162271 2.3069973 0.16631135 5.2453937e-39
-2.2091341 2.3083518 0.17971042 5.153198e-39
-2.2083352 2.309258 0.19407643 5.0613625e-39
-2.2031157 2.3106074 0.2099504 5.0613611e-39
-2.2029133 2.3113432 0.22222097 5.0613611e-39
-2.1961694 2.3119578 0.22347972 4.7851372e-39
-2.1931045 2.312891 0.23520282 5.153198e-39
-2.1863792 2.3142192 0.24865836 4.6011089e-39
-2.1819675 2.3153827 0.26246932 4.7869477e-39
-2.1825166 2.3162332 0.27772039 5.3422991e-39
-2.1755893 2.3175442 0.29061091 5.435938e-39
-2.1602678 2.321146 0.33108163 3.9579353e-39
-2.1569211 2.3221161 0.34305134 2.7579474e-39
-2.1505036 2.3235693 0.3590568 2.8494241e-39
-2.1425972 2.3249817 0.3723309 2.5724799e-39
-2.1406715 2.3259683 0.38652375 3.6745101e-39
-2.1364334 2.3271196 0.40036148 3.8574622e-39
-2.1287818 2.3284805 0.41310775 3.3118456e-39
-2.1203938 2.3299384 0.42650211 2.757953e-39
-2.1207163 2.3308291 0.4421308 3.6831463e-39
-2.1154919 2.3320467 0.455751 3.8689767e-39
-2.1060758 2.3335283 0.46814141 4.236676e-39
-2.0965691 2.3350272 0.48070481 3.4998186e-39
-2.09479 2.3360307 0.49538508 3.7764027e-39
-2.094723 2.3368628 0.50948572 4.7891001e-39
-2.0884533 2.3373311 0.50889689 3.6842e-39
-2.0864518 2.3383539 0.52360314 3.6834784e-39
-2.0766013 2.3398335 0.53536552 3.6841972e-39
-2.0737205 2.3409932 0.55120379 3.9607813e-39
-2.0682781 2.3421457 0.56341344 4.8823691e-39
-2.0635357 2.343329 0.57711142 5.2515075e-39
-2.0614848 2.3440752 0.58703363 4.9749178e-39
-2.0548308 2.3447847 0.59003377 3.5930764e-39
-2.0504227 2.3460031 0.60478389 3.5927177e-39
-2.0447965 2.3472409 0.61820209 3.6849133e-39
-2.0388114 2.348479 0.63113171 3.7771075e-39
-2.0368969 2.3494968 0.64586729 3.7778278e-39
-2.0290375 2.3509541 0.65997303 3.6856336e-39
-2.0234833 2.3521504 0.67278403 3.777832e-39
-2.0161152 2.3535244 0.68614084 3.4097852e-39
-2.0124547 2.3546345 0.70006722 4.4224952e-39
-2.0080967 2.3557944 0.7138865 4.6068892e-39
-2.0040941 2.3569288 0.72776037 4.5136146e-39
-1.9962018 2.3584249 0.74248242 4.3266898e-39
-1.9907048 2.359565 0.75440431 4.1415768e-39
-1.986976 2.3606875 0.76844662 3.8649844e-39
-1.9831804 2.3618159 0.78250235 3.9568198e-39
-1.9777105 2.3630548 0.79615068 3.9564597e-39
-1.9736053 2.3640883 0.80816633 4.0486539e-39
-1.9669983 2.3655164 0.82348257 3.8646256e-39
-1.9614991 2.3667574 0.83712655 3.7727901e-39
-1.9581714 2.3679411 0.85276335 3.8660704e-39
-1.9531071 2.3691001 0.86560273 4.1437461e-39
-1.9454867 2.3704457 0.87813276 4.0526364e-39
-1.9410627 2.3716104 0.89194179 4.5150579e-39
-1.9343286 2.3729391 0.90539604 4.5157796e-39
-1.9314424 2.3739944 0.91944146 4.2391913e-39
-1.9275849 2.3751185 0.93333745 4.3299478e-39
-1.9229702 2.3762963 0.94711733 3.8682508e-39
-1.9194634 2.3773956 0.9610672 4.1448377e-39
-1.9149901 2.3785636 0.97486883 3.7760551e-39
-1.9061526 2.3800421 0.98799986 3.8668102e-39
-1.9026161 2.3811436 1.0019454 2.8512192e-39
-1.8970833 2.3823869 1.015584 2.1125765e-39
-1.8925637 2.383558 1.0293785 2.1125779e-39
-1.8860691 2.3848684 1.0428425 1.7452346e-39
-1.8745216 2.3865666 1.0560167 1.6541165e-39
-1.8699975 2.3876917 1.0690174 1.6530389e-39
-1.8656951 2.3888507 1.0828975 1.1938615e-39
-1.8626212 2.3899403 1.0972778 2.2044106e-39
-2.3861616 2.2712736 -0.21054435 7.4649579e-39
-2.3820286 2.2733464 -0.18084715 9.5854532e-39
-2.3741434 2.2738409 -0.18319499 8.5709468e-39
-2.3685565 2.2750881 -0.16956453 8.3861954e-39
-2.3623378 2.2762399 -0.15842555 7.3727609e-39
-2.3575933 2.2775748 -0.14215134 7.1887298e-39
-2.3506072 2.2789145 -0.12885582 8.3872758e-39
-2.34677 2.2800372 -0.11495658 7.6497037e-39
-2.3433516 2.2809834 -0.10349457 6.4518836e-39
-2.3387675 2.2822711 -0.087801866 6.9125016e-39
-2.3352323 2.2834358 -0.072774172 7.5575123e-39
-2.32126 2.2853606 -0.059052851 6.9128604e-39
-2.3192692 2.2862649 -0.046353552 6.820306e-39
-2.3138261 2.2874966 -0.03279046 6.2667721e-39
-2.3052301 2.2889409 -0.019917071 6.1752939e-39
-2.3004832 2.2901282 -0.0061575174 6.5437163e-39
-2.2919614 2.2915492 0.0064198687 6.543359e-39
-2.288588 2.2926948 0.021347191 7.2805625e-39
-2.2898755 2.29351 0.037006192 5.7139542e-39
-2.2812507 2.2940459 0.034354031 5.8983497e-39
-2.2676742 2.2966869 0.060832068 8.4776651e-39
-2.2654893 2.2977164 0.075398855 8.5687706e-39
-2.258347 2.2990534 0.088432297 8.0123402e-39
-2.2594149 2.2998481 0.10344318 7.1804047e-39
-2.2534013 2.3011255 0.11700805 5.5219777e-39
-2.2467945 2.3024454 0.13048179 5.2450363e-39
-2.2398293 2.3037968 0.14400174 5.4290647e-39
-2.236558 2.3048732 0.15788667 5.7056487e-39
-2.2315416 2.3058686 0.16800201 5.4294248e-39
-2.2235229 2.3075001 0.18486157 5.2453951e-39
-2.219456 2.3086393 0.19872555 5.1532008e-39
-2.2151678 2.3097939 0.2125555 5.1539169e-39
-2.2127345 2.3108051 0.22646926 4.9691683e-39
-2.2057941 2.3121605 0.24009296 4.9691683e-39
-2.2018998 2.3132873 0.25398341 5.154284e-39
-2.1958628 2.3145664 0.26754469 4.604727e-39
-2.1953022 2.3152883 0.2790904 5.4352164e-39
-2.1918056 2.3165543 0.29589891 4.9756815e-39
-2.1835239 2.3179867 0.30900094 5.1593525e-39
-2.1828861 2.3188884 0.32350612 6.2649826e-39
-2.1780679 2.3200812 0.33725464 6.7252391e-39
-2.170274 2.3214705 0.35029384 4.4214274e-39
-2.1644356 2.3228934 0.36657482 4.1437615e-39
-2.1573472 2.3240702 0.37695399 3.1278103e-39
-2.1560884 2.3249626 0.39044994 3.6827861e-39
-2.1452146 2.3266673 0.40465117 2.8526681e-39
-2.142987 2.3276756 0.4187977 4.2363214e-39
-2.1333184 2.3291814 0.43126324 4.1452034e-39
-2.1307571 2.330245 0.4458963 3.9611723e-39
-2.1269979 2.331362 0.45980752 4.2381193e-39
-2.1190987 2.3327487 0.4726516 4.2384766e-39
-2.1163113 2.333817 0.48705724 4.0537126e-39
-2.1092401 2.3352697 0.5021612 4.1448181e-39
-2.1013222 2.3366854 0.5154776 3.7760327e-39
-2.098753 2.337661 0.52860129 3.6838385e-39
-2.0914962 2.33899 0.54134572 3.499806e-39
-2.0883667 2.3400915 0.555848 3.5927205e-39
-2.082135 2.3413539 0.56885821 3.5927191e-39
-2.076457 2.3425984 0.58232021 3.685272e-39
-2.0697842 2.34393 0.5959053 3.5930764e-39
-2.0644429 2.34516 0.60957354 3.5008822e-39
-2.0600312 2.3463237 0.62338454 3.6852734e-39
-2.0544243 2.3475721 0.63701189 3.4086865e-39
-2.0499077 2.3487432 0.65080673 3.4083278e-39
-2.0448053 2.349956 0.66451156 3.6856336e-39
-2.0374279 2.3513095 0.67750728 3.5927205e-39
-2.0325234 2.3525088 0.69125009 3.7781963e-39
-2.0271606 2.3537292 0.70473093 4.237385e-39
-2.023077 2.3548822 0.71881139 4.329575e-39
-2.020088 2.3557634 0.72975212 4.0515462e-39
-2.0128353 2.3573291 0.74653262 3.5887646e-39
-2.0096893 2.3583655 0.75990689 3.8649858e-39
-2.0025947 2.3597569 0.77393681 4.0493728e-39
-1.9960071 2.3610756 0.78741354 4.0493728e-39
-1.9910107 2.3622806 0.80113477 3.5884003e-39
-1.9868479 2.3634267 0.8149839 3.6802358e-39
-1.9823276 2.3644767 0.82671237 3.5887604e-39
-1.9759082 2.3660419 0.84462243 3.5887604e-39
-1.9730463 2.3669577 0.85632986 3.5891205e-39
-1.965674 2.3683012 0.86916035 3.5905709e-39
-1.9608299 2.3695264 0.88343048 3.8678822e-39
-1.9574282 2.3705993 0.89707708 3.9618785e-39
-1.9508266 2.3719378 0.91087127 4.1473558e-39
-1.9473031 2.3729715 0.92368644 4.4235868e-39
-1.9427218 2.3742158 0.93864119 4.0537224e-39
-1.9364123 2.3754835 0.95163196 3.500906e-39
-1.9336096 2.3763893 0.9632436 3.4983865e-39
-1.927629 2.3778107 0.97931135 3.4973089e-39
-1.9211211 2.3791494 0.99324012 2.2966077e-39
-1.9156703 2.3803871 1.0068914 2.2962489e-39
-1.9107175 2.3815892 1.0206193 2.4799185e-39
-1.9068342 2.382715 1.0345114 2.0203823e-39
-1.9032028 2.3838232 1.0484424 1.9289056e-39
-1.8941028 2.385323 1.0615771 1.8377903e-39
-1.8877327 2.3866234 1.0750432 1.5612034e-39
-1.885254 2.3875732 1.0878501 1.5622824e-39
-1.8786683 2.388099 1.0878112 1.6530389e-39
-1.8800509 2.3888814 1.1030439 1.8392253e-39
-2.4008276 2.2704151 -0.20513231 8.2947144e-39
-2.3958225 2.271621 -0.19141252 9.6772915e-39
-2.3858833 2.2740073 -0.16430783 7.9259361e-39
-2.3722601 2.2758081 -0.15222518 8.2939955e-39
-2.3723915 2.2766869 -0.13705721 7.7419022e-39
-2.3768418 2.2773032 -0.12046539 8.3872702e-39
-2.3642595 2.278173 -0.12283775 8.2028803e-39
-2.3607609 2.2792242 -0.10969228 8.2939955e-39
-2.3551099 2.2804792 -0.096018039 7.280924e-39
-2.3525405 2.2814982 -0.08215192 7.0043357e-39
-2.348217 2.2826557 -0.068327352 7.5575095e-39
-2.3397996 2.2840655 -0.05579162 6.5437191e-39
-2.3365569 2.2851908 -0.041035254 6.3593264e-39
-2.3300314 2.2864988 -0.027654946 6.0823808e-39
-2.3196185 2.2880504 -0.015430523 6.6355546e-39
-2.3156018 2.2892036 -0.0012553943 6.3589649e-39
-2.3116701 2.29037 0.013259606 5.9901838e-39
-2.3039951 2.2917502 0.026300168 6.4515235e-39
-2.3011534 2.2928019 0.040352333 5.7139542e-39
-2.2933729 2.2941151 0.05210536 7.9259291e-39
-2.2876832 2.2954705 0.067443013 8.2014384e-39
-2.2836313 2.2966282 0.081643581 7.7397386e-39
-2.2837951 2.297518 0.097041987 5.6159754e-39
-2.2746468 2.2980869 0.0942351 8.1970958e-39
-2.2737226 2.2990222 0.10892238 6.7194321e-39
-2.2698004 2.3001649 0.12304409 6.9938554e-39
-2.2614572 2.3015745 0.13567506 7.638506e-39
-2.2564368 2.3027813 0.14939253 5.4301423e-39
-2.2484713 2.3043506 0.16526219 5.2450349e-39
-2.2326279 2.3078744 0.2036898 4.8773342e-39
-2.2275465 2.3090856 0.21739787 4.8780517e-39
-2.2239041 2.3103297 0.23363639 5.0613653e-39
-2.2201912 2.3113122 0.2453149 4.786226e-39
-2.2147543 2.3125448 0.25889891 5.341569e-39
-2.2109375 2.3137054 0.273469 5.4355751e-39
-2.2096848 2.314605 0.28709754 5.4355779e-39
-2.2059698 2.3157189 0.30101559 5.4348618e-39
-2.2005854 2.3169518 0.31467709 5.4348632e-39
-2.1972523 2.3180289 0.32848847 6.5415681e-39
-2.1884573 2.3195143 0.34179139 5.1597155e-39
-2.1900165 2.3201418 0.35462373 6.2646197e-39
-2.1762736 2.3231323 0.38683188 4.9742466e-39
-2.1624777 2.3255866 0.40982288 4.3299562e-39
-2.1561205 2.3269625 0.42459345 5.251551e-39
-2.150444 2.328167 0.43737274 4.4232294e-39
-2.1446855 2.3294265 0.45097679 4.423228e-39
-2.1378405 2.3308547 0.46597692 4.146281e-39
-2.1324737 2.3320253 0.47860035 4.2381123e-39
-2.1304805 2.3329861 0.49226069 3.9618785e-39
-2.1255872 2.3341839 0.50599772 3.9615156e-39
-2.121264 2.3352544 0.51834118 3.6842028e-39
-2.1110876 2.336915 0.53274763 3.7760341e-39
-2.105648 2.3381519 0.54640079 3.6845546e-39
-2.1007984 2.3393466 0.56014442 3.5927205e-39
-2.0950959 2.3406022 0.57375711 3.6849119e-39
-2.0924051 2.3416431 0.58783245 3.6856308e-39
-2.0861387 2.3428755 0.60027677 3.5934351e-39
-2.0813229 2.3441517 0.61545867 3.6849119e-39
-2.0763466 2.3453627 0.62930357 3.5008836e-39
-2.070822 2.3465323 0.64169526 3.6852734e-39
-2.0665913 2.3476801 0.65548551 3.5012423e-39
-2.0634284 2.3488357 0.67086911 3.500522e-39
-2.054199 2.3503096 0.68338418 3.5919974e-39
-2.048687 2.3515515 0.69702613 3.6841972e-39
-2.0422561 2.352859 0.71052694 3.590924e-39
-2.0385954 2.3539691 0.72445327 3.6827609e-39
-2.0332782 2.355139 0.73713195 3.2207024e-39
-2.0272222 2.3563602 0.74968016 3.6805973e-39
-2.0243456 2.357532 0.76573032 3.7727901e-39
-2.0196199 2.3586237 0.77788544 3.4043719e-39
-2.0130506 2.3599787 0.79200751 3.5884017e-39
-2.0086391 2.3611441 0.80585068 3.5880429e-39
-2.0092776 2.3620818 0.82271653 3.2199835e-39
-2.0006249 2.3626187 0.82004112 3.4962074e-39
-1.996098 2.3637905 0.83383441 3.4047307e-39
-1.9909604 2.3650057 0.84753382 3.5887604e-39
-1.987088 2.3661308 0.86142766 3.3125364e-39
-1.9803989 2.3674567 0.87488884 3.5905737e-39
-1.9745607 2.3686805 0.88777578 3.6838525e-39
-1.970458 2.3698833 0.90268236 3.5927401e-39
-1.9646192 2.3710701 0.91493309 4.2391913e-39
-1.9608126 2.3722491 0.92983478 3.9622471e-39
-1.9575474 2.373219 0.94190913 3.5927429e-39
-1.9503919 2.3746903 0.95721674 3.6824204e-39
-1.9457124 2.3759248 0.97187114 2.5739148e-39
-1.9427606 2.3769324 0.98501647 2.2969692e-39
-1.9360982 2.3782554 0.99847233 1.9285468e-39
-1.9298556 2.3795235 1.0115603 1.9289056e-39
-1.9272602 2.3804011 1.0229803 2.0203809e-39
-1.9219605 2.3818223 1.0399659 2.4799171e-39
-1.9165218 2.3830478 1.0534292 1.9289056e-39
-1.9093343 2.384409 1.0668137 1.4693693e-39
-1.9028265 2.3856673 1.0793742 2.20657e-39
-1.8927724 2.3881521 1.1079998 1.6533991e-39
-1.8834835 2.3888414 1.1070549 2.3934682e-39
-2.3992286 2.2732503 -0.15897109 8.3865555e-39
-2.3926375 2.2745652 -0.14556237 8.0181317e-39
-2.3878641 2.275753 -0.13182923 7.9259305e-39
-2.3849127 2.276818 -0.11770415 8.3872702e-39
-2.3801043 2.2779028 -0.10577942 8.4787483e-39
-2.3710995 2.2795005 -0.090848759 7.465674e-39
-2.3677878 2.2805855 -0.076868765 7.3731196e-39
-2.3616953 2.2818689 -0.063315995 7.2809226e-39
-2.3567061 2.2830734 -0.049593743 6.9124988e-39
-2.3491695 2.2844708 -0.036072768 7.280924e-39
-2.342093 2.2858129 -0.022861261 6.0820221e-39
-2.3414054 2.286741 -0.0079729008 6.6355546e-39
-2.3350198 2.2879937 0.0046549491 6.3593264e-39
-2.3288124 2.2893071 0.018564671 6.359325e-39
-2.3178747 2.2908936 0.030667447 5.6210411e-39
-2.3168969 2.2917514 0.043957405 6.6355546e-39
-2.3114913 2.2931147 0.059814636 8.2939941e-39
-2.3067002 2.2943048 0.073564649 8.0174087e-39
-2.3009791 2.2955396 0.086794637 7.7393756e-39
-2.29726 2.2966835 0.10121976 5.8010884e-39
-2.292944 2.2978432 0.11509518 6.7197965e-39
-2.2829123 2.2993705 0.12742309 6.4403271e-39
-2.2770617 2.3005493 0.13952743 6.8098271e-39
-2.2723961 2.3018498 0.15532444 6.8094684e-39
-2.2646334 2.3032203 0.16808121 7.9165208e-39
-2.2386806 2.3091173 0.23316313 4.9709732e-39
-2.2322087 2.3107078 0.2514331 5.2490118e-39
-2.2281883 2.311919 0.26658976 5.6196062e-39
-2.2245107 2.3128729 0.27782717 5.4359352e-39
-2.2212257 2.3139563 0.29181126 5.3433809e-39
-2.2186234 2.314991 0.30590019 5.4352206e-39
-2.2136862 2.3161922 0.31963047 5.618893e-39
-2.2077982 2.3174608 0.33321467 4.9749627e-39
-2.2004383 2.3188341 0.34657273 5.2515496e-39
-2.1965625 2.3199594 0.360466 5.1597127e-39
-2.1932864 2.3210423 0.37445143 4.9749613e-39
-2.1885028 2.3222325 0.38820529 4.6990947e-39
-2.1882751 2.3229053 0.39936891 6.541208e-39
-2.1760736 2.3256581 0.42963046 5.8958428e-39
-2.1657729 2.3272576 0.44282347 3.9618925e-39
-2.1590531 2.3285763 0.45612472 4.2388396e-39
-2.1563139 2.3296189 0.47016135 4.6068976e-39
-2.1479285 2.3310673 0.48339313 4.7912875e-39
-2.1490242 2.3318729 0.49862856 4.2384682e-39
-2.1395485 2.3333628 0.51108325 4.1459069e-39
-2.1318247 2.3349183 0.52704531 3.8689486e-39
-2.1243515 2.3361437 0.53772604 3.9607813e-39
-2.119648 2.3373282 0.55149227 3.9611387e-39
-2.1161246 2.3384285 0.5654397 3.6849133e-39
-2.1153226 2.3393745 0.58047527 3.5005234e-39
-2.1087372 2.340662 0.5934267 3.5008808e-39
-2.101512 2.3420174 0.60666096 3.6852706e-39
-2.0966914 2.3432102 0.62040919 3.5927177e-39
-2.0909498 2.3444681 0.63401586 3.5005234e-39
-2.0851843 2.3457282 0.64761883 3.5930764e-39
-2.0803249 2.3469236 0.66136098 3.5008822e-39
-2.0750952 2.3481455 0.67504638 3.2235778e-39
-2.0695462 2.349381 0.68853062 3.5919988e-39
-2.0627604 2.3508322 0.70400065 3.6834784e-39
-2.0614243 2.3517001 0.7169717 3.6827581e-39
-2.0518878 2.3531957 0.72943598 3.311819e-39
-2.0460169 2.3544631 0.74302286 2.7593697e-39
-2.0407593 2.3556869 0.75670385 3.3125364e-39
-2.0376866 2.3567553 0.77072054 3.7720727e-39
-2.033076 2.3579328 0.78450102 3.4040132e-39
-2.0286682 2.3590963 0.79831254 3.4958487e-39
-2.0280147 2.3600199 0.81316888 3.4040132e-39
-2.0236413 2.3611948 0.82722825 3.4040118e-39
-2.0102146 2.3629386 0.83860481 2.6671768e-39
-2.0062039 2.3641548 0.85386205 3.4036545e-39
-2.0021284 2.3652406 0.86680448 3.1277893e-39
-1.9976009 2.3664191 0.88071239 3.5905709e-39
-1.9940914 2.3675432 0.89508712 3.867878e-39
-1.9844235 2.3690419 0.90742522 3.4083474e-39
-1.9805437 2.3701677 0.92131793 4.1466341e-39
-1.97399 2.3714838 0.93479991 3.4083502e-39
-1.9690874 2.3726823 0.94853544 3.8675305e-39
-1.9637824 2.3739095 0.96220922 3.2210835e-39
-1.9610455 2.374954 0.97627747 2.4809989e-39
-1.9559406 2.3761671 0.98998201 2.755425e-39
-1.9505877 2.3773975 1.0036484 2.3880816e-39
-1.9468588 2.3785126 1.0175642 1.9289042e-39
-1.9396276 2.379844 1.0303811 2.0203823e-39
-1.9369494 2.3809595 1.0457439 1.9285454e-39
-1.9266012 2.383378 1.0728363 2.1122178e-39
-1.918285 2.3847942 1.0856181 2.298044e-39
-1.9092757 2.3862724 1.098508 3.223596e-39
-1.9055218 2.3875668 1.1154475 1.6587871e-39
-2.4118569 2.2733169 -0.14057416 8.2950773e-39
-2.4031236 2.2748449 -0.12645453 8.5713055e-39
-2.4026918 2.2757492 -0.11162657 8.29472e-39
-2.3940957 2.2771869 -0.098864071 8.5709454e-39
-2.3859921 2.2786465 -0.085051194 6.9121429e-39
-2.3826423 2.2797267 -0.071208462 7.5575123e-39
-2.3735287 2.2811992 -0.058557391 7.1880081e-39
-2.3683164 2.2824199 -0.044869438 6.4511563e-39
-2.3633537 2.2836227 -0.031143149 7.6497037e-39
-2.3558757 2.2849846 -0.01814338 6.9125002e-39
-2.3533735 2.2860322 -0.0036988561 6.1749366e-39
-2.3479424 2.2872684 0.0099555124 6.2674881e-39
-2.3405473 2.2886095 0.022717791 6.0827368e-39
-2.3394167 2.2894897 0.036181025 6.3589649e-39
-2.3294206 2.2911353 0.050576311 7.8333789e-39
-2.3287356 2.2920549 0.065320253 8.4787455e-39
-2.3250077 2.293174 0.07930655 8.6627823e-39
-2.316478 2.2946053 0.092054121 7.5553417e-39
-2.3158441 2.2955322 0.10699484 6.3557097e-39
-2.3065982 2.2970078 0.11951384 6.9045479e-39
-2.30266 2.2981377 0.13339753 6.9030989e-39
-2.2940497 2.2986805 0.1308827 6.9030989e-39
-2.2949805 2.299504 0.14619999 6.7179916e-39
-2.2868979 2.3009586 0.15995355 6.9934967e-39
-2.2782001 2.3024571 0.17361435 6.532164e-39
-2.2689958 2.3047814 0.20066956 7.086414e-39
-2.2577529 2.307281 0.2279198 7.3633694e-39
-2.2565672 2.3082395 0.24264613 6.1702436e-39
-2.2475331 2.3097076 0.25532728 5.2493804e-39
-2.2421465 2.3109405 0.26898846 5.527412e-39
-2.2386043 2.3120422 0.28293303 5.2515468e-39
-2.2336369 2.3132453 0.29665861 5.3433809e-39
-2.2293854 2.3143976 0.31049418 5.3426648e-39
-2.2256656 2.3154302 0.32301867 5.3430235e-39
-2.2209048 2.3167353 0.33876252 5.3437438e-39
-2.214721 2.3179903 0.35170755 5.3433837e-39
-2.2092721 2.3192275 0.36535919 5.3437424e-39
-2.2066271 2.3202653 0.37944159 5.1589924e-39
-2.2002482 2.321569 0.39295036 4.79057e-39
-2.200599 2.3222187 0.40450844 4.7912917e-39
-2.1934779 2.3237436 0.42077708 4.9753242e-39
-2.189368 2.3250716 0.43780369 5.4359408e-39
-2.180589 2.3263667 0.44788516 4.4228693e-39
-2.1728823 2.3277371 0.46071988 4.5150649e-39
-2.1713939 2.3287203 0.47545001 4.1470013e-39
-2.1638663 2.3300958 0.48861659 4.5154209e-39
-2.1592407 2.331439 0.50519586 3.9618785e-39
-2.1528676 2.3325875 0.51607007 4.1466271e-39
-2.1475384 2.3338165 0.5297401 4.0537028e-39
-2.1397395 2.3352649 0.54377908 3.6841958e-39
-2.1343114 2.3364446 0.55647159 3.5923589e-39
-2.1301377 2.3376019 0.57050544 3.4083278e-39
-2.1264906 2.3387129 0.58446157 3.6849133e-39
-2.1217008 2.3399036 0.59821445 3.5930764e-39
-2.1141326 2.3412578 0.61096334 3.685272e-39
-2.110249 2.3423975 0.62508798 3.5930778e-39
-2.10636 2.3435402 0.63925916 3.5001647e-39
-2.1028056 2.3445172 0.65106022 3.5927177e-39
-2.0989151 2.3458035 0.66767222 3.6849119e-39
-2.0911224 2.3471775 0.68044919 3.5927177e-39
-2.089926 2.3481538 0.69546276 3.591996e-39
-2.0816724 2.3495493 0.70797491 3.5923589e-39
-2.076205 2.3507879 0.72162378 3.5909212e-39
-2.0663366 2.3523135 0.73414558 3.3128966e-39
-2.0617135 2.3534932 0.74794149 3.5894793e-39
-2.0581768 2.3546121 0.76218814 3.3121763e-39
-2.0539653 2.3557806 0.77635431 3.4040132e-39
-2.0492966 2.3569698 0.79025316 3.1274291e-39
-2.0438879 2.3581972 0.80378973 3.4958473e-39
-2.0412772 2.359221 0.81767905 3.5880429e-39
-2.0369084 2.3603816 0.83149654 3.5884003e-39
-2.0291169 2.3617604 0.84435588 3.5876842e-39
-2.0237105 2.3629899 0.85793185 3.5884017e-39
-2.0198407 2.3641539 0.87248957 3.4962102e-39
-2.0123742 2.3655262 0.88568246 3.5902107e-39
-2.007215 2.3667431 0.8993786 4.0519078e-39
-2.0002041 2.3680933 0.91281754 3.499827e-39
-1.9941853 2.3694098 0.92704099 3.3157945e-39
-1.9869462 2.3707342 0.939731 3.1299627e-39
-1.9831799 2.3718519 0.95364112 3.1278061e-39
-1.977025 2.3731396 0.96718431 2.204412e-39
-1.9750601 2.3741293 0.98137116 2.020741e-39
-1.971635 2.3752327 0.99551034 2.2040533e-39
-1.9670554 2.3765476 1.0116678 1.9285454e-39
-1.9615171 2.3776631 1.0231191 1.9285468e-39
-1.9546832 2.3789778 1.0361956 1.8370701e-39
-1.9484037 2.3802743 1.0497197 1.7448744e-39
-1.9430398 2.3815057 1.0633844 1.9285468e-39
-1.9389796 2.3826444 1.0772494 2.4795598e-39
-1.9306411 2.3840446 1.0897294 1.9296216e-39
-1.9277593 2.3851364 1.1044036 1.8381491e-39
-1.9220406 2.3864708 1.1193426 3.5963316e-39
-1.9196229 2.3874536 1.1327975 9.2338142e-40
-1.9075625 2.3882053 1.1291277 1.5687452e-39
-2.4263942 2.272512 -0.13442765 7.8351782e-39
-2.4178302 2.2739394 -0.12179375 7.1894515e-39
-2.4057238 2.2764804 -0.095009498 8.3865555e-39
-2.4051378 2.2773764 -0.080532596 7.8333803e-39
-2.3986206 2.2787364 -0.066250719 8.2947186e-39
-2.3882139 2.2804422 -0.051387571 7.0039756e-39
-2.3851604 2.2814071 -0.039110065 7.5578696e-39
-2.3769186 2.2828298 -0.026118509 7.465674e-39
-2.3719816 2.2840309 -0.012388186 7.2809268e-39
-2.3644907 2.2854121 0.00092092756 6.6362735e-39
-2.36218 2.2864275 0.015083447 6.8199417e-39
-2.3560436 2.287714 0.028629472 6.4515207e-39
-2.3523808 2.2888243 0.042555485 6.9121401e-39
-2.3458366 2.2901371 0.055993326 9.3081503e-39
-2.3491466 2.2907944 0.071728818 8.1103217e-39
-2.3383038 2.2923751 0.083859116 8.9397293e-39
-2.3310959 2.29372 0.09694159 8.7546108e-39
-2.3312893 2.2945735 0.11175902 6.7252195e-39
-2.3207099 2.2961431 0.12406178 5.984402e-39
-2.316489 2.2973716 0.13924238 6.443211e-39
-2.3107481 2.2985842 0.15206952 6.3502937e-39
-2.3012772 2.3000782 0.16459398 7.363354e-39
-2.2965648 2.3013425 0.17971174 7.0867699e-39
-2.2862661 2.3028591 0.19149536 6.8101914e-39
-2.2802479 2.3041854 0.20588557 6.8112676e-39
-2.2727869 2.306426 0.23389441 7.7368547e-39
-2.270134 2.3074222 0.24725126 7.7368533e-39
-2.2619452 2.3088183 0.25986987 8.1999978e-39
-2.2605917 2.3097448 0.2738167 6.8181522e-39
-2.2519825 2.3112626 0.28792894 5.0671569e-39
-2.2476311 2.312422 0.30174914 5.6188915e-39
-2.2419057 2.313679 0.31535837 5.618893e-39
-2.2368736 2.314853 0.32849523 5.251188e-39
-2.2319984 2.3161855 0.3445507 5.2508279e-39
-2.2292542 2.3171124 0.3566063 5.4352192e-39
-2.2254174 2.3182499 0.37076256 5.1589938e-39
-2.2181935 2.319577 0.38351539 5.251188e-39
-2.2154112 2.3206522 0.39804837 5.3433837e-39
-2.2146828 2.321564 0.41259733 5.0667982e-39
-2.2078698 2.3228984 0.42603943 4.9756843e-39
-2.2007775 2.3244319 0.44249475 4.6069004e-39
-2.196547 2.3255394 0.45559233 4.4232294e-39
-2.1912704 2.3266933 0.46806127 4.4228693e-39
-2.1855478 2.3278856 0.48056507 4.0540854e-39
-2.1825209 2.3289177 0.4940297 4.6072564e-39
-2.1759386 2.3302686 0.50806636 4.6994506e-39
-2.1660151 2.3319125 0.52253109 4.1462642e-39
-2.1607013 2.3330524 0.53470296 4.33101e-39
-2.1544287 2.3343484 0.54822803 3.6841972e-39
-2.1508968 2.3354492 0.5621742 3.8685857e-39
-2.1440706 2.3367848 0.57561427 3.1313822e-39
-2.1394186 2.3379655 0.58938837 3.0395453e-39
-2.1345851 2.339159 0.60313451 3.4083278e-39
-2.1303401 2.3403108 0.61697114 3.408325e-39
-2.125113 2.3415325 0.63065678 3.5927177e-39
-2.1202395 2.3427289 0.6443969 3.5930778e-39
-2.116118 2.3438718 0.65825236 3.5930764e-39
-2.1109283 2.3450906 0.67194384 3.6849119e-39
-2.1027472 2.3464866 0.68456006 3.6845532e-39
-2.1022685 2.3474064 0.69959098 3.591996e-39
-2.0960722 2.3486645 0.71257275 3.5912785e-39
-2.0925739 2.3498294 0.72765535 3.5902009e-39
-2.0831048 2.3513191 0.74011308 3.6816763e-39
-2.0821097 2.3522563 0.75473565 3.5891205e-39
-2.0744998 2.3536308 0.76776868 3.4965662e-39
-2.0687401 2.3548901 0.78137249 3.4965662e-39
-2.0636985 2.3560987 0.7950868 3.1274291e-39
-2.0622425 2.3571794 0.81152374 3.4040118e-39
-2.0559294 2.3584571 0.82467967 3.5884003e-39
-2.0510948 2.3595445 0.83661664 3.9568184e-39
-2.0445442 2.3608603 0.85009915 3.4962074e-39
-2.0374098 2.3622279 0.86366498 3.3121763e-39
-2.0343578 2.3632846 0.87751162 3.2199821e-39
-2.0311143 2.3643651 0.89150214 3.497655e-39
-2.0227711 2.3648877 0.88900656 3.497655e-39
-2.0223758 2.3658063 0.9041301 3.8682438e-39
-2.0167735 2.3671916 0.92009377 2.9452099e-39
-2.0115893 2.3683035 0.93196875 2.8537387e-39
-2.0031741 2.3698144 0.94622821 2.759025e-39
-1.9977031 2.3709753 0.958543 2.7583061e-39
-1.9924427 2.3721883 0.97203773 1.9285468e-39
-1.9867121 2.3734355 0.98547447 1.8370701e-39
-1.9848173 2.3744569 1.0002996 2.020741e-39
-1.9809837 2.3755794 1.0141994 1.8367099e-39
-1.9759859 2.3767846 1.0279202 2.1122178e-39
-1.9693167 2.3781884 1.0427401 1.8367099e-39
-1.9668317 2.3791668 1.0560273 1.6530389e-39
-1.9587959 2.3805571 1.0687456 1.8367099e-39
-1.9540255 2.3817461 1.0825015 2.2962475e-39
-1.9482664 2.3830056 1.0961056 2.0214585e-39
-1.9416454 2.3843262 1.1095771 2.0232592e-39
-1.9400716 2.3855608 1.1284763 1.8474719e-40
-1.9380146 2.3854344 1.1235081 4.7948706e-39
-1.9397769 2.3861587 1.1382675 1.8474719e-40
-1.9328145 2.3865988 1.1362556 1.8474719e-40
-1.9334979 2.3873918 1.1507109 2.1222721e-39
-2.4066594 2.2782562 -0.063452207 7.1887298e-39
-2.4062326 2.2791808 -0.048270751 7.8340992e-39
-2.4023521 2.2804184 -0.032469455 7.0972516e-39
-2.3956826 2.2816672 -0.020295201 7.0968929e-39
-2.388171 2.2821403 -0.022493331 7.0968929e-39
-2.3863032 2.2831564 -0.0077211144 6.9125016e-39
-2.3840725 2.2840836 0.0050402787 7.1890885e-39
-2.380254 2.2853539 0.021483192 7.7415434e-39
-2.369004 2.2869642 0.033561241 6.3596866e-39
-2.3703918 2.2877452 0.04877932 9.3074286e-39
-2.3630373 2.289187 0.063308045 8.4791043e-39
-2.3538229 2.2914202 0.088795058 9.2166721e-39
-2.3510029 2.2924891 0.10316325 8.6624165e-39
-2.3458979 2.2937183 0.11714919 7.92449e-39
-2.3414698 2.2948899 0.13107139 8.0148835e-39
-2.3328433 2.2963347 0.14391589 7.1833166e-39
-2.3239961 2.2977922 0.15667313 6.2591855e-39
-2.319423 2.2989714 0.17053317 6.6272393e-39
-2.3150334 2.3002405 0.18617378 7.3644414e-39
-2.3045263 2.3017254 0.19712757 5.5216274e-39
-2.299381 2.3029382 0.21077697 6.351751e-39
-2.2951915 2.3040972 0.22481142 6.9974792e-39
-2.2903516 2.3054063 0.2405196 8.0130814e-39
-2.2841163 2.3065996 0.25234002 7.5542739e-39
-2.2778878 2.3078923 0.26587188 7.5553543e-39
-2.2737439 2.309037 0.27972403 7.6482688e-39
-2.26438 2.3105145 0.29211989 7.6479115e-39
-2.2598927 2.3118157 0.30817252 6.8177963e-39
-2.2553787 2.3128927 0.32036886 4.8827684e-39
-2.2452388 2.3153138 0.34778857 4.8827642e-39
-2.2410138 2.3164878 0.36203185 5.0667968e-39
-2.239747 2.3174038 0.37592238 4.9749613e-39
-2.2367773 2.3184648 0.38995484 5.3430249e-39
-2.2302852 2.3197763 0.40344623 5.1589952e-39
-2.2263837 2.3209035 0.4173356 5.0675184e-39
-2.2226431 2.3220196 0.43124968 4.8834873e-39
-2.2162824 2.3233218 0.44476122 5.1597127e-39
-2.2124276 2.3244457 0.45865777 4.6994548e-39
-2.2072759 2.3256621 0.47235504 4.7912903e-39
-2.199384 2.3271348 0.48668143 4.6072592e-39
-2.1965578 2.3281243 0.49968597 4.6994534e-39
-2.1884012 2.3295131 0.51222277 4.6994506e-39
-2.1851289 2.3306477 0.52709281 4.3302995e-39
-2.1734533 2.3322825 0.53901142 3.5005304e-39
-2.1712222 2.3332398 0.55228508 3.7767544e-39
-2.1667552 2.3345141 0.56790572 3.5005248e-39
-2.1612699 2.3357375 0.58126783 3.5927177e-39
-2.1574149 2.3368776 0.59543997 3.5001633e-39
-2.1483014 2.3383555 0.60818237 3.6849133e-39
-2.1443386 2.3394871 0.62206233 3.3164923e-39
-2.1397572 2.3406627 0.63584721 3.5005234e-39
-2.1345148 2.3418853 0.64953059 2.9473525e-39
-2.1282201 2.343183 0.66305226 3.5001633e-39
-2.1228497 2.3444149 0.67671603 3.5927177e-39
-2.1210556 2.3453922 0.69092911 3.5927177e-39
-2.1149402 2.3466771 0.70447844 3.6845532e-39
-2.1095295 2.3479118 0.71813595 3.6834728e-39
-2.1047215 2.3491037 0.73188603 3.5909198e-39
-2.097419 2.3504455 0.74478835 3.6816763e-39
-2.0951014 2.3514876 0.75938559 3.5891219e-39
-2.0895348 2.3526852 0.77219981 3.128148e-39
-2.084084 2.3540969 0.788822 3.3114588e-39
-2.0786953 2.3551838 0.7999866 3.3118176e-39
-2.0771537 2.3561635 0.81458318 3.496206e-39
-2.0694575 2.3575757 0.82814276 3.1277879e-39
-2.0630472 2.3589704 0.84316844 3.4040132e-39
-2.0586514 2.360029 0.85520697 3.7720727e-39
-2.052289 2.3613315 0.86871833 3.2196234e-39
-2.0479448 2.3624902 0.88253969 3.311819e-39
-2.045541 2.3635111 0.89665914 3.4972906e-39
-2.0400887 2.3647485 0.91031021 3.4987368e-39
-2.0337605 2.3660486 0.92382675 3.2214366e-39
-2.0246601 2.3675067 0.93625051 3.4976676e-39
-2.0211346 2.3686936 0.95167047 2.759025e-39
-2.0191891 2.3696756 0.96575898 2.1122178e-39
-2.0091486 2.3711984 0.97800064 2.2966063e-39
-2.008177 2.3721426 0.9927696 1.9285454e-39
-2.0007768 2.3734937 1.005692 1.7452332e-39
-1.9996799 2.3744617 1.020699 1.9285468e-39
-1.9866935 2.3763688 1.035463 2.1122178e-39
-1.98139 2.377439 1.0464667 1.7452332e-39
-1.9800285 2.3783689 1.0604595 1.7452332e-39
-1.9725057 2.3798289 1.0750741 1.9285454e-39
-1.9692453 2.3808496 1.0880216 2.4813563e-39
-1.9580013 2.3824849 1.1005366 1.7463122e-39
-1.9525023 2.3837535 1.1146518 3.1317591e-39
-1.9525436 2.3846681 1.130304 2.3059557e-39
-1.952161 2.3854499 1.1431108 2.7765888e-40
-2.4275386 2.2779033 -0.0409251 6.7281048e-39
-2.4231942 2.279072 -0.026933165 7.0965286e-39
-2.4092362 2.2808392 -0.015882568 9.2163148e-39
-2.4074011 2.2817614 -0.0026666811 7.465674e-39
-2.4032276 2.2830436 0.013492744 8.0184891e-39
-2.392617 2.2846067 0.025640788 7.7415434e-39
-2.3853662 2.2859471 0.038589075 7.2809212e-39
-2.3830152 2.2869892 0.053143132 9.6762111e-39
-2.3745127 2.2884095 0.065738954 8.0181331e-39
-2.3736939 2.2893517 0.080688648 8.7549709e-39
-2.3715441 2.2903545 0.094847076 8.6624151e-39
-2.3632829 2.2917922 0.10806666 8.2932725e-39
-2.3612139 2.292789 0.12223755 8.1092427e-39
-2.3550358 2.2940784 0.13577718 7.7393784e-39
-2.3483348 2.2953594 0.14846095 7.7386596e-39
-2.3482444 2.2963257 0.16481481 7.7404616e-39
-2.3395882 2.2968769 0.1623815 7.6464611e-39
-2.3401654 2.2977095 0.17736825 7.5542669e-39
-2.3289952 2.29933 0.1897316 6.3532028e-39
-2.3230553 2.3006568 0.20423718 6.3528454e-39
-2.317476 2.3018489 0.21693946 7.7383064e-39
-2.3109283 2.3031645 0.23042226 7.1844138e-39
-2.3029122 2.3045135 0.24246521 7.0936587e-39
-2.303498 2.305455 0.25932145 7.370963e-39
-2.2989941 2.3066285 0.273175 7.3713246e-39
-2.2911184 2.3071232 0.27084514 7.370963e-39
-2.2943988 2.3078072 0.28699338 7.2798492e-39
-2.2826395 2.3094261 0.29851997 7.0021847e-39
-2.2693329 2.312922 0.33994201 6.910708e-39
-2.261338 2.3136282 0.3410556 6.0809473e-39
-2.2536519 2.315654 0.36509201 5.2515482e-39
-2.2529333 2.316638 0.38088879 5.0667954e-39
-2.2478344 2.3178504 0.39459413 5.0667968e-39
-2.2443237 2.3189499 0.40854359 5.1593553e-39
-2.2392938 2.3201575 0.4222596 5.0675198e-39
-2.2333066 2.3214331 0.43582854 5.436301e-39
-2.2301393 2.3225081 0.44983065 4.8834859e-39
-2.2254143 2.3236942 0.46359357 4.8838446e-39
-2.2202868 2.3249087 0.47729456 4.8838446e-39
-2.2104712 2.3264155 0.48956871 4.6072578e-39
-2.2121651 2.3271859 0.50502431 4.7920063e-39
-2.2027051 2.3287408 0.51860946 4.4232238e-39
-2.1991854 2.329809 0.53200775 4.7916448e-39
-2.1927159 2.3310955 0.54510027 4.5154096e-39
-2.1880929 2.3323486 0.56014723 3.6849203e-39
-2.1809416 2.3336561 0.57267123 3.8696647e-39
-2.1782146 2.3346999 0.58674109 3.9611387e-39
-2.1725204 2.3359549 0.60035503 3.5001619e-39
-2.162755 2.3374703 0.6128481 3.7763873e-39
-2.1572084 2.3387048 0.62631679 3.7767488e-39
-2.153326 2.339844 0.64043653 3.6845518e-39
-2.1523201 2.3406885 0.6534583 3.5927163e-39
-2.1438079 2.3422463 0.66838765 3.7774649e-39
-2.1378224 2.3435218 0.68195689 3.4083236e-39
-2.1349664 2.3445735 0.69598359 3.5919988e-39
-2.1294668 2.3458159 0.70965075 3.5919974e-39
-2.123558 2.347086 0.72323173 3.498364e-39
-2.1179421 2.3483353 0.73685777 3.4987256e-39
-2.1142259 2.3494494 0.75077546 3.5901995e-39
-2.1098001 2.3506141 0.76458436 3.4969277e-39
-2.1044278 2.351846 0.77824771 3.128148e-39
-2.1006079 2.3529675 0.79214966 3.4962074e-39
-2.0948045 2.3542302 0.80574679 3.3118176e-39
-2.0902605 2.3554029 0.8195374 3.312535e-39
-2.0849526 2.3566303 0.83321071 3.4040132e-39
-2.0804396 2.3578012 0.84700614 3.4043719e-39
-2.0710573 2.3592818 0.85942554 3.4036545e-39
-2.0662713 2.3604674 0.87310028 3.4040118e-39
-2.0647886 2.3614058 0.88707787 3.312898e-39
-2.0568144 2.3628812 0.90133172 3.2210639e-39
-2.0534763 2.3639684 0.91530758 2.8526569e-39
-2.0473046 2.365257 0.92884821 3.2203562e-39
-2.0429637 2.3664157 0.94267011 3.3121959e-39
-2.0379319 2.3676233 0.95638579 1.9285468e-39
-2.0348539 2.3686922 0.9704017 2.2040533e-39
-2.0238707 2.3703015 0.98282897 1.9285468e-39
-2.0227966 2.3712497 0.99752671 1.9285454e-39
-2.0147069 2.3726668 1.0106348 2.1122164e-39
-2.0124264 2.3736868 1.0249112 1.9289056e-39
-2.0063059 2.3749197 1.0375662 1.6530389e-39
-2.0025373 2.3761263 1.0529903 1.8370701e-39
-1.9970839 2.3773429 1.0662836 2.1125751e-39
-1.9884411 2.378792 1.0791813 1.6544753e-39
-1.9810861 2.3802936 1.0947292 2.3895194e-39
-1.9735472 2.3815515 1.1058706 1.929623e-39
-1.9706836 2.3826048 1.1199194 3.4994627e-39
-1.964749 2.3842394 1.139681 2.7765888e-40
-1.962162 2.3840611 1.1330991 4.4264482e-39
-1.9679395 2.3844995 1.1484772 7.1746481e-43
-1.9640135 2.385643 1.1626096 1.9375235e-39
-1.9582705 2.3859105 1.1593169 1.9375207e-39
-2.4285178 2.2796979 -0.0089845126 7.5575095e-39
-2.4302049 2.2804842 0.006730041 6.3586062e-39
-2.4206984 2.2810814 0.0039180601 7.0972516e-39
-2.4208961 2.2819505 0.019008599 7.926292e-39
-2.4083424 2.2837238 0.032083362 6.7270328e-39
-2.4057567 2.2847266 0.045653764 7.2802051e-39
-2.4056406 2.2856321 0.060933601 1.1519403e-38
-2.3961506 2.286227 0.058101792 8.4776693e-39
-2.3945174 2.2872686 0.073630415 9.0312004e-39
-2.3918972 2.2882526 0.086830311 9.0312018e-39
-2.3817937 2.2897978 0.099362351 9.8598835e-39
-2.3761775 2.2910469 0.11298826 8.0163311e-39
-2.3744235 2.2920213 0.12720759 8.5702251e-39
-2.3681741 2.2933159 0.14073622 7.9248571e-39
-2.3600111 2.2947342 0.1537656 8.0166912e-39
-2.3592334 2.2956514 0.16834022 7.7404616e-39
-2.3527772 2.2969604 0.1818371 7.0940118e-39
-2.3469925 2.2981882 0.1948659 7.6471842e-39
-2.3433087 2.2993662 0.20992027 7.5553557e-39
-2.3301442 2.3011987 0.22316623 7.0947391e-39
-2.3273294 2.3021886 0.2362003 7.6479101e-39
-2.3220525 2.3033442 0.24869104 7.8315839e-39
-2.3171282 2.3046038 0.26343751 7.0947363e-39
-2.310833 2.3058927 0.27681452 7.3713246e-39
-2.305125 2.3071487 0.29042637 7.2798492e-39
-2.2959263 2.3086267 0.30305701 7.1869361e-39
-2.2934415 2.3095489 0.31538194 6.2660588e-39
-2.2874448 2.310915 0.33047962 6.7259608e-39
-2.280848 2.3122749 0.3446517 7.1872963e-39
-2.2753406 2.3135166 0.35829434 6.9107066e-39
-2.2704163 2.3147166 0.37202659 7.0029022e-39
-2.2670522 2.3158057 0.38599849 7.1869361e-39
-2.2634938 2.3169084 0.39994052 4.7909301e-39
-2.2585022 2.3181133 0.41366243 4.7909301e-39
-2.2466826 2.3206537 0.44082418 5.2522698e-39
-2.2423589 2.3218112 0.45464864 4.8834859e-39
-2.2380276 2.322969 0.46847194 5.0678772e-39
-2.2319109 2.3242538 0.482021 5.067517e-39
-2.2253542 2.3255701 0.49550247 5.0678772e-39
-2.2215915 2.3266876 0.50941312 4.884202e-39
-2.2201254 2.3276417 0.52367663 4.7920063e-39
-2.213697 2.3289487 0.5371778 4.7916462e-39
-2.2084224 2.3301737 0.55085623 4.4228553e-39
-2.2046518 2.3312917 0.56476569 4.0533455e-39
-2.1962554 2.3327224 0.57768452 4.1455341e-39
-2.1899967 2.3340821 0.59231418 3.7763873e-39
-2.1847107 2.3352597 0.60516846 3.6845518e-39
-2.1794889 2.3364809 0.618855 3.7771075e-39
-2.1741014 2.3377142 0.63251603 3.7767502e-39
-2.169466 2.3388937 0.64629263 3.6845532e-39
-2.1635299 2.3401656 0.65986943 3.5001605e-39
-2.1562705 2.3415077 0.67282999 3.408325e-39
-2.1527066 2.3426299 0.6870935 3.5927163e-39
-2.149087 2.3437426 0.70111686 3.684193e-39
-2.1420631 2.3450677 0.71411473 3.4076075e-39
-2.1371443 2.3463745 0.72967309 3.498364e-39
-2.131999 2.3475075 0.74195796 3.5909184e-39
-2.1267037 2.3487339 0.75563312 3.0370328e-39
-2.1236541 2.349791 0.76949084 3.2203422e-39
-2.1180272 2.3510506 0.78327757 3.3118176e-39
-2.1146615 2.3521383 0.79722321 3.3121777e-39
-2.1078496 2.3534741 0.8106916 3.3121777e-39
-2.1032631 2.3546503 0.82447571 3.3121777e-39
-2.0974917 2.3559105 0.8380779 3.3121777e-39
-2.09167 2.3571744 0.85167211 3.3114588e-39
-2.0881567 2.3582742 0.86562121 3.3121763e-39
-2.0827656 2.3595073 0.87928164 3.1281466e-39
-2.0785785 2.3606551 0.89312714 3.3136154e-39
-2.0702469 2.3621495 0.90721864 2.851931e-39
-2.0680912 2.3631272 0.92094272 2.7590151e-39
-2.0599582 2.3645291 0.93373281 2.2044148e-39
-2.0562296 2.365644 0.94764876 2.6671909e-39
-2.0507677 2.3668826 0.96129841 2.5717526e-39
-2.0484443 2.3679121 0.97567737 1.9285454e-39
-2.0431809 2.3690078 0.98717058 1.8367099e-39
-2.0363317 2.3704205 1.0018934 1.9285454e-39
-2.0319543 2.3715892 1.0158404 1.9285454e-39
-2.0275629 2.3727567 1.0297481 1.9285468e-39
-2.0240262 2.3738768 1.0440114 1.8367099e-39
-2.0185072 2.3751259 1.0577633 2.204412e-39
-2.010047 2.3765776 1.0709525 1.9289042e-39
-2.002079 2.3779614 1.0836606 1.7455933e-39
-1.9987431 2.3790965 1.0984508 2.1136541e-39
-1.9872252 2.3807199 1.1103919 1.2864158e-39
-1.9845513 2.3817668 1.1245837 2.9480881e-39
-1.9789571 2.3838878 1.1531087 3.5873241e-43
