# .PCD v0.7 - Point Cloud Data file format
VERSION 0.7
FIELDS x y z rgb
SIZE 4 4 4 4
TYPE F F F F
COUNT 1 1 1 1
WIDTH 140
HEIGHT 1
VIEWPOINT 0 0 0 1 0 0 0
POINTS 140
DATA ascii
2.9770646 -0.4500429 0.65724331 2.3509528e-38
2.9918051 -0.44509631 0.62864691 2.350953e-38
3.0098867 -0.46271166 0.59432375 2.3509532e-38
3.0335495 -0.473699 0.54902077 2.3509535e-38
3.0235274 -0.47919264 0.56853122 2.3509538e-38
3.0019188 -0.48732468 0.61047745 2.3509541e-38
2.9728563 -0.56782627 0.66910654 2.3509542e-38
2.9724927 -0.59936589 0.67080969 2.3509545e-38
2.9715285 -0.63071954 0.67366797 2.3509548e-38
2.9735868 -0.66661876 0.67083764 2.3509551e-38
2.9757056 -0.71353924 0.66824168 2.3509554e-38
2.9807348 -0.74891084 0.6596632 2.3509556e-38
2.9840791 -0.76013786 0.65356821 2.3509558e-38
2.9823399 -0.78267729 0.6576401 2.3509561e-38
2.9827006 -0.79522961 0.65734309 2.3509563e-38
2.9836936 -0.82864636 0.65648991 2.3509566e-38
2.9880013 -0.87599993 0.64968425 2.3509569e-38
2.9845881 -0.90703839 0.65725666 2.350957e-38
2.9863532 -0.94125611 0.65493882 2.3509573e-38
2.9901755 -1.008857 0.64971411 2.3509576e-38
2.9967549 -1.0276533 0.63761729 2.3509579e-38
2.9978569 -1.0393618 0.6358639 2.3509582e-38
2.9956977 -1.0900131 0.64163959 2.3509584e-38
2.9969923 -1.1225778 0.64017731 2.3509586e-38
2.9984832 -1.1349229 0.63769299 2.3509589e-38
2.9894316 -1.1857024 0.65677029 2.3509591e-38
2.9905901 -1.2073565 0.65522319 2.3509594e-38
2.9941437 -1.2496116 0.64971077 2.3509597e-38
2.9919059 -1.2981788 0.65557253 2.35096e-38
2.9958012 -1.3211621 0.64878762 2.3509601e-38
2.999548 -1.3475586 0.64239901 2.3509604e-38
2.9973578 -1.4125606 0.64868999 2.3509607e-38
2.9972229 -1.4455328 0.64999926 2.350961e-38
2.9971857 -1.4785086 0.65111864 2.3509612e-38
2.9963017 -1.5111086 0.65386063 2.3509614e-38
3.0014997 -1.5588793 0.64535147 2.3509617e-38
3.0011263 -1.5917186 0.64711583 2.3509619e-38
3.0068467 -1.6256186 0.6371572 2.3509622e-38
3.0104949 -1.6414444 0.63062119 2.3509625e-38
3.0110385 -1.6747253 0.63063109 2.3509628e-38
3.0141525 -1.7215072 0.62611055 2.3509629e-38
3.0176377 -1.7561553 0.62048775 2.3509632e-38
3.0132289 -1.7886766 0.63002872 2.3509635e-38
3.01423 -1.8205868 0.62911081 2.3509638e-38
3.0126348 -1.8405331 0.63282204 2.350964e-38
3.0137835 -1.8740857 0.6316728 2.3509642e-38
3.0163829 -1.8876244 0.62708801 2.3509645e-38
3.0184844 -1.9009296 0.62345743 2.3509647e-38
3.0191174 -1.9342875 0.62329668 2.350965e-38
3.0184298 -1.9669327 0.62566084 2.3509653e-38
3.0215814 -2.0014246 0.62067658 2.3509656e-38
3.0243225 -2.015029 0.61582124 2.3509657e-38
3.0281193 -2.0285532 0.60892606 2.350966e-38
3.0317147 -2.0631781 0.60309029 2.3509663e-38
3.0275042 -2.1140447 0.61282992 2.3509666e-38
3.0235701 -2.146734 0.62145895 2.3509668e-38
3.0265534 -2.1927114 0.61716557 2.3509671e-38
3.0461583 -2.2705655 0.5818184 2.3509673e-38
3.0452237 -2.2714653 0.58364964 2.3509675e-38
3.0329466 -2.2714412 0.6073342 2.3509678e-38
3.0216925 -2.2727649 0.62908852 2.3509681e-38
3.0192575 -2.2733293 0.63380426 2.3509684e-38
3.0083451 -2.2707317 0.65477437 2.3509685e-38
3.0053513 -2.233772 0.65937465 2.3509688e-38
2.9970706 -2.2052498 0.67444444 2.3509691e-38
2.9601636 -2.1713006 0.74456811 2.3509694e-38
2.9303229 -2.1695294 0.80208164 2.3509696e-38
2.9211354 -2.166466 0.81970924 2.3509699e-38
2.9117532 -2.1636109 0.83772004 2.3509701e-38
2.8802547 -2.15925 0.89834911 2.3509703e-38
2.8589911 -2.1628778 0.93948746 2.3509706e-38
2.8499553 -2.167217 0.95705897 2.3509709e-38
2.8453066 -2.1664643 0.96600282 2.3509712e-38
2.8314276 -2.1669557 0.99279475 2.3509713e-38
2.8167455 -2.1626439 1.0209837 2.3509716e-38
2.8105204 -2.1559701 1.0327805 2.3509719e-38
2.8078136 -2.1497824 1.0378064 2.3509722e-38
2.80212 -2.0960689 1.0470828 2.3509724e-38
2.7974689 -2.0740826 1.0553573 2.3509727e-38
2.7947488 -2.0265858 1.0590954 2.3509729e-38
2.7941873 -1.9993776 1.0593131 2.3509731e-38
2.7936532 -1.9617354 1.0591481 2.3509734e-38
2.7913582 -1.9343739 1.0627052 2.3509737e-38
2.7934639 -1.8651198 1.0564413 2.350974e-38
2.7913051 -1.8396095 1.0597945 2.3509743e-38
2.78789 -1.7958124 1.064991 2.3509744e-38
2.7862103 -1.7857085 1.0679109 2.3509747e-38
2.7865987 -1.7804461 1.0669943 2.350975e-38
2.7894168 -1.726693 1.0598478 2.3509752e-38
2.7875671 -1.7138982 1.0630105 2.3509755e-38
2.7867975 -1.6636482 1.062897 2.3509757e-38
2.7830405 -1.6361955 1.0692728 2.3509759e-38
2.7839127 -1.6015081 1.0664878 2.3509762e-38
2.7837052 -1.5566599 1.0654618 2.3509765e-38
2.7819052 -1.5310065 1.0681198 2.3509768e-38
2.7832754 -1.5018063 1.0645479 2.3509771e-38
2.780324 -1.4541547 1.0687273 2.3509772e-38
2.7784932 -1.4470613 1.072033 2.3509775e-38
2.7821848 -1.3889927 1.0630648 2.3509778e-38
2.7788229 -1.3627514 1.0687175 2.3509781e-38
2.7826004 -1.3270015 1.0602925 2.3509783e-38
2.7836072 -1.3113161 1.0578516 2.3509785e-38
2.7809551 -1.2814856 1.0620202 2.3509788e-38
2.7794933 -1.2684802 1.0644271 2.350979e-38
2.7779963 -1.2566561 1.0669394 2.3509793e-38
2.7729979 -1.2361543 1.0759308 2.3509796e-38
2.7732043 -1.2039315 1.0745075 2.3509799e-38
2.7723851 -1.1489774 1.0743411 2.35098e-38
2.7719066 -1.1364269 1.0748656 2.3509803e-38
2.7705626 -1.1231654 1.0770373 2.3509806e-38
2.7684042 -1.0903182 1.0801569 2.3509809e-38
2.7697108 -1.0694965 1.0769746 2.3509811e-38
2.7691066 -1.0557605 1.0777032 2.3509814e-38
2.7676373 -1.0254329 1.0795739 2.3509816e-38
2.7676187 -0.99090701 1.0785123 2.3509818e-38
2.7622654 -0.94663018 1.0874331 2.3509821e-38
2.7647521 -0.91121453 1.0815091 2.3509824e-38
2.7643745 -0.88808346 1.0815022 2.3509827e-38
2.7642348 -0.87704003 1.0814202 2.3509828e-38
2.7640061 -0.85715687 1.0812292 2.3509831e-38
2.7603588 -0.83080661 1.0874293 2.3509834e-38
2.7939613 -0.80581945 1.0218068 2.3509837e-38
2.8021986 -0.79627544 1.0056114 2.3509839e-38
2.8058853 -0.80272883 0.99870318 2.3509842e-38
2.8429577 -0.85991526 0.92899942 2.3509844e-38
2.8599579 -0.85386646 0.89600885 2.3509846e-38
2.8733985 -0.83816606 0.86958015 2.3509849e-38
2.8910081 -0.80676091 0.83460826 2.3509852e-38
2.8973393 -0.78566849 0.82172328 2.3509855e-38
2.9013181 -0.77073419 0.81357175 2.3509856e-38
2.9065309 -0.74934036 0.80283558 2.3509859e-38
2.9199564 -0.64888954 0.77374154 2.3509862e-38
2.9409094 -0.61907119 0.73236901 2.3509865e-38
2.9454238 -0.61034906 0.72338253 2.3509867e-38
2.9574978 -0.55924737 0.6984635 2.350987e-38
2.9577909 -0.53662843 0.69717908 2.3509872e-38
2.9567971 -0.52320457 0.69867057 2.3509874e-38
2.9626629 -0.46890345 0.68562788 2.3509877e-38
2.964191 -0.45836338 0.68234432 2.350988e-38
2.9680705 -0.45371997 0.67471159 2.3509883e-38
