# .PCD v0.7 - Point Cloud Data file format
VERSION 0.7
FIELDS x y z rgb
SIZE 4 4 4 4
TYPE F F F F
COUNT 1 1 1 1
WIDTH 325
HEIGHT 1
VIEWPOINT 0 0 0 1 0 0 0
POINTS 325
DATA ascii
2.9636006 -2.060353 -1.132827 2.3509528e-38
2.9442058 -2.0872552 -1.1469512 2.3509528e-38
2.9321809 -2.0810494 -1.1553446 2.350953e-38
2.9252567 -2.0682847 -1.1600316 2.3509531e-38
2.919641 -2.0556881 -1.1637971 2.3509532e-38
2.9182262 -2.04456 -1.1646192 2.3509532e-38
2.915874 -2.0293305 -1.1660379 2.3509534e-38
2.9116535 -2.0161927 -1.1688097 2.3509535e-38
2.9182158 -1.9767307 -1.1635478 2.3509537e-38
2.920321 -1.9371176 -1.1614304 2.3509538e-38
2.9171596 -1.9234881 -1.1634467 2.3509538e-38
2.9163654 -1.8959574 -1.1635695 2.3509539e-38
2.9124289 -1.8647441 -1.1658527 2.3509541e-38
2.9114819 -1.8493311 -1.1662765 2.3509542e-38
2.9141037 -1.8164524 -1.1639019 2.3509542e-38
2.9191816 -1.781961 -1.1597674 2.3509544e-38
2.9174266 -1.7666255 -1.1607627 2.3509545e-38
2.9184463 -1.734746 -1.1595356 2.3509547e-38
2.9190414 -1.6818938 -1.1582747 2.3509548e-38
2.9205306 -1.6634969 -1.1569303 2.3509548e-38
2.9191766 -1.6254858 -1.1572819 2.3509549e-38
2.9142408 -1.5841001 -1.1601087 2.3509551e-38
2.9129601 -1.5445309 -1.1603842 2.3509552e-38
2.9183416 -1.5308944 -1.1563666 2.3509554e-38
2.9220781 -1.4959109 -1.1531713 2.3509554e-38
2.9188497 -1.4669547 -1.1549908 2.3509555e-38
2.9137726 -1.4511508 -1.1583246 2.3509556e-38
2.9165373 -1.4175785 -1.1558385 2.3509558e-38
2.9151244 -1.4036142 -1.1566141 2.3509558e-38
2.9115214 -1.3720816 -1.158657 2.3509559e-38
2.9070327 -1.3441724 -1.1613829 2.3509561e-38
2.9098439 -1.3244832 -1.1590843 2.3509562e-38
2.9028292 -1.2788719 -1.1633127 2.3509563e-38
2.9027748 -1.259914 -1.1630497 2.3509563e-38
2.9016662 -1.2457734 -1.1636071 2.3509565e-38
2.8996758 -1.2133029 -1.1644968 2.3509566e-38
2.8970728 -1.1665655 -1.1655912 2.3509568e-38
2.8944759 -1.1521155 -1.1671951 2.3509569e-38
2.8953524 -1.1196022 -1.1660595 2.3509569e-38
2.8900414 -1.0735559 -1.1690772 2.350957e-38
2.889147 -1.0417827 -1.1692033 2.3509572e-38
2.8892758 -1.0263494 -1.1688673 2.3509573e-38
2.8872333 -1.0126555 -1.1700919 2.3509573e-38
2.8848231 -0.99819922 -1.171564 2.3509575e-38
2.8868599 -0.97917712 -1.1698228 2.3509576e-38
2.8849132 -0.95163029 -1.1707594 2.3509577e-38
2.8832507 -0.94379002 -1.171809 2.3509579e-38
2.8894587 -0.89186162 -1.1665986 2.3509579e-38
2.8857741 -0.85067946 -1.168546 2.350958e-38
2.8900642 -0.8128103 -1.1649137 2.3509582e-38
2.8888898 -0.79889488 -1.1655219 2.3509583e-38
2.8884385 -0.78360796 -1.1655973 2.3509584e-38
2.888869 -0.76657206 -1.1650221 2.3509584e-38
2.8884571 -0.75160283 -1.1650746 2.3509586e-38
2.8912303 -0.73192304 -1.1628034 2.3509587e-38
2.8899603 -0.69906026 -1.1631775 2.3509589e-38
2.8993182 -0.65872723 -1.1559274 2.3509589e-38
2.8969584 -0.62614316 -1.1570761 2.350959e-38
2.8951645 -0.61218053 -1.1581202 2.3509591e-38
2.8989363 -0.59245068 -1.1551425 2.3509593e-38
2.898562 -0.55935937 -1.1548808 2.3509594e-38
2.8940742 -0.51264066 -1.1573067 2.3509594e-38
2.8969572 -0.49339503 -1.1549644 2.3509596e-38
2.9002328 -0.47358698 -1.1523364 2.3509597e-38
2.894042 -0.42776525 -1.1559794 2.3509598e-38
2.8948684 -0.3932201 -1.1548462 2.35096e-38
2.89412 -0.36137146 -1.1548684 2.35096e-38
2.8908434 -0.34799281 -1.1569694 2.3509601e-38
2.8868799 -0.33478951 -1.1595581 2.3509603e-38
2.8875554 -0.30129698 -1.1585486 2.3509604e-38
2.8868794 -0.26841554 -1.1585026 2.3509604e-38
2.8850362 -0.23569927 -1.1592839 2.3509605e-38
2.8806722 -0.22259825 -1.1621574 2.3509607e-38
2.8809862 -0.20770915 -1.1616992 2.3509608e-38
2.8769624 -0.1733928 -1.1639948 2.350961e-38
2.875 -0.16139075 -1.1651897 2.350961e-38
2.8764365 -0.14544705 -1.1639216 2.3509611e-38
2.87779 -0.12852955 -1.1626968 2.3509612e-38
2.8733001 -0.096489079 -1.1653579 2.3509614e-38
2.8716159 -0.064144179 -1.1660328 2.3509614e-38
2.875597 -0.029528569 -1.1626706 2.3509615e-38
2.8734715 -0.015750024 -1.1639521 2.3509617e-38
2.8708129 0.030867584 -1.1650884 2.3509618e-38
2.874299 0.050729699 -1.1623101 2.3509619e-38
2.8722963 0.083209336 -1.163208 2.3509619e-38
2.8704181 0.1161126 -1.1640112 2.3509621e-38
2.8704815 0.13503106 -1.1636655 2.3509622e-38
2.8689964 0.14480977 -1.1645589 2.3509624e-38
2.8674667 0.16276142 -1.1653535 2.3509625e-38
2.8661616 0.17736486 -1.1660428 2.3509625e-38
2.8663673 0.22476378 -1.1651437 2.3509626e-38
2.8672795 0.25751829 -1.1639783 2.3509628e-38
2.8670321 0.30961397 -1.1633244 2.3509629e-38
2.8711987 0.3302258 -1.1600537 2.3509629e-38
2.8672166 0.36388507 -1.1623304 2.3509631e-38
2.868928 0.3954438 -1.16062 2.3509632e-38
2.8714972 0.43012324 -1.1582541 2.3509633e-38
2.8725781 0.48172167 -1.1566699 2.3509635e-38
2.8693836 0.49512127 -1.1587125 2.3509635e-38
2.8665748 0.50861937 -1.1604817 2.3509636e-38
2.8665428 0.55990452 -1.1596887 2.3509638e-38
2.8671885 0.57984793 -1.1589147 2.3509639e-38
2.8662088 0.59387153 -1.1593838 2.350964e-38
2.8628881 0.62621069 -1.1612148 2.350964e-38
2.8612533 0.65898025 -1.1618476 2.3509642e-38
2.8582225 0.67242157 -1.1637745 2.3509643e-38
2.8569822 0.70460021 -1.1641386 2.3509645e-38
2.8570187 0.73848838 -1.1635736 2.3509645e-38
2.8573794 0.78797418 -1.1625316 2.3509646e-38
2.8514652 0.81774622 -1.1662349 2.3509647e-38
2.8524308 0.83534884 -1.1652727 2.3509649e-38
2.8526242 0.87011427 -1.1645832 2.350965e-38
2.8532526 0.90346193 -1.1636088 2.350965e-38
2.8507285 0.9175387 -1.1651676 2.3509652e-38
2.8473754 0.92920959 -1.1673499 2.3509653e-38
2.8442795 0.93984157 -1.1693668 2.3509654e-38
2.8449874 0.95821273 -1.1685746 2.3509656e-38
2.8478475 0.97870427 -1.1662294 2.3509656e-38
2.8476014 0.99406588 -1.1661587 2.3509657e-38
2.8492503 1.0160658 -1.1646444 2.3509659e-38
2.8519611 1.0500953 -1.1621886 2.350966e-38
2.8510671 1.0638261 -1.1626016 2.350966e-38
2.848386 1.0989498 -1.1639361 2.3509661e-38
2.8476698 1.1121781 -1.1642315 2.3509663e-38
2.8474333 1.1364917 -1.1640117 2.3509664e-38
2.8434594 1.161701 -1.1664169 2.3509666e-38
2.8461177 1.1813514 -1.1642272 2.3509666e-38
2.8396945 1.2223574 -1.1681111 2.3509667e-38
2.8406196 1.2699958 -1.1667001 2.3509668e-38
2.8384399 1.3026265 -1.1677203 2.350967e-38
2.8392549 1.3125787 -1.1669863 2.3509671e-38
2.8408737 1.3368014 -1.1654575 2.3509671e-38
2.8373899 1.3695594 -1.1673965 2.3509673e-38
2.8380225 1.4176207 -1.1661859 2.3509674e-38
2.8340497 1.4342535 -1.1687269 2.3509675e-38
2.8321757 1.4803565 -1.1693168 2.3509675e-38
2.828485 1.5138183 -1.171391 2.3509677e-38
2.8295674 1.5318352 -1.1703396 2.3509678e-38
2.8268371 1.5626143 -1.1717786 2.350968e-38
2.8267651 1.5930976 -1.171344 2.3509681e-38
2.8335004 1.6179018 -1.1661932 2.3509681e-38
2.8353348 1.6526755 -1.1643448 2.3509682e-38
2.831656 1.6849232 -1.1664295 2.3509684e-38
2.8327785 1.7041816 -1.1653309 2.3509685e-38
2.8340898 1.7561452 -1.163578 2.3509685e-38
2.8293045 1.7686431 -1.1667588 2.3509687e-38
2.8271394 1.7922413 -1.1679122 2.3509688e-38
2.8249695 1.815964 -1.1690669 2.3509689e-38
2.8233423 1.8487355 -1.1696951 2.3509691e-38
2.8203526 1.8621873 -1.1715921 2.3509691e-38
2.8160071 1.8752929 -1.1744525 2.3509692e-38
2.810256 1.8880395 -1.1783116 2.3509694e-38
2.8111296 1.9203852 -1.1771799 2.3509695e-38
2.8115995 1.9405495 -1.176527 2.3509696e-38
2.8115864 1.9737252 -1.1760087 2.3509696e-38
2.8080604 2.0060115 -1.1779855 2.3509698e-38
2.8091674 2.0252662 -1.1768969 2.3509699e-38
2.8022983 2.0545421 -1.1812826 2.3509701e-38
2.8033807 2.0901623 -1.1799517 2.3509701e-38
2.800092 2.103538 -1.1820613 2.3509702e-38
2.805187 2.1224666 -1.1781621 2.3509703e-38
2.8055899 2.1571007 -1.1773267 2.3509705e-38
2.8098555 2.1771612 -1.1739953 2.3509706e-38
2.8125417 2.1959109 -1.1717999 2.3509706e-38
2.816535 2.1824927 -1.1691933 2.3509708e-38
2.8215466 2.1701047 -1.1658514 2.3509709e-38
2.8251331 2.1393943 -1.1638067 2.350971e-38
2.8287516 2.1251252 -1.1614786 2.3509712e-38
2.8423419 2.0506022 -1.1530666 2.3509712e-38
2.8451648 2.0162776 -1.1516187 2.3509713e-38
2.8500814 2.0019655 -1.1483746 2.3509715e-38
2.8486147 1.9818344 -1.1497302 2.3509716e-38
2.8498092 1.9665717 -1.1491299 2.3509716e-38
2.8516064 1.95197 -1.1480929 2.3509717e-38
2.8488111 1.885905 -1.1511173 2.3509719e-38
2.8527665 1.8526508 -1.1488535 2.350972e-38
2.8553286 1.8197744 -1.147567 2.3509722e-38
2.8551719 1.7721705 -1.1484349 2.3509722e-38
2.8540349 1.7191223 -1.1500818 2.3509723e-38
2.8558478 1.6674266 -1.1496235 2.3509724e-38
2.8572063 1.6273203 -1.149302 2.3509726e-38
2.860306 1.5935057 -1.1476512 2.3509727e-38
2.8643823 1.5575861 -1.145344 2.3509727e-38
2.864759 1.5362742 -1.1454165 2.3509729e-38
2.8636239 1.503477 -1.1467404 2.350973e-38
2.8678899 1.4752177 -1.1441765 2.3509731e-38
2.8716097 1.4424601 -1.1420712 2.3509731e-38
2.8634512 1.3801974 -1.1488227 2.3509733e-38
2.8642817 1.3566815 -1.1486104 2.3509734e-38
2.8664365 1.3375878 -1.1473925 2.3509736e-38
2.8681116 1.3219024 -1.1464591 2.3509737e-38
2.8748639 1.2921931 -1.1421635 2.3509737e-38
2.8742025 1.2446657 -1.1433866 2.3509738e-38
2.8763409 1.230571 -1.1421003 2.350974e-38
2.8765011 1.2129055 -1.1422687 2.3509741e-38
2.8737767 1.1815782 -1.144691 2.3509743e-38
2.8799465 1.1522193 -1.1408007 2.3509743e-38
2.8851204 1.1295252 -1.1375079 2.3509744e-38
2.8763137 1.0952954 -1.1442719 2.3509745e-38
2.8821294 1.0538316 -1.1408238 2.3509747e-38
2.8840175 1.041162 -1.1396924 2.3509747e-38
2.8837934 1.0220276 -1.1401551 2.3509748e-38
2.8801327 0.99945807 -1.1430993 2.350975e-38
2.8831863 0.97310424 -1.141362 2.3509751e-38
2.8839259 0.95875067 -1.1410677 2.3509752e-38
2.8818762 0.93925571 -1.1428254 2.3509752e-38
2.8869073 0.9113009 -1.1397173 2.3509754e-38
2.887615 0.89560086 -1.139467 2.3509755e-38
2.8865614 0.88342041 -1.1404049 2.3509757e-38
2.8929939 0.8460924 -1.136456 2.3509757e-38
2.8871813 0.81264883 -1.1410934 2.3509758e-38
2.9051328 0.75201875 -1.12938 2.3509759e-38
2.906599 0.73813957 -1.1285655 2.3509761e-38
2.9086909 0.72610444 -1.1272795 2.3509762e-38
2.9055066 0.69873393 -1.1299638 2.3509762e-38
2.9068346 0.67111003 -1.1294653 2.3509764e-38
2.9114113 0.6505881 -1.1265599 2.3509765e-38
2.9138882 0.59266132 -1.1257317 2.3509767e-38
2.912868 0.5805248 -1.1266454 2.3509768e-38
2.9125044 0.55099654 -1.1273717 2.3509768e-38
2.9104688 0.50354105 -1.1295645 2.3509769e-38
2.9114549 0.48827636 -1.1291109 2.3509771e-38
2.9133239 0.46605715 -1.1281444 2.3509772e-38
2.9153652 0.453888 -1.1268961 2.3509772e-38
2.9190152 0.44017279 -1.124537 2.3509774e-38
2.9189243 0.42383146 -1.1248611 2.3509775e-38
2.9146166 0.38707471 -1.1284876 2.3509776e-38
2.9159696 0.37245372 -1.1277651 2.3509778e-38
2.9188828 0.35539079 -1.1259787 2.3509778e-38
2.9197636 0.34009549 -1.1256005 2.3509779e-38
2.92256 0.32328391 -1.123893 2.3509781e-38
2.9229021 0.28797135 -1.1242135 2.3509782e-38
2.9219856 0.273249 -1.1250947 2.3509783e-38
2.9224226 0.26390427 -1.1249348 2.3509783e-38
2.9223719 0.25177461 -1.1251634 2.3509785e-38
2.9208796 0.22169074 -1.1266959 2.3509786e-38
2.9233351 0.20629701 -1.1252061 2.3509788e-38
2.9204013 0.17622077 -1.1277565 2.3509788e-38
2.9221852 0.16008653 -1.1267538 2.3509789e-38
2.9241104 0.14345664 -1.1256586 2.350979e-38
2.9263129 0.12819824 -1.1243457 2.3509792e-38
2.9255486 0.11948741 -1.1250243 2.3509793e-38
2.9256134 0.10836976 -1.1251554 2.3509793e-38
2.9212282 0.07763429 -1.1287411 2.3509795e-38
2.9232259 0.060420863 -1.1276039 2.3509796e-38
2.925638 0.044175975 -1.1261588 2.3509797e-38
2.924819 0.025409332 -1.1270362 2.3509799e-38
2.9253659 0.0064849053 -1.126951 2.3509799e-38
2.9231811 -0.021442998 -1.1289378 2.35098e-38
2.9250765 -0.063657053 -1.1282709 2.3509802e-38
2.9220765 -0.08691711 -1.1307596 2.3509803e-38
2.9228573 -0.10249934 -1.130456 2.3509803e-38
2.9256282 -0.14536493 -1.1291813 2.3509804e-38
2.931545 -0.1747389 -1.12547 2.3509806e-38
2.9333127 -0.18910739 -1.1244498 2.3509807e-38
2.9335945 -0.22878534 -1.1248823 2.3509809e-38
2.9350247 -0.2452282 -1.1241335 2.3509809e-38
2.9369738 -0.25907722 -1.1229774 2.350981e-38
2.9386399 -0.30650747 -1.1225553 2.3509811e-38
2.9370193 -0.33161312 -1.1240994 2.3509813e-38
2.9363811 -0.34921151 -1.1248301 2.3509814e-38
2.9389265 -0.37345847 -1.1234179 2.3509814e-38
2.938251 -0.38359869 -1.1240567 2.3509816e-38
2.9389267 -0.40080407 -1.1238531 2.3509817e-38
2.9398241 -0.41942555 -1.1235151 2.3509818e-38
2.9380512 -0.4312914 -1.1249563 2.3509818e-38
2.9405286 -0.46307442 -1.1237123 2.350982e-38
2.9406805 -0.47418463 -1.123782 2.3509821e-38
2.9335494 -0.52352321 -1.1296023 2.3509823e-38
2.9340475 -0.5380469 -1.129482 2.3509824e-38
2.9392664 -0.56840175 -1.1262788 2.3509824e-38
2.9417901 -0.5837003 -1.1247404 2.3509825e-38
2.9372439 -0.61457944 -1.1284418 2.3509827e-38
2.9398704 -0.6456793 -1.127082 2.3509828e-38
2.9392338 -0.6599254 -1.1277581 2.3509828e-38
2.9398203 -0.66875231 -1.1274844 2.350983e-38
2.9354444 -0.71882766 -1.1313708 2.3509831e-38
2.9378514 -0.75212508 -1.1302011 2.3509832e-38
2.9425859 -0.76602179 -1.1270784 2.3509834e-38
2.9413381 -0.78450412 -1.1282537 2.3509834e-38
2.9396164 -0.83360618 -1.1302502 2.3509835e-38
2.9375861 -0.86220884 -1.1321394 2.3509837e-38
2.9380155 -0.88046896 -1.1321266 2.3509838e-38
2.9361315 -0.92641538 -1.1341882 2.3509839e-38
2.9345028 -0.94741678 -1.1356719 2.3509839e-38
2.9380841 -0.97037578 -1.1335083 2.3509841e-38
2.9373817 -0.98924911 -1.134304 2.3509842e-38
2.9377761 -0.99817967 -1.1341683 2.3509844e-38
2.9385514 -1.0180634 -1.1339369 2.3509844e-38
2.9408979 -1.0340624 -1.132534 2.3509845e-38
2.9403639 -1.0597602 -1.1333203 2.3509846e-38
2.9435353 -1.0749497 -1.1313221 2.3509848e-38
2.9460363 -1.0949653 -1.1298742 2.3509849e-38
2.9469533 -1.106306 -1.1294073 2.3509849e-38
2.9515107 -1.1368104 -1.1266739 2.3509851e-38
2.9523227 -1.1637288 -1.1265287 2.3509852e-38
2.956553 -1.19179 -1.1239874 2.3509853e-38
2.9569788 -1.2500595 -1.1246139 2.3509855e-38
2.9572635 -1.276759 -1.1248376 2.3509855e-38
2.9584246 -1.3108538 -1.1245595 2.3509856e-38
2.9552498 -1.361873 -1.1276135 2.3509858e-38
2.9575949 -1.3791311 -1.1262319 2.3509859e-38
2.9568276 -1.4258698 -1.127517 2.3509859e-38
2.9573646 -1.441184 -1.1273814 2.350986e-38
2.9528966 -1.4741402 -1.1310613 2.3509862e-38
2.9527249 -1.4923809 -1.1314726 2.3509863e-38
2.9536405 -1.5141976 -1.1311728 2.3509865e-38
2.9556768 -1.5268264 -1.129936 2.3509865e-38
2.9565425 -1.5842214 -1.1302376 2.3509866e-38
2.9531128 -1.611387 -1.1330917 2.3509867e-38
2.9532518 -1.6303765 -1.1332955 2.3509869e-38
2.9510412 -1.6593599 -1.1353178 2.350987e-38
2.9506686 -1.6975282 -1.1361878 2.350987e-38
2.9504132 -1.7167666 -1.1366739 2.3509872e-38
2.9528232 -1.7321078 -1.1352162 2.3509873e-38
2.9566522 -1.7710655 -1.1331322 2.3509874e-38
2.9563229 -1.8099413 -1.1339831 2.3509874e-38
2.9553804 -1.8188549 -1.1347902 2.3509876e-38
2.9590058 -1.8535545 -1.1327822 2.3509877e-38
2.9649601 -1.8796177 -1.128992 2.3509879e-38
2.9676392 -1.8973184 -1.1273813 2.350988e-38
2.968318 -1.912589 -1.1271453 2.350988e-38
2.970139 -1.9675287 -1.1267331 2.3509881e-38
2.9689822 -1.9877423 -1.1278714 2.3509883e-38
2.9610853 -2.0310943 -1.134138 2.3509884e-38
