# .PCD v0.7 - Point Cloud Data file format
VERSION 0.7
FIELDS x y z rgb
SIZE 4 4 4 4
TYPE F F F F
COUNT 1 1 1 1
WIDTH 121
HEIGHT 1
VIEWPOINT 0 0 0 1 0 0 0
POINTS 121
DATA ascii
-2.7511168 0.95303613 0.58028275 2.3509528e-38
-2.775511 0.98806942 0.57880205 2.3509531e-38
-2.7952611 1.0298476 0.57734048 2.3509534e-38
-2.7961318 1.0625235 0.57667202 2.3509537e-38
-2.7946486 1.0795045 0.5763877 2.3509539e-38
-2.7828548 1.0852069 0.57665992 2.3509542e-38
-2.7405183 1.091427 0.57791674 2.3509545e-38
-2.6960244 1.0896765 0.5794 2.3509548e-38
-2.6831248 1.0943077 0.57972932 2.3509551e-38
-2.622381 1.1523557 0.58057034 2.3509554e-38
-2.6137948 1.1614705 0.58067137 2.3509558e-38
-2.5684645 1.196566 0.58145994 2.3509561e-38
-2.5640512 1.1817344 0.58189428 2.3509563e-38
-2.5631323 1.1760688 0.58203512 2.3509566e-38
-2.5636206 1.1652099 0.582232 2.3509569e-38
-2.5694447 1.1293474 0.5827449 2.3509572e-38
-2.5614271 1.0844462 0.58388555 2.3509575e-38
-2.5556617 1.0538747 0.58467221 2.3509577e-38
-2.5528581 1.0387945 0.58505893 2.350958e-38
-2.5427191 1.0147346 0.58586031 2.3509584e-38
-2.5493989 0.95931524 0.58672851 2.3509587e-38
-2.5501435 0.92312062 0.58741331 2.350959e-38
-2.5486755 0.90947789 0.58772832 2.3509593e-38
-2.547585 0.88597494 0.58822429 2.3509596e-38
-2.5488966 0.87729281 0.58835173 2.3509598e-38
-2.551513 0.85810739 0.58864236 2.3509601e-38
-2.5460019 0.81123245 0.58974004 2.3509604e-38
-2.5473363 0.77835172 0.59034085 2.3509607e-38
-2.5446765 0.74607545 0.59105963 2.3509611e-38
-2.5443375 0.73042661 0.59137726 2.3509614e-38
-2.5413053 0.69868422 0.59209782 2.3509617e-38
-2.5348914 0.66905659 0.5928871 2.3509619e-38
-2.532433 0.6371519 0.59359205 2.3509622e-38
-2.5325947 0.59695756 0.5943743 2.3509625e-38
-2.5338016 0.58657247 0.59453845 2.3509628e-38
-2.533462 0.55408245 0.59518594 2.3509631e-38
-2.5335286 0.52131915 0.59582561 2.3509633e-38
-2.5320401 0.48889345 0.59650928 2.3509636e-38
-2.5343311 0.47135681 0.59677827 2.350964e-38
-2.5330772 0.45558897 0.59712803 2.3509643e-38
-2.5310345 0.42330012 0.59782702 2.3509646e-38
-2.5285182 0.37709075 0.59881413 2.3509649e-38
-2.528013 0.35756841 0.59921306 2.3509652e-38
-2.5272181 0.34227365 0.59953856 2.3509654e-38
-2.5275581 0.32717401 0.5998233 2.3509657e-38
-2.5266197 0.31252354 0.60014087 2.350966e-38
-2.5257971 0.29388082 0.60053289 2.3509663e-38
-2.5227673 0.26228374 0.60125053 2.3509667e-38
-2.5272124 0.24350245 0.60147363 2.350967e-38
-2.528831 0.21063812 0.60206491 2.3509673e-38
-2.5231025 0.19310957 0.60259473 2.3509675e-38
-2.5226321 0.16335621 0.60319287 2.3509678e-38
-2.5196104 0.13004456 0.60394382 2.3509681e-38
-2.5200405 0.099421568 0.60452974 2.3509684e-38
-2.5267916 0.078974508 0.60471058 2.3509687e-38
-2.5215995 0.030532617 0.60582846 2.3509689e-38
-2.5136414 -0.013292811 0.60694623 2.3509694e-38
-2.5151227 -0.046812303 0.60755461 2.3509696e-38
-2.5134952 -0.078830339 0.60823482 2.3509699e-38
-2.5129964 -0.11174569 0.6088959 2.3509702e-38
-2.51824 -0.14634921 0.60940301 2.3509705e-38
-2.5086038 -0.1918468 0.6106081 2.3509708e-38
-2.5096316 -0.22544101 0.61123276 2.350971e-38
-2.5092289 -0.25830579 0.6118896 2.3509713e-38
-2.5101879 -0.28894117 0.61245865 2.3509716e-38
-2.5111618 -0.32514197 0.61313611 2.3509719e-38
-2.516135 -0.37662244 0.61398268 2.3509723e-38
-2.5423956 -0.37400663 0.61307621 2.3509726e-38
-2.5625691 -0.3647514 0.61223799 2.3509729e-38
-2.5787234 -0.36058813 0.61163032 2.3509731e-38
-2.5811212 -0.31262532 0.61061257 2.3509734e-38
-2.57482 -0.29284886 0.61043048 2.3509737e-38
-2.5720785 -0.25871307 0.60985106 2.350974e-38
-2.5799251 -0.21314658 0.60870284 2.3509743e-38
-2.5891957 -0.17052235 0.60756594 2.3509745e-38
-2.6242883 -0.13564999 0.60574001 2.350975e-38
-2.6869204 -0.12205381 0.60343421 2.3509752e-38
-2.7199745 -0.12311823 0.60237861 2.3509755e-38
-2.7514393 -0.10990191 0.60109508 2.3509758e-38
-2.7608182 -0.10895371 0.60077107 2.3509761e-38
-2.7639747 -0.10785981 0.60064679 2.3509764e-38
-2.7715814 -0.082491361 0.59990215 2.3509767e-38
-2.7675986 -0.045665041 0.59931046 2.3509769e-38
-2.7683468 -0.029886469 0.59897703 2.3509772e-38
-2.768369 -0.012948982 0.59864444 2.3509776e-38
-2.7729862 0.018211976 0.5978837 2.3509779e-38
-2.7746162 0.050324637 0.59720159 2.3509782e-38
-2.7751081 0.065377422 0.59689057 2.3509785e-38
-2.7758632 0.096900038 0.59624839 2.3509788e-38
-2.7723176 0.11740846 0.59596223 2.350979e-38
-2.7781091 0.16349234 0.59487087 2.3509793e-38
-2.7792802 0.2122266 0.59387803 2.3509796e-38
-2.7797141 0.24507883 0.59322041 2.3509799e-38
-2.7842257 0.26681069 0.59264767 2.3509802e-38
-2.7822022 0.29123905 0.59223497 2.3509806e-38
-2.7771096 0.31288621 0.59197682 2.3509809e-38
-2.7811997 0.37936082 0.59054136 2.3509811e-38
-2.7819288 0.4091827 0.58993351 2.3509814e-38
-2.7834411 0.42448005 0.58958453 2.3509817e-38
-2.7820795 0.45799851 0.58897221 2.350982e-38
-2.7789085 0.4771511 0.58870029 2.3509823e-38
-2.7812645 0.50891131 0.58800137 2.3509825e-38
-2.773623 0.52907735 0.58785522 2.3509828e-38
-2.7689004 0.56401384 0.5873245 2.3509832e-38
-2.7440238 0.57701015 0.58788007 2.3509835e-38
-2.7066183 0.57990247 0.58904147 2.3509838e-38
-2.6873355 0.57370442 0.58979076 2.3509841e-38
-2.6461859 0.56426036 0.59131587 2.3509844e-38
-2.5728142 0.6527366 0.59197187 2.3509846e-38
-2.5909312 0.72288454 0.59000778 2.3509849e-38
-2.6900795 0.73915261 0.58646035 2.3509852e-38
-2.6999617 0.73201984 0.58627832 2.3509855e-38
-2.7039204 0.73243606 0.58614129 2.3509859e-38
-2.7188916 0.74284458 0.58544981 2.3509862e-38
-2.7388339 0.76150453 0.58443481 2.3509865e-38
-2.7534461 0.77114362 0.58377022 2.3509867e-38
-2.7787988 0.79331434 0.58251023 2.350987e-38
-2.7912784 0.81745195 0.58163095 2.3509873e-38
-2.7922487 0.83453184 0.58126491 2.3509876e-38
-2.7851145 0.85310107 0.58113337 2.3509879e-38
-2.7731664 0.8661207 0.58126742 2.3509881e-38
