# .PCD v0.7 - Point Cloud Data file format
VERSION 0.7
FIELDS x y z rgb
SIZE 4 4 4 4
TYPE F F F F
COUNT 1 1 1 1
WIDTH 1034
HEIGHT 1
VIEWPOINT 0 0 0 1 0 0 0
POINTS 1034
DATA ascii
-2.4373696 1.4247949 -1.1762941 2.3509579e-38
-2.4380844 1.4690378 -1.1852959 2.3509579e-38
-2.438266 1.5244596 -1.2094716 2.3509579e-38
-2.4401731 1.5975161 -1.2111911 2.350958e-38
-2.4425845 1.6296213 -1.1834939 2.350958e-38
-2.4440351 1.6629655 -1.1737863 2.350958e-38
-2.4445374 1.6764605 -1.1713878 2.350958e-38
-2.445056 1.6964395 -1.1719136 2.350958e-38
-2.4458387 1.7276678 -1.1732266 2.3509582e-38
-2.4463482 1.7405715 -1.1704135 2.3509582e-38
-2.4471819 1.7757444 -1.1727664 2.3509582e-38
-2.447284 1.7945905 -1.1802609 2.3509582e-38
-2.4478934 1.8212302 -1.1824409 2.3509583e-38
-2.4480674 1.8274186 -1.1823617 2.3509583e-38
-2.4485281 1.8593686 -1.1898642 2.3509583e-38
-2.449111 1.8858259 -1.1924331 2.3509583e-38
-2.4494364 1.9181182 -1.2025517 2.3509583e-38
-2.4497998 1.9424553 -1.20804 2.3509584e-38
-2.4515615 1.9930587 -1.2012583 2.3509584e-38
-2.4528666 2.0232277 -1.1926074 2.3509584e-38
-2.4541028 2.0708423 -1.193849 2.3509584e-38
-2.4542611 2.0904808 -1.2007203 2.3509586e-38
-2.4553251 2.1355608 -1.2038145 2.3509586e-38
-2.4558332 2.149071 -1.2013234 2.3509586e-38
-2.4564645 2.1693571 -1.1999567 2.3509586e-38
-2.4570708 2.1813483 -1.1949378 2.3509587e-38
-2.4581795 2.2168465 -1.1924819 2.3509587e-38
-2.458858 2.2428455 -1.1930938 2.3509587e-38
-2.4590816 2.2510521 -1.1931174 2.3509587e-38
-2.45943 2.2639439 -1.1932057 2.3509587e-38
-2.4608634 2.2975562 -1.1839404 2.3509589e-38
-2.4625413 2.2691016 -1.1394939 2.3509589e-38
-2.4656775 2.2653482 -1.0809191 2.3509589e-38
-2.4668379 2.2689059 -1.0617027 2.3509589e-38
-2.4700351 2.2808273 -1.0097944 2.350959e-38
-2.4713154 2.2840817 -0.98825383 2.350959e-38
-2.473912 2.2858479 -0.94217342 2.350959e-38
-2.4749568 2.2868388 -0.92376995 2.350959e-38
-2.4757199 2.2862473 -0.90967435 2.3509591e-38
-2.4786925 2.3006532 -0.8630622 2.3509591e-38
-2.4804122 2.2974238 -0.83036131 2.3509591e-38
-2.481148 2.2973969 -0.81704342 2.3509591e-38
-2.4830959 2.2989719 -0.78259939 2.3509591e-38
-2.4838657 2.301878 -0.77011806 2.3509593e-38
-2.485765 2.3064117 -0.73801959 2.3509593e-38
-2.4873888 2.2989252 -0.70494097 2.3509593e-38
-2.4876177 2.2964537 -0.69958115 2.3509593e-38
-2.4889119 2.2903376 -0.67314649 2.3509594e-38
-2.4918427 2.3035402 -0.62668669 2.3509594e-38
-2.4925523 2.2935319 -0.6088987 2.3509594e-38
-2.4942977 2.2889888 -0.57508206 2.3509594e-38
-2.4960911 2.2884727 -0.54239607 2.3509594e-38
-2.4987471 2.2898445 -0.49504507 2.3509596e-38
-2.5009387 2.3002036 -0.46054476 2.3509596e-38
-2.5016441 2.3047426 -0.45003927 2.3509596e-38
-2.502321 2.3046966 -0.43777341 2.3509596e-38
-2.5032353 2.30123 -0.41952431 2.3509597e-38
-2.5058329 2.2986827 -0.37128866 2.3509597e-38
-2.507859 2.2946596 -0.33265346 2.3509597e-38
-2.5093305 2.2946086 -0.30601764 2.3509597e-38
-2.5102725 2.2989492 -0.29113328 2.3509598e-38
-2.5112743 2.2983143 -0.27270401 2.3509598e-38
-2.5118592 2.2989378 -0.2624377 2.3509598e-38
-2.5128615 2.2916656 -0.24070904 2.3509598e-38
-2.5163074 2.2993391 -0.18219461 2.3509598e-38
-2.5180097 2.2995436 -0.15151298 2.35096e-38
-2.5200648 2.3021009 -0.11561608 2.35096e-38
-2.5245585 2.306905 -0.036731735 2.35096e-38
-2.5279887 2.3005178 0.028462574 2.35096e-38
-2.5303717 2.3227313 0.060540423 2.3509601e-38
-2.5328734 2.3301625 0.10210542 2.3509601e-38
-2.533848 2.3215022 0.12402056 2.3509601e-38
-2.5355022 2.3188307 0.15525126 2.3509601e-38
-2.536283 2.3115969 0.17296128 2.3509603e-38
-2.5384479 2.3007262 0.21749543 2.3509603e-38
-2.5406475 2.3112416 0.25206542 2.3509603e-38
-2.5415497 2.3155742 0.2662313 2.3509603e-38
-2.5436127 2.3260343 0.29835498 2.3509603e-38
-2.5469956 2.3325195 0.35631537 2.3509604e-38
-2.5482326 2.3354671 0.37722492 2.3509604e-38
-2.5490167 2.3370976 0.39059782 2.3509604e-38
-2.5514672 2.3338633 0.43651229 2.3509604e-38
-2.5526068 2.3361773 0.45597333 2.3509605e-38
-2.5543652 2.3355601 0.48807943 2.3509605e-38
-2.5579956 2.3272536 0.55784386 2.3509605e-38
-2.5599246 2.3390546 0.58688122 2.3509605e-38
-2.560704 2.3405209 0.60024858 2.3509605e-38
-2.5622728 2.3437884 0.62699449 2.3509607e-38
-2.5632796 2.3415744 0.6463055 2.3509607e-38
-2.5639746 2.3401537 0.65957707 2.3509607e-38
-2.5649128 2.3355734 0.67880952 2.3509607e-38
-2.5654786 2.3322127 0.69070923 2.3509608e-38
-2.5669265 2.331126 0.71743059 2.3509608e-38
-2.5682387 2.3282175 0.74260408 2.3509608e-38
-2.5691304 2.3301561 0.75776607 2.3509608e-38
-2.5717394 2.3276234 0.80620211 2.350961e-38
-2.5735703 2.3224163 0.84188837 2.350961e-38
-2.5743618 2.3243043 0.85526985 2.350961e-38
-2.5769315 2.3136671 0.90700424 2.350961e-38
-2.5777395 2.316119 0.92040449 2.350961e-38
-2.5799031 2.3282685 0.9535107 2.3509611e-38
-2.5814795 2.3318038 0.98026544 2.3509611e-38
-2.5824969 2.3299341 0.99958777 2.3509611e-38
-2.586266 2.3466198 1.0594819 2.3509611e-38
-2.5868564 2.3301525 1.0783199 2.3509612e-38
-2.5884333 2.3191082 1.1123083 2.3509612e-38
-2.5928233 2.3100805 1.1961659 2.3509612e-38
-2.5935185 2.3153253 1.2061428 2.3509612e-38
-2.5965128 2.3270524 1.2544776 2.3509614e-38
-2.5973775 2.3328621 1.2672367 2.3509614e-38
-2.6002879 2.3418057 1.315436 2.3509614e-38
-2.601269 2.3512173 1.3285123 2.3509614e-38
-2.6039584 2.3827031 1.3615417 2.3509614e-38
-2.6049142 2.3866346 1.3768787 2.3509615e-38
-2.6064396 2.3791628 1.4081645 2.3509615e-38
-2.6071253 2.3659804 1.4271007 2.3509615e-38
-2.6075091 2.3424213 1.4457142 2.3509615e-38
-2.6074152 2.3320963 1.4491333 2.3509617e-38
-2.6070423 2.3218267 1.447474 2.3509617e-38
-2.6062584 2.3022461 1.4430041 2.3509617e-38
-2.6054349 2.2360044 1.46094 2.3509617e-38
-2.6034486 2.1467259 1.4692639 2.3509617e-38
-2.6012044 2.0914369 1.4560801 2.3509618e-38
-2.6008489 2.0725956 1.4589866 2.3509618e-38
-2.6005764 2.0590312 1.4607792 2.3509618e-38
-2.5999794 2.0395918 1.4596179 2.3509618e-38
-2.599622 2.0081782 1.4687238 2.3509619e-38
-2.5982127 1.9734447 1.4604483 2.3509619e-38
-2.597965 1.9662781 1.4595199 2.3509619e-38
-2.5969284 1.932955 1.4572901 2.3509619e-38
-2.5959551 1.8948978 1.4585453 2.3509621e-38
-2.594945 1.8602846 1.4574329 2.3509621e-38
-2.5946994 1.847434 1.4593598 2.3509621e-38
-2.5933151 1.8001451 1.4577622 2.3509621e-38
-2.5932269 1.7944448 1.4589934 2.3509621e-38
-2.593128 1.7875082 1.460641 2.3509622e-38
-2.5930383 1.7808235 1.4623314 2.3509622e-38
-2.5926774 1.7677138 1.4623015 2.3509622e-38
-2.592315 1.7545998 1.4622478 2.3509622e-38
-2.5919011 1.7343342 1.4648055 2.3509624e-38
-2.5917897 1.7160337 1.4718601 2.3509624e-38
-2.5911758 1.6965477 1.4704123 2.3509624e-38
-2.5907795 1.6833417 1.4697911 2.3509624e-38
-2.5904007 1.6701832 1.469463 2.3509625e-38
-2.589242 1.6365259 1.4651879 2.3509625e-38
-2.5888414 1.6198784 1.4661911 2.3509625e-38
-2.5884473 1.607866 1.465018 2.3509625e-38
-2.5881288 1.5961678 1.4650503 2.3509625e-38
-2.5880077 1.5913079 1.4652736 2.3509626e-38
-2.5871263 1.5506167 1.4694989 2.3509626e-38
-2.5866327 1.5362718 1.4676824 2.3509626e-38
-2.5859354 1.5102401 1.4679729 2.3509626e-38
-2.5855541 1.4891534 1.4715267 2.3509628e-38
-2.5848317 1.4708527 1.4675298 2.3509628e-38
-2.5845127 1.4127539 1.4905533 2.3509628e-38
-2.5842707 1.4012158 1.491899 2.3509628e-38
-2.5838056 1.3896985 1.489194 2.3509628e-38
-2.5827503 1.3609726 1.4843434 2.3509629e-38
-2.5825489 1.3530984 1.4846014 2.3509629e-38
-2.5818253 1.3208407 1.4874997 2.3509629e-38
-2.5811505 1.3009155 1.4851788 2.3509629e-38
-2.5809906 1.2947116 1.4853531 2.3509631e-38
-2.5805588 1.2788341 1.4854184 2.3509631e-38
-2.5799422 1.2486466 1.4892237 2.3509631e-38
-2.579289 1.2232943 1.4899765 2.3509631e-38
-2.5790427 1.2026694 1.4957448 2.3509632e-38
-2.5787561 1.1838562 1.4998858 2.3509632e-38
-2.5770609 1.1298655 1.4959841 2.3509632e-38
-2.5765493 1.1008899 1.5010933 2.3509632e-38
-2.5751934 1.0625901 1.4955527 2.3509632e-38
-2.5747702 1.0379848 1.5000938 2.3509633e-38
-2.5742815 1.0194905 1.5004213 2.3509633e-38
-2.5739577 1.0050781 1.5017093 2.3509633e-38
-2.5737932 1.0009804 1.5007644 2.3509633e-38
-2.5729368 0.97160381 1.4998341 2.3509635e-38
-2.5720606 0.94496411 1.4971905 2.3509635e-38
-2.5714068 0.92370921 1.4959024 2.3509635e-38
-2.5710282 0.90577155 1.497944 2.3509635e-38
-2.5707397 0.8919633 1.4995682 2.3509636e-38
-2.5706122 0.88607138 1.5001841 2.3509636e-38
-2.5698721 0.86613452 1.4966815 2.3509636e-38
-2.5693815 0.83914572 1.501183 2.3509636e-38
-2.5687089 0.81949973 1.4987519 2.3509636e-38
-2.5684757 0.81084096 1.4988258 2.3509638e-38
-2.5680263 0.79304636 1.4995167 2.3509638e-38
-2.5675678 0.77925813 1.4980571 2.3509638e-38
-2.5673048 0.77210253 1.4968501 2.3509638e-38
-2.5665321 0.73996627 1.4988033 2.3509639e-38
-2.5650206 0.69880778 1.4918648 2.3509639e-38
-2.5647876 0.69040334 1.4918172 2.3509639e-38
-2.5646913 0.68725389 1.4916333 2.3509639e-38
-2.5637581 0.64760989 1.4944086 2.3509639e-38
-2.5636456 0.63872004 1.4967736 2.350964e-38
-2.5635724 0.63347501 1.498054 2.350964e-38
-2.5633831 0.62388611 1.4993806 2.350964e-38
-2.5623896 0.59387273 1.4962863 2.350964e-38
-2.5622566 0.58728987 1.4971431 2.3509642e-38
-2.5619748 0.5726946 1.4992791 2.3509642e-38
-2.5616474 0.56115735 1.4990792 2.3509642e-38
-2.5608034 0.52745372 1.5005168 2.3509642e-38
-2.5599949 0.50130141 1.4988574 2.3509643e-38
-2.55985 0.49412131 1.499796 2.3509643e-38
-2.5594497 0.48090416 1.4991057 2.3509643e-38
-2.5591326 0.46791351 1.4998102 2.3509643e-38
-2.5583684 0.44679427 1.4964576 2.3509643e-38
-2.5569465 0.38844493 1.499657 2.3509645e-38
-2.5563862 0.36835158 1.4994783 2.3509645e-38
-2.5557806 0.34844628 1.4983969 2.3509645e-38
-2.5553582 0.33473498 1.4975523 2.3509645e-38
-2.5549612 0.31881687 1.4982612 2.3509646e-38
-2.5543303 0.2967867 1.4977714 2.3509646e-38
-2.5539351 0.28104052 1.4984194 2.3509646e-38
-2.5538974 0.28806043 1.4942657 2.3509646e-38
-2.553967 0.29986271 1.4896755 2.3509647e-38
-2.5550685 0.32838351 1.4954617 2.3509647e-38
-2.5554862 0.34808761 1.4932454 2.3509647e-38
-2.5556996 0.36723715 1.4876173 2.3509647e-38
-2.5569267 0.41267049 1.4872954 2.3509647e-38
-2.5570557 0.41943896 1.4862747 2.3509649e-38
-2.5572419 0.42778653 1.4855047 2.3509649e-38
-2.5578086 0.44091052 1.4892448 2.3509649e-38
-2.5580981 0.44728374 1.4913261 2.3509649e-38
-2.5588131 0.46362734 1.4961559 2.350965e-38
-2.5598042 0.50666565 1.4927517 2.350965e-38
-2.5602224 0.52013415 1.4936335 2.350965e-38
-2.5607824 0.54023564 1.4938053 2.350965e-38
-2.5613189 0.56507748 1.4911894 2.350965e-38
-2.5617185 0.58031315 1.4908699 2.3509652e-38
-2.5619678 0.59424663 1.4884782 2.3509652e-38
-2.5624838 0.60687912 1.4915441 2.3509652e-38
-2.5633328 0.65783203 1.4816478 2.3509652e-38
-2.5565407 0.6760208 1.3498117 2.3509653e-38
-2.5553975 0.65835398 1.3378875 2.3509653e-38
-2.5537541 0.61395937 1.3301744 2.3509653e-38
-2.5529523 0.58117515 1.3319165 2.3509653e-38
-2.5516431 0.54839236 1.32449 2.3509654e-38
-2.5511658 0.53338355 1.3232971 2.3509654e-38
-2.550323 0.48155671 1.3337284 2.3509654e-38
-2.5483928 0.41670218 1.330968 2.3509654e-38
-2.5480723 0.40685901 1.3300495 2.3509654e-38
-2.5454843 0.32074136 1.3259261 2.3509656e-38
-2.5452909 0.30241323 1.3315083 2.3509656e-38
-2.5434332 0.25401977 1.3218987 2.3509656e-38
-2.5433559 0.20518339 1.3447039 2.3509656e-38
-2.5428944 0.19180009 1.3429921 2.3509657e-38
-2.5425067 0.1786173 1.3425128 2.3509657e-38
-2.5420105 0.17166787 1.3369864 2.3509657e-38
-2.5414751 0.16445391 1.3308785 2.3509657e-38
-2.540463 0.1477536 1.3208499 2.3509657e-38
-2.5384727 0.075397834 1.3207129 2.3509659e-38
-2.538482 0.05116263 1.3328933 2.3509659e-38
-2.5391195 0.028046779 1.3558708 2.3509659e-38
-2.5384851 -0.01081625 1.3636571 2.3509659e-38
-2.5361223 -0.090765044 1.3605505 2.350966e-38
-2.5344038 -0.15654536 1.3620764 2.350966e-38
-2.5339534 -0.17075497 1.3609673 2.350966e-38
-2.5331221 -0.2222589 1.3714586 2.350966e-38
-2.5325274 -0.25395504 1.3764104 2.3509661e-38
-2.5302744 -0.30298129 1.3599663 2.3509661e-38
-2.5293369 -0.33582076 1.3592898 2.3509661e-38
-2.5291069 -0.36755079 1.3708504 2.3509661e-38
-2.5285249 -0.39983064 1.3763229 2.3509661e-38
-2.527581 -0.43567058 1.3770134 2.3509663e-38
-2.5256598 -0.47921789 1.3638519 2.3509663e-38
-2.524303 -0.51799953 1.3585334 2.3509663e-38
-2.522867 -0.56226444 1.3545067 2.3509663e-38
-2.5220695 -0.59513116 1.3563688 2.3509664e-38
-2.5212359 -0.62826246 1.3577138 2.3509664e-38
-2.5194509 -0.67573297 1.3489531 2.3509664e-38
-2.5183647 -0.70942777 1.3460121 2.3509664e-38
-2.5176666 -0.72318709 1.3402019 2.3509666e-38
-2.5164263 -0.75752646 1.3347894 2.3509666e-38
-2.5157011 -0.78790176 1.3367337 2.3509666e-38
-2.5152946 -0.80548155 1.3380895 2.3509666e-38
-2.5162966 -0.86296904 1.3847022 2.3509666e-38
-2.516644 -0.86719728 1.3930757 2.3509667e-38
-2.5199051 -0.89111388 1.4639056 2.3509667e-38
-2.5163999 -0.93907577 1.4242816 2.3509667e-38
-2.5117443 -1.003428 1.3719825 2.3509667e-38
-2.5168192 -1.0641772 1.4938579 2.3509668e-38
-2.5166578 -1.0707104 1.4941809 2.3509668e-38
-2.5155556 -1.1085618 1.4930079 2.3509668e-38
-2.5153551 -1.1166718 1.4933995 2.3509668e-38
-2.5147059 -1.1426451 1.49453 2.3509668e-38
-2.5143197 -1.1531019 1.4927262 2.350967e-38
-2.5142303 -1.1554313 1.4922663 2.350967e-38
-2.512876 -1.1969373 1.4883438 2.350967e-38
-2.5121007 -1.2310891 1.4912477 2.350967e-38
-2.5113258 -1.2616913 1.4923944 2.3509671e-38
-2.5100813 -1.3083426 1.4930071 2.3509671e-38
-2.5096066 -1.3229308 1.4916583 2.3509671e-38
-2.5089476 -1.3444719 1.4904174 2.3509671e-38
-2.5081959 -1.3749506 1.4919267 2.3509673e-38
-2.5069664 -1.4107116 1.4874094 2.3509673e-38
-2.5067804 -1.4162686 1.4868021 2.3509673e-38
-2.5064907 -1.4249279 1.4858563 2.3509673e-38
-2.5060687 -1.4378064 1.4846048 2.3509673e-38
-2.505878 -1.4429796 1.4837217 2.3509674e-38
-2.5056334 -1.4505215 1.4830351 2.3509674e-38
-2.5054085 -1.4571373 1.4822495 2.3509674e-38
-2.5046842 -1.4890523 1.4849631 2.3509674e-38
-2.5044458 -1.5098659 1.4909642 2.3509675e-38
-2.5039725 -1.5224383 1.4886358 2.3509675e-38
-2.5039644 -1.5226631 1.4886036 2.3509675e-38
-2.5037382 -1.5287635 1.48753 2.3509675e-38
-2.5034652 -1.5373192 1.4868398 2.3509677e-38
-2.5030413 -1.5501633 1.48554 2.3509677e-38
-2.5024476 -1.5750983 1.4871596 2.3509677e-38
-2.5023541 -1.5817815 1.4887745 2.3509677e-38
-2.502383 -1.5688342 1.4828824 2.3509677e-38
-2.5028396 -1.5554636 1.484517 2.3509678e-38
-2.5032773 -1.5421443 1.4858335 2.3509678e-38
-2.5041757 -1.500989 1.4816828 2.3509678e-38
-2.5041316 -1.4848449 1.4728844 2.3509678e-38
-2.4962029 -1.5031174 1.3385566 2.350968e-38
-2.4952857 -1.5388758 1.3396925 2.350968e-38
-2.4944799 -1.5531925 1.3322139 2.350968e-38
-2.4930699 -1.587834 1.3238822 2.350968e-38
-2.4914579 -1.6349386 1.3180761 2.350968e-38
-2.4908631 -1.6477511 1.3136743 2.3509681e-38
-2.4895031 -1.6840538 1.3070724 2.3509681e-38
-2.4890971 -1.7334499 1.3242069 2.3509681e-38
-2.4969461 -1.7248759 1.4618964 2.3509681e-38
-2.4976034 -1.7168832 1.4698187 2.3509682e-38
-2.5004339 -1.6545486 1.4901136 2.3509682e-38
-2.500963 -1.6340897 1.4895453 2.3509682e-38
-2.5016816 -1.6139073 1.4925393 2.3509682e-38
-2.501241 -1.628648 1.4918711 2.3509684e-38
-2.5007596 -1.6475241 1.492525 2.3509684e-38
-2.4998169 -1.6819911 1.492557 2.3509684e-38
-2.4994376 -1.6947105 1.4920028 2.3509684e-38
-2.4989533 -1.7070758 1.4893727 2.3509684e-38
-2.4980917 -1.7353213 1.4877874 2.3509685e-38
-2.4966729 -1.7749881 1.4817845 2.3509685e-38
-2.495986 -1.8011131 1.4823078 2.3509685e-38
-2.4958391 -1.8131599 1.4856261 2.3509685e-38
-2.4957647 -1.8202829 1.4878103 2.3509687e-38
-2.4954455 -1.839721 1.4916638 2.3509687e-38
-2.4952819 -1.8466055 1.4921229 2.3509687e-38
-2.49505 -1.8593643 1.4942529 2.3509687e-38
-2.4943686 -1.8815997 1.4929475 2.3509688e-38
-2.4915524 -1.9429193 1.4724083 2.3509688e-38
-2.4912665 -1.9615571 1.4764743 2.3509688e-38
-2.489639 -2.0211275 1.4765618 2.3509688e-38
-2.4893942 -2.0271544 1.4751195 2.3509688e-38
-2.4883132 -2.0554309 1.4695857 2.3509689e-38
-2.4866371 -2.0961761 1.4594703 2.3509689e-38
-2.4860895 -2.1164329 1.4596051 2.3509689e-38
-2.4848316 -2.1569917 1.4569572 2.3509689e-38
-2.4855239 -2.2036207 1.4925851 2.3509691e-38
-2.4826684 -2.2847371 1.4811444 2.3509691e-38
-2.4796083 -2.3481879 1.4572479 2.3509691e-38
-2.479017 -2.3812096 1.4629196 2.3509691e-38
-2.47644 -2.4311666 1.4410748 2.3509691e-38
-2.4748282 -2.4598873 1.4261618 2.3509692e-38
-2.474021 -2.4621584 1.4126885 2.3509692e-38
-2.4721611 -2.4637365 1.3798376 2.3509692e-38
-2.4715779 -2.4610381 1.3679488 2.3509692e-38
-2.4706583 -2.4415534 1.3416632 2.3509694e-38
-2.4695063 -2.4330778 1.3166362 2.3509694e-38
-2.4691467 -2.4316673 1.3094299 2.3509694e-38
-2.4689398 -2.4294682 1.3046031 2.3509694e-38
-2.4684989 -2.4262576 1.2950363 2.3509695e-38
-2.4664452 -2.4137959 1.2517227 2.3509695e-38
-2.4643745 -2.4115667 1.2131751 2.3509695e-38
-2.46152 -2.4198952 1.1656781 2.3509695e-38
-2.4571638 -2.4369984 1.0953772 2.3509695e-38
-2.456234 -2.4393497 1.0797266 2.3509696e-38
-2.455385 -2.4216671 1.055616 2.3509696e-38
-2.4545176 -2.4152663 1.0367584 2.3509696e-38
-2.4528267 -2.4079769 1.0025692 2.3509696e-38
-2.4501507 -2.4122825 0.95631224 2.3509698e-38
-2.4472167 -2.3931336 0.89376396 2.3509698e-38
-2.4452894 -2.3940554 0.85936838 2.3509698e-38
-2.4446769 -2.3958714 0.84918898 2.3509698e-38
-2.4407523 -2.424644 0.79247898 2.3509699e-38
-2.4404247 -2.4188144 0.78366327 2.3509699e-38
-2.4366436 -2.4168181 0.71429974 2.3509699e-38
-2.4319706 -2.4028509 0.62286925 2.3509699e-38
-2.4304364 -2.3828578 0.58522242 2.3509699e-38
-2.4289949 -2.3823321 0.55889553 2.3509701e-38
-2.426657 -2.3985145 0.52463508 2.3509701e-38
-2.4248977 -2.3971312 0.49213499 2.3509701e-38
-2.4224136 -2.3968136 0.44705635 2.3509701e-38
-2.4209881 -2.4069834 0.42631841 2.3509702e-38
-2.418611 -2.4007845 0.38026148 2.3509702e-38
-2.4175861 -2.3929613 0.35784894 2.3509702e-38
-2.4171133 -2.3916209 0.3486352 2.3509702e-38
-2.4153426 -2.3919899 0.31678975 2.3509702e-38
-2.4144197 -2.3917208 0.29997122 2.3509703e-38
-2.4127443 -2.3912904 0.26946461 2.3509703e-38
-2.4120085 -2.3900805 0.25555897 2.3509703e-38
-2.4110627 -2.3857651 0.23631705 2.3509703e-38
-2.4098327 -2.3803234 0.21137761 2.3509705e-38
-2.4078715 -2.3855193 0.17848383 2.3509705e-38
-2.4070745 -2.378345 0.16051789 2.3509705e-38
-2.4063828 -2.3756096 0.14665304 2.3509705e-38
-2.4060359 -2.3749723 0.140065 2.3509706e-38
-2.405359 -2.3732066 0.12694786 2.3509706e-38
-2.4034259 -2.3680611 0.08943665 2.3509706e-38
-2.4026167 -2.3681118 0.074832425 2.3509706e-38
-2.398669 -2.3786199 0.008653149 2.3509706e-38
-2.3985186 -2.3745961 0.0039357096 2.3509708e-38
-2.3973541 -2.3611155 -0.023801692 2.3509708e-38
-2.3961186 -2.3550715 -0.049137503 2.3509708e-38
-2.3942831 -2.343982 -0.08782839 2.3509708e-38
-2.3904643 -2.362139 -0.14788646 2.3509709e-38
-2.3895948 -2.3563364 -0.16648665 2.3509709e-38
-2.3885446 -2.3546395 -0.18631944 2.3509709e-38
-2.3876889 -2.3545809 -0.20182079 2.3509709e-38
-2.3852627 -2.3601422 -0.24293904 2.350971e-38
-2.3846433 -2.3587742 -0.25481647 2.350971e-38
-2.3839946 -2.3409352 -0.27539116 2.350971e-38
-2.3836522 -2.3365605 -0.28375071 2.350971e-38
-2.3778391 -2.3589492 -0.37777501 2.350971e-38
-2.3746088 -2.3474498 -0.44189131 2.3509712e-38
-2.3702908 -2.3442349 -0.52156967 2.3509712e-38
-2.3694673 -2.3505619 -0.53332698 2.3509712e-38
-2.3687961 -2.3487535 -0.54635876 2.3509712e-38
-2.3663356 -2.3580923 -0.58622587 2.3509713e-38
-2.3626513 -2.3469217 -0.65838504 2.3509713e-38
-2.3598609 -2.3449368 -0.70983142 2.3509713e-38
-2.3590231 -2.3459351 -0.72448838 2.3509713e-38
-2.3571439 -2.3497386 -0.75658768 2.3509713e-38
-2.3566673 -2.3496604 -0.76524383 2.3509715e-38
-2.3561583 -2.3467817 -0.77587402 2.3509715e-38
-2.3540716 -2.3488595 -0.81257749 2.3509715e-38
-2.3535116 -2.3502543 -0.82201082 2.3509715e-38
-2.3518283 -2.3555634 -0.84982246 2.3509716e-38
-2.351609 -2.3514118 -0.8558495 2.3509716e-38
-2.3510854 -2.3417974 -0.87008053 2.3509716e-38
-2.3493714 -2.3289065 -0.90745783 2.3509716e-38
-2.3475008 -2.3312111 -0.94014531 2.3509717e-38
-2.3462834 -2.3238251 -0.96582317 2.3509717e-38
-2.3432989 -2.3272953 -1.018075 2.3509717e-38
-2.3410928 -2.3170779 -1.0630324 2.3509717e-38
-2.3400981 -2.3166883 -1.0812144 2.3509717e-38
-2.3364067 -2.3274343 -1.1426387 2.3509719e-38
-2.3345459 -2.3523777 -1.1639341 2.3509719e-38
-2.4415007 0.42939043 -0.60831392 2.3509719e-38
-2.441843 0.43806088 -0.60641974 2.3509719e-38
-2.4435744 0.50922936 -0.61037791 2.350972e-38
-2.4447875 0.55541337 -0.6113292 2.350972e-38
-2.4447627 0.56531256 -0.61668229 2.350972e-38
-2.4462395 0.6305179 -0.62229103 2.350972e-38
-2.4467478 0.66472799 -0.63005149 2.3509722e-38
-2.4481735 0.69939363 -0.62144464 2.3509722e-38
-2.4484386 0.71789646 -0.62581551 2.3509722e-38
-2.4488153 0.73272157 -0.62635595 2.3509722e-38
-2.449434 0.76388949 -0.63061118 2.3509722e-38
-2.4520123 0.86365378 -0.63342828 2.3509723e-38
-2.452734 0.87755698 -0.62726724 2.3509723e-38
-2.4534342 0.89791006 -0.62468982 2.3509723e-38
-2.4538913 0.91178012 -0.62329668 2.3509723e-38
-2.4548285 0.94464868 -0.62263632 2.3509724e-38
-2.4554398 0.96572024 -0.62202388 2.3509724e-38
-2.4557812 0.9779368 -0.62190479 2.3509724e-38
-2.4553509 0.99274784 -0.63702732 2.3509724e-38
-2.4539216 1.009609 -0.671224 2.3509724e-38
-2.4569292 1.1224627 -0.67276341 2.3509726e-38
-2.4607441 1.1385252 -0.61173612 2.3509726e-38
-2.4622681 1.1309388 -0.58041614 2.3509726e-38
-2.4639022 1.1249712 -0.54791123 2.3509726e-38
-2.4647181 1.1276908 -0.53450209 2.3509727e-38
-2.4657695 1.1269934 -0.51514089 2.3509727e-38
-2.4673355 1.1301625 -0.48839819 2.3509727e-38
-2.468518 1.1333256 -0.46858078 2.3509727e-38
-2.4692218 1.1344948 -0.45643169 2.3509729e-38
-2.4704001 1.1364706 -0.43610156 2.3509729e-38
-2.4718616 1.1355519 -0.40921754 2.3509729e-38
-2.4721487 1.134418 -0.40346658 2.3509729e-38
-2.4728656 1.1328766 -0.38973922 2.3509729e-38
-2.4739892 1.1303933 -0.36818641 2.350973e-38
-2.4745767 1.1280806 -0.35641524 2.350973e-38
-2.4752822 1.1293653 -0.34429348 2.350973e-38
-2.4764245 1.1309595 -0.32442904 2.350973e-38
-2.4771485 1.12942 -0.31057167 2.3509731e-38
-2.4780712 1.1268926 -0.29263303 2.3509731e-38
-2.4790394 1.1288605 -0.27610081 2.3509731e-38
-2.4800284 1.1313257 -0.25943804 2.3509731e-38
-2.4808347 1.133708 -0.24604023 2.3509733e-38
-2.4818077 1.1399305 -0.23152597 2.3509733e-38
-2.4829376 1.1437857 -0.2130028 2.3509733e-38
-2.4837148 1.1451714 -0.19963804 2.3509733e-38
-2.4855723 1.1468508 -0.16687927 2.3509733e-38
-2.4869885 1.1445711 -0.14013761 2.3509734e-38
-2.4873469 1.1456962 -0.13421449 2.3509734e-38
-2.4881523 1.1480463 -0.12081769 2.3509734e-38
-2.4901202 1.152679 -0.087523527 2.3509734e-38
-2.4910586 1.1604085 -0.074385785 2.3509736e-38
-2.491936 1.1652255 -0.06090714 2.3509736e-38
-2.4955904 1.166584 0.0045070797 2.3509736e-38
-2.4972212 1.1604366 0.037043244 2.3509736e-38
-2.499094 1.1633704 0.069457039 2.3509736e-38
-2.500859 1.1726236 0.096788198 2.3509737e-38
-2.5053482 1.1785252 0.17504387 2.3509737e-38
-2.5056963 1.1918213 0.17475288 2.3509737e-38
-2.5079007 1.2623446 0.17966579 2.3509737e-38
-2.5083728 1.2714942 0.18367203 2.3509738e-38
-2.5088518 1.2811302 0.18755379 2.3509738e-38
-2.5099001 1.3435564 0.17558025 2.3509738e-38
-2.5098255 1.3782353 0.15704332 2.3509738e-38
-2.5093966 1.3897557 0.14358036 2.350974e-38
-2.5089123 1.3807209 0.13929842 2.350974e-38
-2.5086806 1.3727672 0.13905083 2.350974e-38
-2.5053034 1.3086748 0.10974035 2.350974e-38
-2.4990826 1.2310638 0.035704747 2.350974e-38
-2.4976935 1.2305603 0.010835424 2.3509741e-38
-2.4961698 1.2471168 -0.024924532 2.3509741e-38
-2.4956422 1.3137295 -0.067476571 2.3509741e-38
-2.4960136 1.3522542 -0.079850227 2.3509741e-38
-2.4973207 1.3921335 -0.075975612 2.3509743e-38
-2.4982295 1.4178667 -0.07229355 2.3509743e-38
-2.4985819 1.4267633 -0.070327505 2.3509743e-38
-2.4991441 1.4408751 -0.067155421 2.3509743e-38
-2.4995165 1.46211 -0.07094238 2.3509744e-38
-2.5001798 1.4874368 -0.07150209 2.3509744e-38
-2.5012538 1.5274284 -0.071895123 2.3509744e-38
-2.5020123 1.5596347 -0.074139908 2.3509744e-38
-2.5028317 1.6125553 -0.085548192 2.3509744e-38
-2.5089459 1.7063475 -0.021459937 2.3509745e-38
-2.5120885 1.6302655 0.073074847 2.3509745e-38
-2.512244 1.6105671 0.085645303 2.3509745e-38
-2.5133672 1.6005843 0.11090368 2.3509745e-38
-2.5141547 1.6013973 0.12474148 2.3509747e-38
-2.5180304 1.6494632 0.1710114 2.3509747e-38
-2.5183895 1.655494 0.17451422 2.3509747e-38
-2.5187788 1.6685133 0.17510439 2.3509747e-38
-2.5263164 1.7271969 0.28232968 2.3509747e-38
-2.5285044 1.6893313 0.34066242 2.3509748e-38
-2.5285609 1.633779 0.36921328 2.3509748e-38
-2.5263968 1.5850673 0.35421789 2.3509748e-38
-2.5250394 1.5646787 0.33977687 2.3509748e-38
-2.5258539 1.5714622 0.35114121 2.350975e-38
-2.5318623 1.5882328 0.4514842 2.350975e-38
-2.5352612 1.6019876 0.50613093 2.350975e-38
-2.5389061 1.5523717 0.59663421 2.350975e-38
-2.5385985 1.5359972 0.59918845 2.3509751e-38
-2.5354426 1.4545424 0.58248121 2.3509751e-38
-2.5350237 1.4402099 0.58200663 2.3509751e-38
-2.5346351 1.4274359 0.58131063 2.3509751e-38
-2.5348268 1.3733838 0.61156088 2.3509751e-38
-2.5338678 1.3223214 0.61952412 2.3509752e-38
-2.5323408 1.2919755 0.60694265 2.3509752e-38
-2.5301709 1.2618523 0.58263969 2.3509752e-38
-2.5277309 1.2464645 0.54613775 2.3509752e-38
-2.5251091 1.2301195 0.50682688 2.3509754e-38
-2.5225315 1.2302384 0.46015412 2.3509754e-38
-2.5199924 1.2464972 0.40618205 2.3509754e-38
-2.5189643 1.2326707 0.39443615 2.3509754e-38
-2.5165279 1.2013505 0.36590374 2.3509755e-38
-2.5180387 1.1996572 0.39406294 2.3509755e-38
-2.5200534 1.1981633 0.43123859 2.3509755e-38
-2.5216076 1.1881762 0.46429133 2.3509755e-38
-2.5239761 1.1706679 0.51579797 2.3509755e-38
-2.5245943 1.1668394 0.52887511 2.3509757e-38
-2.5255604 1.1634364 0.5480321 2.3509757e-38
-2.5276675 1.0767721 0.62907922 2.3509757e-38
-2.5272698 1.0632956 0.62856948 2.3509757e-38
-2.5247808 1.0156418 0.60716665 2.3509758e-38
-2.524302 0.99359101 0.60944426 2.3509758e-38
-2.523741 0.96552521 0.61320752 2.3509758e-38
-2.521894 0.91973406 0.60249633 2.3509758e-38
-2.521625 0.90234017 0.60625458 2.3509758e-38
-2.521673 0.84967154 0.63322002 2.3509759e-38
-2.5198977 0.80762792 0.62195456 2.3509759e-38
-2.5195394 0.79189992 0.62326759 2.3509759e-38
-2.5180738 0.75451338 0.61529088 2.3509759e-38
-2.5164344 0.72195101 0.60178381 2.3509761e-38
-2.5163069 0.70977402 0.60550958 2.3509761e-38
-2.515949 0.69150394 0.60809094 2.3509761e-38
-2.5156469 0.67666835 0.60998136 2.3509761e-38
-2.513859 0.62306261 0.60421228 2.3509762e-38
-2.5114391 0.59127331 0.57620525 2.3509762e-38
-2.5105271 0.58310467 0.56376117 2.3509762e-38
-2.5100741 0.57573289 0.55921876 2.3509762e-38
-2.5111961 0.53033102 0.60201359 2.3509762e-38
-2.51051 0.49619782 0.60651696 2.3509764e-38
-2.508811 0.44383955 0.60174227 2.3509764e-38
-2.5085006 0.42960477 0.60318309 2.3509764e-38
-2.5081756 0.41160733 0.60622406 2.3509764e-38
-2.5066841 0.36263782 0.60351974 2.3509765e-38
-2.5037835 0.31919965 0.57258952 2.3509765e-38
-2.5039985 0.28243834 0.59469861 2.3509765e-38
-2.5031419 0.23215204 0.60412663 2.3509765e-38
-2.5017593 0.20167652 0.59422427 2.3509767e-38
-2.5020633 0.18353292 0.6087119 2.3509767e-38
-2.5003855 0.11833692 0.61068088 2.3509767e-38
-2.4998162 0.085826278 0.61649728 2.3509767e-38
-2.4986353 0.053167515 0.61132836 2.3509767e-38
-2.4974716 0.02079276 0.60632694 2.3509768e-38
-2.497153 0.010694697 0.60556734 2.3509768e-38
-2.4961388 -0.027145848 0.60597849 2.3509768e-38
-2.4951744 -0.072593629 0.61106384 2.3509768e-38
-2.4945903 -0.093005337 0.61061221 2.3509769e-38
-2.4938867 -0.12394203 0.61322194 2.3509769e-38
-2.4933641 -0.13891165 0.61119145 2.3509769e-38
-2.49316 -0.14803202 0.612019 2.3509769e-38
-2.491487 -0.20383251 0.60941887 2.3509769e-38
-2.4911666 -0.21241669 0.60787791 2.3509771e-38
-2.4910538 -0.21871839 0.60895824 2.3509771e-38
-2.490742 -0.23277786 0.61028934 2.3509771e-38
-2.4900992 -0.2572062 0.61076891 2.3509771e-38
-2.4897053 -0.27100137 0.61048406 2.3509772e-38
-2.488426 -0.30995196 0.60665095 2.3509772e-38
-2.4870937 -0.3502568 0.60252953 2.3509772e-38
-2.4866815 -0.36453548 0.60215336 2.3509772e-38
-2.4863408 -0.37918189 0.60324466 2.3509774e-38
-2.4842005 -0.43366992 0.59154743 2.3509774e-38
-2.4838407 -0.48299283 0.60948187 2.3509774e-38
-2.4835074 -0.49737793 0.61058229 2.3509774e-38
-2.4833324 -0.50386548 0.61063373 2.3509774e-38
-2.4829848 -0.51693904 0.61082792 2.3509775e-38
-2.4819403 -0.55272478 0.60966527 2.3509775e-38
-2.4814534 -0.56434894 0.60662776 2.3509775e-38
-2.4805133 -0.58504176 0.59988767 2.3509775e-38
-2.4806948 -0.61493534 0.61797547 2.3509776e-38
-2.4767208 -0.69655573 0.58655691 2.3509776e-38
-2.4764538 -0.70780951 0.58730268 2.3509776e-38
-2.4748683 -0.79783702 0.60325098 2.3509776e-38
-2.4745357 -0.81221962 0.60435724 2.3509776e-38
-2.4724245 -0.87603742 0.59780949 2.3509778e-38
-2.4717972 -0.90877706 0.60268569 2.3509778e-38
-2.4700177 -0.95122927 0.59154892 2.3509778e-38
-2.4698989 -0.96941012 0.59840983 2.3509778e-38
-2.4698176 -0.9742704 0.59934652 2.3509779e-38
-2.4688148 -1.0195451 0.60365015 2.3509779e-38
-2.4683595 -1.0317574 0.60146081 2.3509779e-38
-2.4679387 -1.0470152 0.60141844 2.3509779e-38
-2.4676363 -1.055527 0.60017043 2.3509781e-38
-2.4667687 -1.0882803 0.60071528 2.3509781e-38
-2.4653282 -1.1232547 0.59198624 2.3509781e-38
-2.4635961 -1.1707425 0.58420545 2.3509781e-38
-2.463084 -1.2015476 0.59020364 2.3509781e-38
-2.4629974 -1.2087488 0.59221166 2.3509782e-38
-2.4626489 -1.2282658 0.59558117 2.3509782e-38
-2.4604821 -1.2795215 0.58179456 2.3509782e-38
-2.4602695 -1.3082602 0.59219277 2.3509782e-38
-2.4591739 -1.342129 0.58916479 2.3509783e-38
-2.4589868 -1.3554447 0.59238058 2.3509783e-38
-2.4588025 -1.3644221 0.59349501 2.3509783e-38
-2.4568422 -1.4267431 0.588925 2.3509783e-38
-2.4550426 -1.456548 0.57115775 2.3509785e-38
-2.454762 -1.4650812 0.57031041 2.3509785e-38
-2.4544485 -1.4897079 0.57683873 2.3509785e-38
-2.4541438 -1.5212481 0.5869624 2.3509785e-38
-2.4521096 -1.586292 0.58240926 2.3509785e-38
-2.4517744 -1.6008682 0.58357257 2.3509786e-38
-2.4458003 -1.6903486 0.51988202 2.3509786e-38
-2.4436991 -1.6968777 0.48512214 2.3509786e-38
-2.4430485 -1.6968815 0.47335216 2.3509786e-38
-2.4420948 -1.6940719 0.45471272 2.3509788e-38
-2.4413145 -1.6928594 0.43999985 2.3509788e-38
-2.4402134 -1.6926723 0.42000151 2.3509788e-38
-2.4381835 -1.6788752 0.37645614 2.3509788e-38
-2.4378157 -1.6793668 0.37004966 2.3509788e-38
-2.4364078 -1.6792121 0.34451169 2.3509789e-38
-2.4343605 -1.6853056 0.31051195 2.3509789e-38
-2.4326127 -1.6870465 0.27976394 2.3509789e-38
-2.4318607 -1.6837654 0.26454127 2.3509789e-38
-2.4305496 -1.6726956 0.23534591 2.350979e-38
-2.4301944 -1.6710548 0.22810967 2.350979e-38
-2.4293258 -1.6718879 0.21281503 2.350979e-38
-2.4250939 -1.6686106 0.13466386 2.350979e-38
-2.4240491 -1.6670423 0.11499254 2.3509792e-38
-2.4207664 -1.6675541 0.055879518 2.3509792e-38
-2.4196725 -1.6663196 0.035489216 2.3509792e-38
-2.4187355 -1.6658497 0.018311068 2.3509792e-38
-2.4180577 -1.6626468 0.0044658631 2.3509792e-38
-2.4162059 -1.6629345 -0.028878704 2.3509793e-38
-2.4153938 -1.6644492 -0.042813003 2.3509793e-38
-2.4136338 -1.6651225 -0.074303843 2.3509793e-38
-2.4095905 -1.6588655 -0.1505263 2.3509793e-38
-2.4092495 -1.6578646 -0.15718569 2.3509795e-38
-2.4083197 -1.6601429 -0.17287028 2.3509795e-38
-2.4075456 -1.6622949 -0.18580371 2.3509795e-38
-2.4041193 -1.654768 -0.25149646 2.3509795e-38
-2.4031308 -1.6536412 -0.26993102 2.3509796e-38
-2.4022441 -1.6553862 -0.28509903 2.3509796e-38
-2.4014957 -1.6543709 -0.29913113 2.3509796e-38
-2.4005101 -1.656697 -0.31580824 2.3509796e-38
-2.3988235 -1.6530082 -0.34813511 2.3509796e-38
-2.397872 -1.6552141 -0.36424756 2.3509797e-38
-2.3961668 -1.6522 -0.39657533 2.3509797e-38
-2.3927934 -1.6474224 -0.45994407 2.3509797e-38
-2.3919125 -1.6488588 -0.47516769 2.3509797e-38
-2.3880887 -1.6581554 -0.53970242 2.3509799e-38
-2.3870862 -1.6587837 -0.55752379 2.3509799e-38
-2.3862884 -1.657851 -0.57241327 2.3509799e-38
-2.3848426 -1.6440992 -0.60537261 2.3509799e-38
-2.3858933 -1.5307453 -0.64254737 2.3509799e-38
-2.3881445 -1.4632456 -0.63528711 2.35098e-38
-2.3889437 -1.4489249 -0.62792778 2.35098e-38
-2.3903491 -1.4267728 -0.61349159 2.35098e-38
-2.3907897 -1.4137383 -0.61198449 2.35098e-38
-2.3921316 -1.3790586 -0.60490578 2.3509802e-38
-2.3933089 -1.320704 -0.61253113 2.3509802e-38
-2.3941362 -1.288003 -0.61377871 2.3509802e-38
-2.3958209 -1.2357972 -0.60918266 2.3509802e-38
-2.3971605 -1.200156 -0.60261685 2.3509803e-38
-2.3983166 -1.1821339 -0.590644 2.3509803e-38
-2.3992257 -1.1556051 -0.58734989 2.3509803e-38
-2.3993328 -1.1386015 -0.59384215 2.3509803e-38
-2.3999591 -1.1055338 -0.59889501 2.3509803e-38
-2.4006464 -1.0858667 -0.59621829 2.3509804e-38
-2.4014606 -1.0593956 -0.59461021 2.3509804e-38
-2.4019182 -1.0413007 -0.59530246 2.3509804e-38
-2.4030585 -0.9763059 -0.60688883 2.3509804e-38
-2.4046869 -0.94463837 -0.5931325 2.3509806e-38
-2.4058111 -0.9245289 -0.58277476 2.3509806e-38
-2.4065037 -0.91225922 -0.57632822 2.3509806e-38
-2.4083085 -0.84792578 -0.57557076 2.3509806e-38
-2.4089949 -0.81674671 -0.5786078 2.3509807e-38
-2.4100246 -0.78530276 -0.57557088 2.3509807e-38
-2.4105566 -0.76420188 -0.57640958 2.3509807e-38
-2.4106045 -0.74612272 -0.58450067 2.3509807e-38
-2.4122317 -0.68912077 -0.58332348 2.3509807e-38
-2.4129813 -0.66121048 -0.58360022 2.3509809e-38
-2.4139726 -0.60914636 -0.59147 2.3509809e-38
-2.415868 -0.53691334 -0.59299117 2.3509809e-38
-2.4164302 -0.50326955 -0.59949619 2.3509809e-38
-2.4169092 -0.48983836 -0.59748954 2.350981e-38
-2.4174719 -0.4777247 -0.59331936 2.350981e-38
-2.417861 -0.47025257 -0.5899868 2.350981e-38
-2.4183118 -0.4607408 -0.5865466 2.350981e-38
-2.4194 -0.42101997 -0.58655185 2.350981e-38
-2.4199748 -0.40641934 -0.58338743 2.3509811e-38
-2.4203475 -0.37626711 -0.59159535 2.3509811e-38
-2.4209549 -0.3493697 -0.59393901 2.3509811e-38
-2.4218376 -0.32142732 -0.59182423 2.3509811e-38
-2.4223566 -0.30335188 -0.59139585 2.3509813e-38
-2.4227958 -0.27751675 -0.59625715 2.3509813e-38
-2.4231858 -0.25788718 -0.59893221 2.3509813e-38
-2.4235971 -0.24463925 -0.59805274 2.3509813e-38
-2.424139 -0.23103788 -0.59499949 2.3509814e-38
-2.4253957 -0.18969925 -0.59275931 2.3509814e-38
-2.4257066 -0.18319561 -0.59035915 2.3509814e-38
-2.4264486 -0.16664055 -0.58514738 2.3509814e-38
-2.4267325 -0.15313195 -0.58670688 2.3509814e-38
-2.4269378 -0.14598146 -0.58653581 2.3509816e-38
-2.4277387 -0.10798991 -0.59087902 2.3509816e-38
-2.4288332 -0.083352432 -0.58329237 2.3509816e-38
-2.4294138 -0.061871909 -0.58344126 2.3509816e-38
-2.4298654 -0.048799753 -0.58175546 2.3509817e-38
-2.4301281 -0.033141628 -0.58476269 2.3509817e-38
-2.431237 0.0095885396 -0.58588517 2.3509817e-38
-2.4325905 0.050120547 -0.58149374 2.3509817e-38
-2.4332955 0.070141107 -0.5786683 2.3509818e-38
-2.4341643 0.09676075 -0.57614815 2.3509818e-38
-2.4345584 0.11961775 -0.58034861 2.3509818e-38
-2.4347818 0.13532752 -0.58409238 2.3509818e-38
-2.434768 0.14414945 -0.58871257 2.3509818e-38
-2.4349499 0.19118315 -0.60873157 2.350982e-38
-2.4351733 0.20459497 -0.6113404 2.350982e-38
-2.4353511 0.21207961 -0.6118331 2.350982e-38
-2.436486 0.26187417 -0.61598486 2.350982e-38
-2.4380121 0.29083273 -0.60273933 2.3509821e-38
-2.4394352 0.33580536 -0.59928757 2.3509821e-38
-2.4398935 0.3446025 -0.59536111 2.3509821e-38
-2.4401245 0.35870486 -0.59817171 2.3509821e-38
-2.583662 1.4062784 1.4783832 2.3509821e-38
-2.5821676 1.3592677 1.4746487 2.3509823e-38
-2.5818365 1.3463092 1.4750865 2.3509823e-38
-2.580584 1.2936866 1.4785161 2.3509823e-38
-2.5800829 1.2663064 1.483022 2.3509823e-38
-2.5794668 1.240906 1.4844692 2.3509824e-38
-2.5790906 1.2282305 1.4839458 2.3509824e-38
-2.5788734 1.2155113 1.4863198 2.3509824e-38
-2.5782678 1.1888543 1.488575 2.3509824e-38
-2.5774159 1.162281 1.4863414 2.3509825e-38
-2.577086 1.1428143 1.4900186 2.3509825e-38
-2.5769095 1.1363444 1.4900383 2.3509825e-38
-2.5767503 1.1297739 1.4904147 2.3509825e-38
-2.5765624 1.1224351 1.4906551 2.3509825e-38
-2.576422 1.1167531 1.4909315 2.3509827e-38
-2.5762305 1.1044638 1.4935571 2.3509827e-38
-2.5759103 1.0907849 1.4945406 2.3509827e-38
-2.5757051 1.0833528 1.4945178 2.3509827e-38
-2.5752947 1.0701079 1.4936589 2.3509828e-38
-2.5745022 1.050137 1.4892269 2.3509828e-38
-2.5743906 1.0312648 1.4965611 2.3509828e-38
-2.5742881 1.0245446 1.4980315 2.3509828e-38
-2.573303 0.99240559 1.4961461 2.350983e-38
-2.5728142 0.97867471 1.4941143 2.350983e-38
-2.5719154 0.95100945 1.4915677 2.350983e-38
-2.5712814 0.93071628 1.49016 2.350983e-38
-2.5709069 0.90468812 1.4962845 2.350983e-38
-2.5700994 0.87932664 1.4942526 2.3509831e-38
-2.5698447 0.87110257 1.4937238 2.3509831e-38
-2.5687497 0.83817977 1.4902363 2.3509831e-38
-2.5680051 0.8054567 1.4929811 2.3509831e-38
-2.5675054 0.7881012 1.492551 2.3509832e-38
-2.5667853 0.75888532 1.4940058 2.3509832e-38
-2.5657651 0.73582929 1.4869835 2.3509832e-38
-2.5653284 0.71947271 1.4871907 2.3509832e-38
-2.5637286 0.67050338 1.4825258 2.3509832e-38
-2.5836594 1.434032 1.4645752 2.3509834e-38
-2.5839705 1.4499421 1.462323 2.3509834e-38
-2.5844836 1.4650642 1.4641005 2.3509834e-38
-2.5853398 1.5093727 1.4576325 2.3509834e-38
-2.5854678 1.515599 1.4568619 2.3509835e-38
-2.5859609 1.5279593 1.4596523 2.3509835e-38
-2.5863383 1.5388386 1.4610858 2.3509835e-38
-2.5872345 1.5877013 1.453079 2.3509835e-38
-2.5884366 1.6155744 1.4610046 2.3509837e-38
-2.589035 1.6402996 1.4595751 2.3509837e-38
-2.5893695 1.6537828 1.4589379 2.3509837e-38
-2.5901511 1.6763508 1.4618907 2.3509837e-38
-2.5910223 1.7041788 1.4638568 2.3509837e-38
-2.5912616 1.7274776 1.4566354 2.3509838e-38
-2.5924695 1.7664058 1.459188 2.3509838e-38
-2.5928338 1.7799268 1.459078 2.3509838e-38
-2.593251 1.806411 1.4534966 2.3509838e-38
-2.5933802 1.8131456 1.4524928 2.3509839e-38
-2.5934727 1.8191417 1.4511925 2.3509839e-38
-2.5936124 1.8319309 1.4473855 2.3509839e-38
-2.5936437 1.8381765 1.4448589 2.3509839e-38
-2.5938315 1.8471434 1.443812 2.3509841e-38
-2.5941703 1.8638529 1.4416509 2.3509841e-38
-2.5959375 1.913735 1.4488916 2.3509841e-38
-2.5962491 1.9263699 1.4482691 2.3509841e-38
-2.5971158 1.9516597 1.4514081 2.3509841e-38
-2.5973468 1.9589086 1.4519928 2.3509842e-38
-2.5980949 1.9774717 1.45632 2.3509842e-38
-2.5987768 2.0002832 1.4573514 2.3509842e-38
-2.5995321 2.0254934 1.4585104 2.3509842e-38
-2.5998292 2.0456238 1.453913 2.3509844e-38
-2.5999696 2.0581338 1.4502543 2.3509844e-38
-2.600266 2.0775077 1.4460058 2.3509844e-38
-2.6006336 2.0906363 1.4461515 2.3509844e-38
-2.6013362 2.1128798 1.4478317 2.3509844e-38
-2.6015689 2.1257684 1.4456547 2.3509845e-38
-2.6024485 2.174783 1.4372739 2.3509845e-38
-2.6030023 2.2062733 1.4316843 2.3509845e-38
-2.6048064 2.2675991 1.4339143 2.3509845e-38
-2.6049078 2.2800038 1.4296046 2.3509846e-38
-2.6026092 2.3294556 1.3635255 2.3509846e-38
-2.6001515 2.3267179 1.3204463 2.3509846e-38
-2.5951984 2.2116432 1.2878976 2.3509846e-38
-2.5945005 2.1786504 1.2916297 2.3509848e-38
-2.5934534 2.1518192 1.2859886 2.3509848e-38
-2.590754 2.0642428 1.280573 2.3509848e-38
-2.5890141 2.0178773 1.2720816 2.3509848e-38
-2.588361 1.9855181 1.2763065 2.3509848e-38
-2.5869439 1.948668 1.2689439 2.3509849e-38
-2.585722 1.8853045 1.2782512 2.3509849e-38
-2.5853834 1.8698255 1.2797927 2.3509849e-38
-2.5852051 1.8532103 1.284803 2.3509849e-38
-2.5841448 1.8057563 1.2891446 2.3509851e-38
-2.5838733 1.7883244 1.2928761 2.3509851e-38
-2.5816839 1.7270763 1.283636 2.3509851e-38
-2.580061 1.6734571 1.280858 2.3509851e-38
-2.5800486 1.6246173 1.3048333 2.3509852e-38
-2.5792894 1.6100123 1.2983474 2.3509852e-38
-2.5781915 1.5750847 1.2958035 2.3509852e-38
-2.5776138 1.5434144 1.3010454 2.3509852e-38
-2.5775061 1.5265219 1.3074696 2.3509852e-38
-2.5769198 1.4743392 1.3227288 2.3509853e-38
-2.5750668 1.4264734 1.3129393 2.3509853e-38
-2.5734406 1.3792241 1.3069409 2.3509853e-38
-2.5723116 1.3445622 1.3037044 2.3509853e-38
-2.5719552 1.3137908 1.3125123 2.3509855e-38
-2.5711341 1.2806004 1.3141084 2.3509855e-38
-2.5696406 1.2154043 1.319411 2.3509855e-38
-2.568836 1.2045567 1.3102372 2.3509855e-38
-2.5672705 1.1847005 1.2917651 2.3509855e-38
-2.5661132 1.161801 1.2821813 2.3509856e-38
-2.5653737 1.1616949 1.268859 2.3509856e-38
-2.5594106 1.0717703 1.2055877 2.3509856e-38
-2.5594466 1.023669 1.2300811 2.3509856e-38
-2.5606096 1.0068381 1.2594517 2.3509858e-38
-2.5612128 0.97326094 1.2869972 2.3509858e-38
-2.5612998 0.9418816 1.3041254 2.3509858e-38
-2.5610425 0.92217141 1.3092372 2.3509858e-38
-2.5592642 0.8743633 1.3007746 2.3509859e-38
-2.5579932 0.79110235 1.3190472 2.3509859e-38
-2.5573373 0.78020585 1.3125889 2.3509859e-38
-2.5559266 0.69306052 1.3302658 2.3509859e-38
-2.4740517 -2.412863 1.3888156 2.3509859e-38
-2.4775748 -2.3667233 1.4296622 2.350986e-38
-2.4788058 -2.3310895 1.4342624 2.350986e-38
-2.4792914 -2.312928 1.4340446 2.350986e-38
-2.4797053 -2.3021834 1.4362051 2.350986e-38
-2.4815531 -2.2636886 1.4505432 2.3509862e-38
-2.4817572 -2.2576411 1.4512378 2.3509862e-38
-2.4828165 -2.2168634 1.4501818 2.3509862e-38
-2.4831097 -2.1975801 1.4459267 2.3509862e-38
-2.4831016 -2.1673865 1.4308172 2.3509863e-38
-2.4850731 -2.1328218 1.4493457 2.3509863e-38
-2.4858713 -2.1049683 1.449975 2.3509863e-38
-2.4865263 -2.0803325 1.4496154 2.3509863e-38
-2.4871259 -2.0650649 1.452886 2.3509863e-38
-2.4877784 -2.0504448 1.4574463 2.3509865e-38
-2.4881597 -2.0413361 1.4598268 2.3509865e-38
-2.4891069 -2.0070374 1.4599608 2.3509865e-38
-2.4892998 -1.9980917 1.4590133 2.3509865e-38
-2.4905791 -1.9412215 1.4539695 2.3509866e-38
-2.4915025 -1.912306 1.4563339 2.3509866e-38
-2.4920437 -1.8974862 1.4587801 2.3509866e-38
-2.4924099 -1.8908026 1.4620889 2.3509866e-38
-2.4945304 -1.8298712 1.4702417 2.3509866e-38
-2.4951465 -1.7848275 1.4590614 2.3509867e-38
-2.4879336 -1.798008 1.3351607 2.3509867e-38
-2.4850974 -1.8421087 1.3057202 2.3509867e-38
-2.4843178 -1.85887 1.2999276 2.3509867e-38
-2.4828579 -1.9217224 1.3046757 2.3509869e-38
-2.4820035 -1.9347947 1.2957042 2.3509869e-38
-2.4785655 -1.9913344 1.2615485 2.3509869e-38
-2.4769182 -2.0647182 1.2681274 2.3509869e-38
-2.4771478 -2.0842984 1.2819834 2.350987e-38
-2.4765868 -2.1361368 1.2975242 2.350987e-38
-2.4750192 -2.1821787 1.2919964 2.350987e-38
-2.4744215 -2.1947408 1.2874084 2.350987e-38
-2.4732063 -2.2606266 1.2980841 2.350987e-38
-2.4703805 -2.3298345 1.2812798 2.3509872e-38
-2.4700768 -2.3457596 1.2836763 2.3509872e-38
-2.4697855 -2.3639054 1.2873991 2.3509872e-38
-2.4207957 0.44978172 -0.99283969 2.3509872e-38
-2.4235277 0.55466521 -0.9954071 2.3509873e-38
-2.4236774 0.56572694 -0.99818027 2.3509873e-38
-2.4211495 0.61700195 -1.069309 2.3509873e-38
-2.4155047 0.55341899 -1.1398795 2.3509873e-38
-2.414778 0.52659756 -1.1397282 2.3509874e-38
-2.4145517 0.50869685 -1.1349517 2.3509874e-38
-2.416065 0.4390322 -1.0730571 2.3509874e-38
-2.4521067 1.9726326 -1.1812752 2.3509874e-38
-2.4597156 2.0468163 -1.0804415 2.3509874e-38
-2.4614804 2.0452716 -1.0477623 2.3509876e-38
-2.4621434 2.0412223 -1.0337646 2.3509876e-38
-2.4569526 1.9050949 -1.0601796 2.3509876e-38
-2.4519193 1.9507606 -1.1738287 2.3509876e-38
-2.4787731 2.0762625 -0.75040543 2.3509877e-38
-2.4754813 2.0388494 -0.79139513 2.3509877e-38
-2.4742548 2.0233724 -0.80590314 2.3509877e-38
-2.4715106 1.8931159 -0.79097402 2.3509877e-38
-2.4735827 1.8922465 -0.75307488 2.3509877e-38
-2.4756999 1.9055972 -0.72140574 2.3509879e-38
-2.4774292 1.9051092 -0.68989456 2.3509879e-38
-2.4782031 1.9082689 -0.67746359 2.3509879e-38
-2.4818401 1.9499886 -0.6323691 2.3509879e-38
-2.4840562 2.0357554 -0.63479489 2.350988e-38
-2.4839585 2.0674303 -0.6522581 2.350988e-38
-2.466377 1.9307177 -0.9024452 2.350988e-38
-2.4737017 2.0405142 -0.82439816 2.350988e-38
-2.4695506 2.0599463 -0.9090963 2.3509881e-38
-2.4232709 0.29979664 -0.87375516 2.3509881e-38
-2.4242942 0.39724582 -0.90353912 2.3509881e-38
-2.4214292 0.43110523 -0.97213155 2.3509881e-38
-2.4146752 0.35535157 -1.0567253 2.3509881e-38
-2.4144163 0.29528788 -1.0316418 2.3509883e-38
-2.4143324 0.26819402 -1.0197334 2.3509883e-38
-2.4168267 0.23786852 -0.95959705 2.3509883e-38
-2.4177175 0.23972988 -0.94441521 2.3509883e-38
-2.5068433 -1.4039701 1.481841 2.3509884e-38
-2.5000265 -1.3910637 1.3521793 2.3509884e-38
-2.4986763 -1.4250118 1.3445888 2.3509884e-38
-2.5050426 -1.4573538 1.4757379 2.3509884e-38
-2.3119795 -2.3109894 -1.0540665 2.3509528e-38
-2.3001833 -2.3098495 -1.074921 2.3509528e-38
-2.2814593 -2.3093634 -1.0778463 2.3509528e-38
-2.2638435 -2.3088384 -1.0821544 2.350953e-38
-2.2257609 -2.3081911 -1.0803418 2.350953e-38
-2.1851046 -2.3072901 -1.083186 2.3509531e-38
-2.1767421 -2.3071945 -1.0817342 2.3509531e-38
-2.1363344 -2.3066013 -1.0776651 2.3509532e-38
-2.1017442 -2.3060386 -1.0754402 2.3509532e-38
-2.0556033 -2.3049214 -1.0808305 2.3509534e-38
-2.0456159 -2.3047323 -1.0807983 2.3509534e-38
-1.9678234 -2.3034344 -1.0765344 2.3509535e-38
-1.9539077 -2.3029346 -1.0818698 2.3509535e-38
-1.9173185 -2.3023767 -1.0786675 2.3509537e-38
-1.8755683 -2.3017373 -1.0750792 2.3509537e-38
-1.860978 -2.3013258 -1.0781028 2.3509538e-38
-1.8221889 -2.3006337 -1.077002 2.3509538e-38
-1.7724712 -2.2995887 -1.0791885 2.3509539e-38
-1.734897 -2.2990398 -1.0753587 2.3509539e-38
-1.6876702 -2.2979431 -1.0798091 2.3509541e-38
-1.6492267 -2.2974224 -1.0749464 2.3509541e-38
-1.5977978 -2.29635 -1.0770096 2.3509542e-38
-1.5568409 -2.2955091 -1.0783563 2.3509542e-38
-1.5119389 -2.2948062 -1.074847 2.3509544e-38
-1.5054319 -2.2946675 -1.0751733 2.3509544e-38
-1.4606245 -2.2937429 -1.0767603 2.3509545e-38
-1.4254777 -2.2931483 -1.0750121 2.3509545e-38
-1.3928626 -2.2925406 -1.0746875 2.3509547e-38
-1.3827796 -2.2922137 -1.0777333 2.3509547e-38
-1.3445122 -2.2916441 -1.0740747 2.3509548e-38
-1.312083 -2.2911372 -1.0715154 2.3509548e-38
-1.2165835 -2.2865105 -1.1354352 2.3509549e-38
-1.2015572 -2.2860305 -1.1398344 2.3509549e-38
-1.1829761 -2.2854202 -1.1456692 2.3509551e-38
-1.140564 -2.2839179 -1.1614463 2.3509551e-38
-1.0944365 -2.2842693 -1.1333603 2.3509552e-38
-1.0397277 -2.2831247 -1.1356596 2.3509552e-38
-0.98663676 -2.2821386 -1.1350336 2.3509554e-38
-0.97280908 -2.2821603 -1.1285206 2.3509554e-38
-0.96281409 -2.2821302 -1.1248572 2.3509555e-38
-0.89035934 -2.2829115 -1.0755305 2.3509555e-38
-0.85296041 -2.2825494 -1.0675044 2.3509556e-38
-0.83783728 -2.28227 -1.0672944 2.3509556e-38
-0.80611104 -2.2814355 -1.0725132 2.3509558e-38
-0.7662158 -2.2807961 -1.0697277 2.3509558e-38
-0.75155294 -2.2803185 -1.0742315 2.3509559e-38
-0.70916313 -2.2796142 -1.0718441 2.3509559e-38
-0.66477877 -2.2786739 -1.0739617 2.3509561e-38
-0.61525202 -2.2790611 -1.0435798 2.3509561e-38
-0.59205151 -2.2790101 -1.0346571 2.3509562e-38
-0.48816174 -2.2754538 -1.0705192 2.3509562e-38
-0.48085445 -2.2758505 -1.0582957 2.3509563e-38
-0.47367471 -2.2762656 -1.0457153 2.3509563e-38
-0.47239876 -2.2783344 -0.99800009 2.3509565e-38
-0.46659297 -2.2788219 -0.98434913 2.3509565e-38
-0.47102463 -2.2803311 -0.95187175 2.3509566e-38
-0.48078686 -2.2827847 -0.90019834 2.3509566e-38
-0.47689641 -2.2833035 -0.88669169 2.3509568e-38
-0.47908705 -2.2847772 -0.85404557 2.3509568e-38
-0.48218715 -2.2862654 -0.82146782 2.3509569e-38
-0.48875684 -2.2872286 -0.80236518 2.3509569e-38
-0.49117619 -2.2887063 -0.76973629 2.350957e-38
-0.48936093 -2.2906969 -0.72357458 2.350957e-38
-0.48504567 -2.2912083 -0.7100358 2.3509572e-38
-0.47187638 -2.2921507 -0.68282807 2.3509572e-38
-0.47715688 -2.2934935 -0.65450948 2.3509573e-38
-0.486251 -2.296134 -0.59828937 2.3509573e-38
-0.47244787 -2.2970672 -0.5710119 2.3509575e-38
-0.46090132 -2.2980473 -0.54364026 2.3509575e-38
-0.46130639 -2.2987525 -0.52774078 2.3509576e-38
-0.46279013 -2.3008964 -0.4795166 2.3509576e-38
-0.4639135 -2.3012671 -0.47155493 2.3509577e-38
-0.4655754 -2.3030157 -0.43241951 2.3509577e-38
-0.46985918 -2.303968 -0.41258106 2.3509579e-38
-0.47102213 -2.3046019 -0.39864081 2.3509579e-38
-0.47123635 -2.3066971 -0.35096961 2.350958e-38
-0.47401434 -2.3074038 -0.33605877 2.350958e-38
