# .PCD v0.7 - Point Cloud Data file format
VERSION 0.7
FIELDS x y z rgb
SIZE 4 4 4 4
TYPE F F F F
COUNT 1 1 1 1
WIDTH 243
HEIGHT 1
VIEWPOINT 0 0 0 1 0 0 0
POINTS 243
DATA ascii
-3.1110585 1.1034113 0.062100865 2.3509528e-38
-3.1126502 1.1376354 0.06758891 2.350953e-38
-3.1131394 1.1437186 0.074018136 2.3509531e-38
-3.1134338 1.1416759 0.083980098 2.3509532e-38
-3.1144407 1.132116 0.1208114 2.3509534e-38
-3.1157565 1.1280688 0.15989825 2.3509535e-38
-3.1160774 1.1294764 0.16688161 2.3509537e-38
-3.1174018 1.1382606 0.19249563 2.3509538e-38
-3.1179764 1.1387783 0.20713048 2.3509539e-38
-3.118598 1.1409428 0.22124092 2.3509541e-38
-3.1192491 1.1402061 0.23923583 2.3509542e-38
-3.119992 1.1428819 0.25600648 2.3509544e-38
-3.1197619 1.1351609 0.25817248 2.3509545e-38
-3.1192176 1.1211689 0.25875294 2.3509547e-38
-3.1170013 1.0575114 0.26821512 2.3509548e-38
-3.1151447 1.0146729 0.26494104 2.3509549e-38
-3.1141589 0.95940822 0.29795048 2.3509551e-38
-3.1141284 0.95344955 0.30351919 2.3509552e-38
-3.1174707 0.92891341 0.41806903 2.3509554e-38
-3.1170764 0.91623229 0.42120916 2.3509555e-38
-3.1150432 0.87645656 0.40999305 2.3509556e-38
-3.1120923 0.80719787 0.40602976 2.3509559e-38
-3.1115735 0.79321498 0.40726793 2.3509561e-38
-3.1098475 0.76388669 0.39299977 2.3509562e-38
-3.1063113 0.69421738 0.37401646 2.3509563e-38
-3.1041853 0.65510625 0.35962793 2.3509565e-38
-3.1030669 0.6315434 0.35526317 2.3509566e-38
-3.1025553 0.61807179 0.35613811 2.3509568e-38
-3.1020396 0.60472322 0.35677356 2.3509569e-38
-3.1009059 0.57250142 0.36125001 2.350957e-38
-3.1002338 0.55572438 0.36142659 2.3509572e-38
-3.1000285 0.46804264 0.44971931 2.3509573e-38
-3.1012335 0.47257668 0.47671458 2.3509575e-38
-3.1022604 0.47393951 0.50240225 2.3509576e-38
-3.1026695 0.47034591 0.51705039 2.3509577e-38
-3.1028402 0.467783 0.5243032 2.3509579e-38
-3.102843 0.45553705 0.53746718 2.350958e-38
-3.1012907 0.42109349 0.53326577 2.3509582e-38
-3.1005785 0.40025771 0.53670144 2.3509583e-38
-3.1001694 0.35691696 0.57221597 2.3509584e-38
-3.0996821 0.3266027 0.59173632 2.3509586e-38
-3.0994306 0.32024965 0.59188527 2.3509589e-38
-3.0972421 0.27671382 0.58058769 2.350959e-38
-3.096014 0.25474203 0.57161337 2.3509591e-38
-3.0953157 0.25481689 0.55307341 2.3509593e-38
-3.0888014 0.16703959 0.47473207 2.3509594e-38
-3.0885556 0.16102198 0.47468549 2.3509596e-38
-3.0899839 0.096303374 0.58159357 2.3509597e-38
-3.0866966 0.017446734 0.57900614 2.3509598e-38
-3.0864954 0.01154273 0.58000332 2.35096e-38
-3.0852301 -0.0048259869 0.56406188 2.3509601e-38
-3.0790088 -0.12933014 0.5327214 2.3509603e-38
-3.0791204 -0.14346486 0.55077749 2.3509604e-38
-3.0768616 -0.19024029 0.54107887 2.3509605e-38
-3.0757108 -0.20744759 0.52904969 2.3509607e-38
-3.07342 -0.256226 0.52065194 2.3509608e-38
-3.0726216 -0.281571 0.52664518 2.350961e-38
-3.0724368 -0.28971767 0.53046054 2.3509611e-38
-3.0717685 -0.30767131 0.5319894 2.3509612e-38
-3.0711985 -0.3234691 0.53381252 2.3509614e-38
-3.070642 -0.33888689 0.5355919 2.3509615e-38
-3.0678644 -0.41807151 0.54681277 2.3509618e-38
-3.0673854 -0.43599066 0.55331558 2.3509619e-38
-3.0662763 -0.4680438 0.55826318 2.3509621e-38
-3.0662913 -0.53147644 0.62646317 2.3509622e-38
-3.0633714 -0.59872323 0.62116432 2.3509624e-38
-3.0600712 -0.63413101 0.57179576 2.3509625e-38
-3.0596547 -0.6412347 0.56837612 2.3509626e-38
-3.0577211 -0.67964602 0.55834055 2.3509628e-38
-3.0564861 -0.73377711 0.58355749 2.3509629e-38
-3.0560441 -0.74583238 0.5847578 2.3509631e-38
-3.0544422 -0.79456711 0.59451973 2.3509632e-38
-3.0541484 -0.80622911 0.59922391 2.3509633e-38
-3.0538447 -0.8163166 0.60196751 2.3509635e-38
-3.0529768 -0.84560424 0.6103465 2.3509636e-38
-3.0510914 -0.88089317 0.59822851 2.3509638e-38
-3.0474913 -0.97433609 0.60296196 2.3509639e-38
-3.046212 -0.98866707 0.58447063 2.350964e-38
-3.0449541 -0.99892294 0.56218803 2.3509642e-38
-3.044358 -0.99816209 0.54562318 2.3509643e-38
-3.0440433 -0.99361759 0.53244984 2.3509645e-38
-3.0429983 -0.9875797 0.49837866 2.3509647e-38
-3.03949 -1.0161083 0.43616772 2.3509649e-38
-3.0389302 -1.024803 0.43065545 2.350965e-38
-3.0363884 -1.0050898 0.34240982 2.3509652e-38
-3.0318704 -1.0490873 0.27003661 2.3509653e-38
-3.0262949 -1.1022851 0.17955256 2.3509654e-38
-3.0230043 -1.2165148 0.21467924 2.3509656e-38
-3.0231144 -1.2324307 0.23461287 2.3509657e-38
-3.0228775 -1.241639 0.23818257 2.3509659e-38
-3.0218093 -1.2843198 0.25557533 2.350966e-38
-3.0216305 -1.3020126 0.26976052 2.3509661e-38
-3.0234597 -1.3372405 0.35575292 2.3509663e-38
-3.0236351 -1.3399471 0.36328653 2.3509664e-38
-3.0213804 -1.3855783 0.35247821 2.3509666e-38
-3.0206249 -1.402253 0.35032904 2.3509667e-38
-3.0185306 -1.4671898 0.364384 2.3509668e-38
-3.0173309 -1.4632891 0.3285163 2.350967e-38
-3.0159502 -1.4700496 0.29925275 2.3509671e-38
-3.0148394 -1.4737682 0.27387565 2.3509673e-38
-3.0133898 -1.4459381 0.20581034 2.3509674e-38
-3.0108435 -1.4680787 0.16218364 2.3509675e-38
-3.0068822 -1.5222392 0.11538975 2.3509678e-38
-3.0063407 -1.533779 0.11340951 2.350968e-38
-3.0013773 -1.6187469 0.073058374 2.3509681e-38
-2.9994938 -1.6572458 0.06443096 2.3509682e-38
-2.9991949 -1.6645328 0.064315401 2.3509684e-38
-2.9988985 -1.6716622 0.064106368 2.3509685e-38
-2.9977136 -1.7050138 0.068446591 2.3509687e-38
-2.9973772 -1.7084742 0.063254759 2.3509688e-38
-2.9943874 -1.725962 0.0029247925 2.3509689e-38
-2.9935827 -1.6689264 -0.079300515 2.3509691e-38
-2.9924407 -1.6709579 -0.10730717 2.3509692e-38
-2.9918346 -1.6710534 -0.12322362 2.3509694e-38
-2.9912322 -1.6703581 -0.13989323 2.3509695e-38
-2.9889832 -1.6724935 -0.19704257 2.3509696e-38
-2.9887068 -1.6673391 -0.20985785 2.3509698e-38
-2.9877639 -1.661817 -0.24067634 2.3509699e-38
-2.9864168 -1.6690855 -0.26850867 2.3509701e-38
-2.9855826 -1.6769551 -0.28214151 2.3509702e-38
-2.9837859 -1.657109 -0.3508434 2.3509703e-38
-2.9831882 -1.657356 -0.36636555 2.3509705e-38
-2.9802282 -1.6570117 -0.44496071 2.3509708e-38
-2.9795852 -1.6455574 -0.47421214 2.3509709e-38
-2.9777703 -1.640021 -0.52807975 2.350971e-38
-2.9772091 -1.6413157 -0.54153049 2.3509712e-38
-2.9765925 -1.643623 -0.55535591 2.3509713e-38
-2.9747994 -1.6597513 -0.58550417 2.3509715e-38
-2.970866 -1.6669387 -0.68176997 2.3509716e-38
-2.970706 -1.6531482 -0.70074368 2.3509717e-38
-2.9707546 -1.6476626 -0.70532036 2.3509719e-38
-2.9731944 -1.592981 -0.69929141 2.350972e-38
-2.9741509 -1.5721163 -0.69631743 2.3509722e-38
-2.9763327 -1.5135428 -0.70125937 2.3509723e-38
-2.9769433 -1.4925998 -0.70750648 2.3509724e-38
-2.9780896 -1.4673477 -0.70419979 2.3509726e-38
-2.979811 -1.4240468 -0.70499098 2.3509727e-38
-2.980315 -1.4056082 -0.7113837 2.3509729e-38
-2.9806483 -1.399689 -0.70891309 2.350973e-38
-2.9809463 -1.3942273 -0.70687425 2.3509731e-38
-2.982018 -1.3741602 -0.69999301 2.3509733e-38
-2.9838836 -1.3395554 -0.68767577 2.3509734e-38
-2.9846463 -1.3211048 -0.68723047 2.3509737e-38
-2.9859517 -1.2965002 -0.67904168 2.3509738e-38
-2.9877894 -1.2451079 -0.68540412 2.350974e-38
-2.9881051 -1.2338469 -0.68909627 2.3509741e-38
-2.9905348 -1.1782385 -0.68431485 2.3509743e-38
-2.9916029 -1.1493658 -0.68694741 2.3509744e-38
-2.9929323 -1.1122168 -0.69152671 2.3509745e-38
-2.9932871 -1.0999358 -0.69528353 2.3509747e-38
-2.9961634 -1.0444504 -0.67856747 2.3509748e-38
-2.9967349 -1.0306691 -0.67819601 2.350975e-38
-2.998054 -1.0019944 -0.67398858 2.3509751e-38
-2.999253 -0.97631961 -0.66974378 2.3509752e-38
-3.0012589 -0.95396465 -0.64062303 2.3509754e-38
-3.0022359 -0.94308025 -0.62644041 2.3509755e-38
-3.0036354 -0.94731939 -0.58492422 2.3509757e-38
-3.005583 -0.95687759 -0.52323484 2.3509758e-38
-3.0072162 -0.94868279 -0.48883423 2.3509759e-38
-3.0085659 -0.93814629 -0.46442848 2.3509761e-38
-3.0098152 -0.93896115 -0.4305349 2.3509762e-38
-3.011694 -0.94434565 -0.37512773 2.3509764e-38
-3.0131881 -0.93904781 -0.34130764 2.3509767e-38
-3.0147259 -0.9342761 -0.30577004 2.3509768e-38
-3.0150809 -0.93809962 -0.29229534 2.3509769e-38
-3.0153301 -0.94150192 -0.28207338 2.3509771e-38
-3.0171108 -0.94779611 -0.22828928 2.3509772e-38
-3.0177362 -0.95119131 -0.20813094 2.3509774e-38
-3.0183132 -0.95525867 -0.18854216 2.3509775e-38
-3.0209432 -0.95766139 -0.11645941 2.3509776e-38
-3.0223236 -0.95853597 -0.079039238 2.3509778e-38
-3.0224774 -0.97242564 -0.060132567 2.3509779e-38
-3.0263453 -0.96330053 0.03233321 2.3509781e-38
-3.0270538 -0.95953608 0.04703559 2.3509782e-38
-3.0279839 -0.95361668 0.065280147 2.3509783e-38
-3.0331442 -0.85511947 0.096376278 2.3509785e-38
-3.0349967 -0.81424832 0.10164996 2.3509786e-38
-3.0359802 -0.78822291 0.099823974 2.3509788e-38
-3.0367548 -0.76949048 0.10027611 2.3509789e-38
-3.0376518 -0.75139642 0.10463796 2.350979e-38
-3.0384767 -0.73049074 0.1040953 2.3509792e-38
-3.0388598 -0.71816903 0.10105579 2.3509793e-38
-3.039355 -0.70474076 0.099786617 2.3509795e-38
-3.0406263 -0.66698807 0.093030401 2.3509797e-38
-3.0419478 -0.63394225 0.092636377 2.3509799e-38
-3.0433931 -0.59273666 0.08679156 2.35098e-38
-3.0445714 -0.56830561 0.091817185 2.3509802e-38
-3.0456514 -0.5460884 0.096613765 2.3509803e-38
-3.048748 -0.46860409 0.095622323 2.3509804e-38
-3.0489802 -0.45001402 0.081900567 2.3509806e-38
-3.0504212 -0.42033535 0.088249631 2.3509807e-38
-3.0513728 -0.39748091 0.08897046 2.3509809e-38
-3.0519161 -0.38545039 0.090474904 2.350981e-38
-3.0528009 -0.36166108 0.088426493 2.3509811e-38
-3.0546479 -0.31275368 0.084966294 2.3509813e-38
-3.0552251 -0.30047894 0.087103903 2.3509814e-38
-3.0563622 -0.27078837 0.085414492 2.3509816e-38
-3.0569861 -0.25041038 0.080119528 2.3509817e-38
-3.0586202 -0.21652976 0.087099209 2.3509818e-38
-3.0602851 -0.17245349 0.083985336 2.350982e-38
-3.0608494 -0.15377446 0.078930415 2.3509821e-38
-3.0613692 -0.14022915 0.078189157 2.3509823e-38
-3.0625672 -0.1183252 0.086441927 2.3509824e-38
-3.0642962 -0.07999 0.091155477 2.3509827e-38
-3.0648401 -0.067766622 0.092473015 2.3509828e-38
-3.0654747 -0.055956796 0.096621022 2.350983e-38
-3.0660484 -0.044605806 0.099642791 2.3509831e-38
-3.0682304 0.020992517 0.087190427 2.3509832e-38
-3.0715978 0.10167098 0.089955412 2.3509834e-38
-3.0721035 0.11730677 0.086605228 2.3509835e-38
-3.0761847 0.21841009 0.086401738 2.3509837e-38
-3.0765615 0.2304087 0.083541617 2.3509838e-38
-3.0788679 0.27838853 0.093204305 2.3509839e-38
-3.0809669 0.32706255 0.096645646 2.3509841e-38
-3.0811534 0.33223259 0.09605018 2.3509842e-38
-3.0816979 0.34462684 0.097202152 2.3509844e-38
-3.0833552 0.3922644 0.090080738 2.3509845e-38
-3.0867612 0.47234738 0.094490059 2.3509846e-38
-3.0890484 0.52682167 0.096707366 2.3509848e-38
-3.0896368 0.55700648 0.080006018 2.3509849e-38
-3.0912724 0.59049135 0.087429442 2.3509851e-38
-3.0918305 0.60633034 0.085257158 2.3509852e-38
-3.0923781 0.61938989 0.085764043 2.3509853e-38
-3.0932183 0.64300948 0.082732409 2.3509856e-38
-3.0935025 0.65349382 0.079036519 2.3509858e-38
-3.0940034 0.66730392 0.077513829 2.3509859e-38
-3.0946212 0.68598008 0.073877484 2.350986e-38
-3.097461 0.75441879 0.075766392 2.3509862e-38
-3.0985029 0.78054774 0.075381353 2.3509863e-38
-3.0997658 0.80838287 0.079002589 2.3509865e-38
-3.1008735 0.8345803 0.080276087 2.3509866e-38
-3.101397 0.84996653 0.077660583 2.3509867e-38
-3.1023898 0.88266093 0.068962708 2.3509869e-38
-3.1029534 0.89460486 0.071083881 2.350987e-38
-3.1036181 0.91010875 0.072086528 2.3509872e-38
-3.1042531 0.92315096 0.074923888 2.3509873e-38
-3.1053534 0.95075792 0.074495256 2.3509874e-38
-3.1058934 0.96512705 0.073401637 2.3509876e-38
-3.1065209 0.98028165 0.073788531 2.3509877e-38
-3.1070831 0.99320561 0.074837193 2.3509879e-38
-3.1081185 1.0235372 0.069776408 2.350988e-38
-3.1084902 1.0337968 0.068638623 2.3509881e-38
-3.1104565 1.0841709 0.066751726 2.3509883e-38
