# .PCD v0.7 - Point Cloud Data file format
VERSION 0.7
FIELDS x y z rgb
SIZE 4 4 4 4
TYPE F F F F
COUNT 1 1 1 1
WIDTH 66
HEIGHT 1
VIEWPOINT 0 0 0 1 0 0 0
POINTS 66
DATA ascii
1.4993566 2.7669373 -1.006525 2.3509528e-38
1.4684658 2.7500319 -1.0132573 2.3509532e-38
1.4754162 2.7321179 -1.0204687 2.3509538e-38
1.4912903 2.7211652 -1.0249004 2.3509544e-38
1.5025415 2.7155166 -1.027192 2.3509549e-38
1.5213614 2.7084422 -1.0300713 2.3509555e-38
1.555158 2.7079635 -1.0303293 2.3509561e-38
1.5749519 2.7042046 -1.0318787 2.3509566e-38
1.5974513 2.5831032 -1.0805812 2.350957e-38
1.5720756 2.5714037 -1.085232 2.3509576e-38
1.5592169 2.5667148 -1.0870913 2.3509582e-38
1.5486021 2.5620289 -1.0889534 2.3509587e-38
1.4773411 2.5597374 -1.0897348 2.3509593e-38
1.4538634 2.5640118 -1.0879717 2.3509598e-38
1.4422306 2.5577178 -1.0904779 2.3509604e-38
1.4397693 2.5449724 -1.095594 2.3509608e-38
1.4708245 2.5432529 -1.0963454 2.3509614e-38
1.4832897 2.547369 -1.0947163 2.3509619e-38
1.55118 2.5480182 -1.0945879 2.3509625e-38
1.5843737 2.5466976 -1.0951834 2.3509631e-38
1.6239647 2.5347648 -1.1000552 2.3509636e-38
1.6559314 2.5332522 -1.1007254 2.3509642e-38
1.6909699 2.5341265 -1.1004426 2.3509647e-38
1.7123998 2.5286021 -1.1027042 2.3509652e-38
1.7487662 2.5061164 -1.11181 2.3509657e-38
1.8073398 2.5051236 -1.112323 2.3509663e-38
1.8227253 2.5047369 -1.1125085 2.3509668e-38
1.8594382 2.5133412 -1.109123 2.3509674e-38
1.9026462 2.5129702 -1.1093566 2.350968e-38
1.9174414 2.5128415 -1.109437 2.3509685e-38
1.9442947 2.5102382 -1.1105356 2.3509689e-38
1.9594989 2.5145044 -1.1088512 2.3509695e-38
1.9877965 2.5252252 -1.1045988 2.3509701e-38
2.003505 2.526067 -1.1042912 2.3509706e-38
2.0335076 2.5208409 -1.1064496 2.3509712e-38
2.0608573 2.5230601 -1.1056113 2.3509717e-38
2.0770018 2.5207026 -1.1065902 2.3509723e-38
2.1053224 2.515964 -1.1085494 2.3509727e-38
2.1460919 2.5443373 -1.0972286 2.3509733e-38
2.1809752 2.5919907 -1.0781496 2.3509738e-38
2.1541791 2.6002274 -1.0747877 2.3509744e-38
2.1345913 2.6091998 -1.0711443 2.350975e-38
2.1121836 2.61426 -1.0690674 2.3509755e-38
2.0965197 2.6124928 -1.069747 2.3509761e-38
2.0764503 2.6113338 -1.0701735 2.3509767e-38
2.0360258 2.6049924 -1.0726423 2.3509771e-38
1.9866971 2.5928946 -1.0774071 2.3509776e-38
1.9569806 2.5987225 -1.0750074 2.3509782e-38
1.9244311 2.6004286 -1.0742583 2.3509788e-38
1.8883198 2.5961049 -1.0759251 2.3509793e-38
1.8669108 2.600847 -1.0739777 2.3509799e-38
1.8338469 2.6009617 -1.0738672 2.3509804e-38
1.8117741 2.6047335 -1.0723085 2.3509809e-38
1.7537123 2.6043634 -1.0723438 2.3509814e-38
1.7423936 2.602879 -1.0729182 2.350982e-38
1.708642 2.6018729 -1.0732565 2.3509825e-38
1.6702225 2.714165 -1.0280626 2.3509831e-38
1.7099843 2.7731895 -1.0044241 2.3509837e-38
1.7182759 2.7770503 -1.002889 2.3509842e-38
1.732855 2.786195 -0.9992432 2.3509846e-38
1.7480578 2.7923412 -0.99680328 2.3509852e-38
1.7175337 2.7969942 -0.99487406 2.3509858e-38
1.7138439 2.7918606 -0.99692965 2.3509863e-38
1.6230289 2.7646382 -1.0076903 2.3509869e-38
1.5678422 2.7670915 -1.0065968 2.3509874e-38
1.5541574 2.762562 -1.0083899 2.350988e-38
