# .PCD v0.7 - Point Cloud Data file format
VERSION 0.7
FIELDS x y z rgb
SIZE 4 4 4 4
TYPE F F F F
COUNT 1 1 1 1
WIDTH 250
HEIGHT 1
VIEWPOINT 0 0 0 1 0 0 0
POINTS 250
DATA ascii
-2.6486583 -0.83897042 -0.62177467 2.3509528e-38
-2.6472602 -0.85619259 -0.60228825 2.350953e-38
-2.646848 -0.84887326 -0.58848834 2.3509531e-38
-2.6463606 -0.84114552 -0.57278711 2.3509532e-38
-2.6442506 -0.82738346 -0.51757455 2.3509534e-38
-2.6426795 -0.83345163 -0.48704439 2.3509535e-38
-2.64182 -0.81273359 -0.45474786 2.3509537e-38
-2.6408443 -0.80316639 -0.42714196 2.3509538e-38
-2.6392741 -0.80551243 -0.39421409 2.3509539e-38
-2.6372221 -0.81163549 -0.35317793 2.3509541e-38
-2.6362491 -0.81549829 -0.33433893 2.3509542e-38
-2.6366649 -0.80433571 -0.33621052 2.3509544e-38
-2.6380978 -0.76126081 -0.3396984 2.3509545e-38
-2.6388164 -0.74107885 -0.34236905 2.3509547e-38
-2.6383686 -0.65807283 -0.27868003 2.3509548e-38
-2.6382916 -0.62365699 -0.25464964 2.3509549e-38
-2.6386707 -0.59243816 -0.24272296 2.3509551e-38
-2.6400058 -0.53711528 -0.23610958 2.3509552e-38
-2.6404936 -0.50554419 -0.22632483 2.3509554e-38
-2.6407924 -0.47777188 -0.21485963 2.3509555e-38
-2.641541 -0.44537446 -0.21025401 2.3509556e-38
-2.6423578 -0.42633715 -0.21581879 2.3509558e-38
-2.6427829 -0.41324747 -0.21665102 2.3509559e-38
-2.643487 -0.38669237 -0.21485904 2.3509561e-38
-2.6436918 -0.37886962 -0.21428186 2.3509562e-38
-2.6446509 -0.34660047 -0.21438509 2.3509563e-38
-2.6449385 -0.3329753 -0.21184671 2.3509565e-38
-2.6458521 -0.30000535 -0.21049902 2.3509566e-38
-2.6463137 -0.24968275 -0.18797073 2.3509568e-38
-2.6461291 -0.23466763 -0.17417806 2.3509569e-38
-2.647351 -0.20092091 -0.17907718 2.350957e-38
-2.6476617 -0.11860999 -0.13248554 2.3509572e-38
-2.6481507 -0.08662454 -0.12244985 2.3509573e-38
-2.648751 -0.069781326 -0.12469924 2.3509575e-38
-2.6510842 0.012578264 -0.1224332 2.3509576e-38
-2.652734 0.076766931 -0.11698092 2.3509577e-38
-2.6533196 0.092178613 -0.11982091 2.3509579e-38
-2.6549773 0.12419258 -0.13541245 2.350958e-38
-2.6558449 0.12388722 -0.15464407 2.3509582e-38
-2.6565597 0.12453191 -0.16990218 2.3509583e-38
-2.6575067 0.12790281 -0.18849277 2.3509584e-38
-2.6597519 0.14999819 -0.22340843 2.3509586e-38
-2.660497 0.16086349 -0.23269776 2.3509587e-38
-2.6623802 0.20525944 -0.24519783 2.3509589e-38
-2.6635158 0.23653057 -0.24981678 2.350959e-38
-2.6671622 0.33663327 -0.26485258 2.3509591e-38
-2.6676514 0.34946978 -0.26725811 2.3509593e-38
-2.6683521 0.36696228 -0.27128088 2.3509594e-38
-2.6689172 0.38302773 -0.27324328 2.3509596e-38
-2.6699903 0.47099128 -0.23970768 2.3509597e-38
-2.6701846 0.47944543 -0.23848438 2.35096e-38
-2.670522 0.50265181 -0.2308248 2.3509601e-38
-2.6708767 0.51450264 -0.23092085 2.3509603e-38
-2.6716208 0.53222823 -0.23574066 2.3509604e-38
-2.6720319 0.54501104 -0.23646784 2.3509605e-38
-2.6726835 0.56220257 -0.23960191 2.3509607e-38
-2.6739752 0.57818562 -0.25756848 2.3509608e-38
-2.6759279 0.61298889 -0.27782059 2.350961e-38
-2.6774843 0.69241542 -0.26042008 2.3509611e-38
-2.6778789 0.70517975 -0.26079646 2.3509612e-38
-2.6784596 0.74045753 -0.25064629 2.3509614e-38
-2.6790328 0.77333051 -0.24188358 2.3509615e-38
-2.6796277 0.78877324 -0.24491325 2.3509617e-38
-2.6813083 0.81737041 -0.26322696 2.3509618e-38
-2.6834147 0.83611786 -0.29726776 2.3509619e-38
-2.6864076 0.95370764 -0.28661665 2.3509621e-38
-2.6857095 0.97168541 -0.25963226 2.3509622e-38
-2.6860766 0.98626977 -0.25822657 2.3509624e-38
-2.6872475 1.0163119 -0.26441818 2.3509625e-38
-2.6885674 1.1302065 -0.21946919 2.3509626e-38
-2.688035 1.1324153 -0.20635659 2.3509628e-38
-2.6878474 1.1335169 -0.201527 2.3509629e-38
-2.6857808 1.1338992 -0.15594116 2.3509631e-38
-2.6851103 1.1345458 -0.14081919 2.3509632e-38
-2.6843786 1.1371967 -0.12304547 2.3509633e-38
-2.6830573 1.1348021 -0.095616557 2.3509635e-38
-2.6816545 1.1369499 -0.063444108 2.3509636e-38
-2.6809857 1.1371045 -0.048677213 2.3509638e-38
-2.6806519 1.1392379 -0.039972864 2.3509639e-38
-2.679101 1.1379174 -0.0068065003 2.350964e-38
-2.6784952 1.1384254 0.0068135262 2.3509642e-38
-2.6780558 1.1374053 0.01579123 2.3509643e-38
-2.6770899 1.1393455 0.038236924 2.3509645e-38
-2.6760755 1.1416838 0.062005054 2.3509646e-38
-2.674964 1.1468686 0.089751229 2.3509647e-38
-2.6740246 1.1452614 0.10931621 2.3509649e-38
-2.672482 1.14825 0.14509071 2.350965e-38
-2.6718783 1.1492599 0.15898827 2.3509652e-38
-2.6709917 1.1477516 0.17746529 2.3509653e-38
-2.6707509 1.1470828 0.1823079 2.3509654e-38
-2.6697919 1.1500283 0.20525645 2.3509656e-38
-2.6689551 1.1501697 0.22370782 2.3509657e-38
-2.668288 1.1490927 0.2376377 2.3509659e-38
-2.6678207 1.1487651 0.24767628 2.350966e-38
-2.6660101 1.1437194 0.28412005 2.3509661e-38
-2.6652429 1.1391487 0.29798475 2.3509663e-38
-2.6650393 1.1375824 0.30142757 2.3509664e-38
-2.6596646 1.028934 0.34884036 2.3509666e-38
-2.6596489 1.012369 0.33843401 2.3509667e-38
-2.659107 0.9780553 0.32805547 2.3509668e-38
-2.6585426 0.97276592 0.33700493 2.3509671e-38
-2.6573527 0.96151525 0.35580218 2.3509673e-38
-2.6572413 0.96050501 0.3575955 2.3509674e-38
-2.6558208 0.94437045 0.37828186 2.3509675e-38
-2.6520288 0.8650201 0.40997371 2.3509677e-38
-2.6505187 0.83393592 0.42293382 2.3509678e-38
-2.6499879 0.82056367 0.42589885 2.350968e-38
-2.649205 0.80177969 0.43087754 2.3509681e-38
-2.6484363 0.78270072 0.43536672 2.3509682e-38
-2.6482341 0.77637672 0.43569744 2.3509684e-38
-2.6476202 0.76402044 0.44114506 2.3509685e-38
-2.6469607 0.74825656 0.44538456 2.3509687e-38
-2.6466382 0.74459064 0.45008242 2.3509688e-38
-2.6462092 0.73969328 0.45631558 2.3509689e-38
-2.6458912 0.74245012 0.46508104 2.3509691e-38
-2.6457226 0.74342895 0.46941727 2.3509692e-38
-2.6456852 0.74932832 0.474058 2.3509694e-38
-2.6457386 0.75523233 0.47672242 2.3509695e-38
-2.6416035 0.77997243 0.58347297 2.3509696e-38
-2.6408756 0.77509534 0.59629023 2.3509698e-38
-2.6417079 0.82556915 0.61078417 2.3509699e-38
-2.6423979 0.84336162 0.60719192 2.3509701e-38
-2.6444833 0.90539199 0.60169184 2.3509702e-38
-2.6457603 0.94813085 0.60141647 2.3509703e-38
-2.6461539 0.9623819 0.60202312 2.3509705e-38
-2.6472738 0.99891979 0.60116774 2.3509706e-38
-2.6473308 1.0014114 0.60154152 2.3509708e-38
-2.6476979 1.0219986 0.60684645 2.3509709e-38
-2.6483514 1.0417186 0.60529864 2.350971e-38
-2.6490564 1.0665222 0.6059283 2.3509712e-38
-2.6495759 1.081189 0.60404885 2.3509713e-38
-2.6500325 1.0895065 0.5994333 2.3509715e-38
-2.6513116 1.1039898 0.58077103 2.3509716e-38
-2.6538892 1.1462585 0.55165833 2.3509717e-38
-2.6541762 1.1361476 0.53880394 2.3509719e-38
-2.6557271 1.1236326 0.49665612 2.350972e-38
-2.6563711 1.1238254 0.48265329 2.3509722e-38
-2.6565518 1.123992 0.47879878 2.3509723e-38
-2.6579466 1.1281594 0.45090789 2.3509724e-38
-2.6583698 1.129567 0.44254366 2.3509726e-38
-2.6588671 1.130766 0.43241403 2.3509727e-38
-2.6602073 1.1314842 0.40347326 2.3509729e-38
-2.6621516 1.1417904 0.36750981 2.350973e-38
-2.6637864 1.1397765 0.33034182 2.3509731e-38
-2.6644211 1.1406034 0.31695437 2.3509733e-38
-2.6648743 1.1424307 0.30820242 2.3509734e-38
-2.6659999 1.150473 0.28872859 2.3509736e-38
-2.6668305 1.1496814 0.26999542 2.3509737e-38
-2.667094 1.1500261 0.26444244 2.3509738e-38
-2.667695 1.1504517 0.25152984 2.350974e-38
-2.6684718 1.1507504 0.23467787 2.3509743e-38
-2.6687555 1.1508539 0.22852954 2.3509744e-38
-2.6694541 1.1513553 0.21352988 2.3509745e-38
-2.6700954 1.1522363 0.20003021 2.3509747e-38
-2.6704748 1.1529293 0.1921666 2.3509748e-38
-2.6707089 1.1511378 0.18586138 2.350975e-38
-2.6720619 1.1506211 0.15584423 2.3509751e-38
-2.6728032 1.1504102 0.13944913 2.3509752e-38
-2.6736104 1.1510361 0.12214796 2.3509754e-38
-2.6754682 1.1494085 0.080339193 2.3509755e-38
-2.6760743 1.146855 0.065386802 2.3509757e-38
-2.6767483 1.1429566 0.048072167 2.3509758e-38
-2.6775956 1.1431497 0.029615536 2.3509759e-38
-2.6791358 1.1452931 -0.0027843937 2.3509761e-38
-2.6797488 1.1445881 -0.01668673 2.3509762e-38
-2.6815784 1.143701 -0.057398044 2.3509764e-38
-2.6824112 1.1418979 -0.076838322 2.3509765e-38
-2.6830127 1.1408175 -0.090734787 2.3509767e-38
-2.6839142 1.142797 -0.10921901 2.3509768e-38
-2.6841249 1.1424865 -0.1140464 2.3509769e-38
-2.6857717 1.148676 -0.14615506 2.3509771e-38
-2.6873121 1.1515384 -0.17808241 2.3509772e-38
-2.6885412 1.1511341 -0.20530587 2.3509774e-38
-2.6909201 1.1510344 -0.25756359 2.3509775e-38
-2.6929948 1.1498647 -0.30382109 2.3509776e-38
-2.69595 1.1580781 -0.3633306 2.3509778e-38
-2.6962609 1.1602846 -0.36871588 2.3509779e-38
-2.6967986 1.1570973 -0.38257986 2.3509781e-38
-2.6968825 1.1552819 -0.3855927 2.3509782e-38
-2.6971638 1.1490208 -0.39583361 2.3509783e-38
-2.7003732 1.144954 -0.46887052 2.3509785e-38
-2.7015767 1.1509501 -0.49137312 2.3509786e-38
-2.7036486 1.1500196 -0.53742713 2.3509788e-38
-2.704582 1.1285356 -0.57184887 2.3509789e-38
-2.7076263 1.1175883 -0.64573532 2.350979e-38
-2.7078099 1.102708 -0.65941828 2.3509792e-38
-2.7077749 1.0937994 -0.66443038 2.3509793e-38
-2.7077718 1.0874075 -0.66851079 2.3509795e-38
-2.7067239 1.0566494 -0.66547573 2.3509796e-38
-2.7051034 1.0120919 -0.6588378 2.3509797e-38
-2.7048035 0.9944874 -0.66368574 2.3509799e-38
-2.7034943 0.9655292 -0.65375233 2.35098e-38
-2.7027144 0.94344079 -0.6509828 2.3509802e-38
-2.7017078 0.89799595 -0.65838873 2.3509803e-38
-2.7014966 0.87926668 -0.66591769 2.3509804e-38
-2.7011483 0.87151706 -0.66330421 2.3509806e-38
-2.6996324 0.82981563 -0.6571061 2.3509807e-38
-2.6985681 0.78225559 -0.66462344 2.3509809e-38
-2.6985083 0.78014791 -0.66467583 2.350981e-38
-2.6970735 0.72889984 -0.6664539 2.3509811e-38
-2.6955497 0.68202603 -0.66344959 2.3509814e-38
-2.6945257 0.655047 -0.65849167 2.3509816e-38
-2.6938264 0.6204021 -0.66563553 2.3509817e-38
-2.6937397 0.61497891 -0.66724455 2.3509818e-38
-2.6913695 0.55865991 -0.65179956 2.350982e-38
-2.6903765 0.53171313 -0.6475026 2.3509821e-38
-2.6893027 0.50538671 -0.64103127 2.3509823e-38
-2.6880467 0.44024518 -0.65575194 2.3509824e-38
-2.6879721 0.43093827 -0.66014838 2.3509825e-38
-2.6877909 0.41767955 -0.66477549 2.3509827e-38
-2.6856382 0.37438774 -0.64565212 2.3509828e-38
-2.6841972 0.32945099 -0.64320147 2.350983e-38
-2.6839485 0.3146295 -0.6473524 2.3509831e-38
-2.6837778 0.27815959 -0.66727912 2.3509832e-38
-2.6826015 0.24677381 -0.66184062 2.3509834e-38
-2.6823235 0.2367101 -0.66226745 2.3509835e-38
-2.6808054 0.17204335 -0.67093164 2.3509837e-38
-2.679976 0.14835289 -0.66810942 2.3509838e-38
-2.6756144 0.049164332 -0.63679934 2.3509839e-38
-2.6756489 0.035205901 -0.64660913 2.3509841e-38
-2.675386 0.0034075901 -0.66148067 2.3509842e-38
-2.6737101 -0.042173564 -0.65428758 2.3509844e-38
-2.6710799 -0.10123464 -0.63492018 2.3509845e-38
-2.67065 -0.12954427 -0.64385492 2.3509846e-38
-2.6697066 -0.17480791 -0.65252739 2.3509848e-38
-2.6691802 -0.1921829 -0.65225857 2.3509849e-38
-2.6686411 -0.20988214 -0.65192211 2.3509851e-38
-2.6665308 -0.29420236 -0.6603446 2.3509852e-38
-2.6653886 -0.31166172 -0.64661288 2.3509853e-38
-2.6630981 -0.35850859 -0.6267702 2.3509855e-38
-2.6607168 -0.42221239 -0.61587238 2.3509856e-38
-2.6601927 -0.43851161 -0.61494994 2.3509858e-38
-2.6598697 -0.45176527 -0.61645973 2.3509859e-38
-2.6587789 -0.48011595 -0.61093211 2.350986e-38
-2.6579232 -0.52329665 -0.62018466 2.3509862e-38
-2.6573277 -0.5649358 -0.63413227 2.3509863e-38
-2.656297 -0.60531962 -0.63773382 2.3509865e-38
-2.6560879 -0.61924815 -0.64218068 2.3509866e-38
-2.6558712 -0.62544048 -0.64144379 2.3509867e-38
-2.6544862 -0.65042555 -0.62727237 2.3509869e-38
-2.6537633 -0.66868061 -0.62326747 2.350987e-38
-2.6525199 -0.72354114 -0.63158345 2.3509872e-38
-2.6522033 -0.73196709 -0.63010752 2.3509873e-38
-2.6516423 -0.74764323 -0.62797183 2.3509874e-38
-2.6508944 -0.7838918 -0.63508922 2.3509876e-38
-2.6506426 -0.80565274 -0.64369231 2.3509877e-38
-2.6499107 -0.82355011 -0.63924718 2.3509879e-38
-2.6702096 0.071354486 -0.503842 2.350988e-38
-2.6650229 -0.060020834 -0.47531068 2.3509881e-38
-2.6700168 -0.0459323 -0.57570559 2.3509883e-38
