# .PCD v0.7 - Point Cloud Data file format
VERSION 0.7
FIELDS x y z rgb
SIZE 4 4 4 4
TYPE F F F F
COUNT 1 1 1 1
WIDTH 52
HEIGHT 1
VIEWPOINT 0 0 0 1 0 0 0
POINTS 52
DATA ascii
-1.3119438 2.3657649 0.90247548 2.3509528e-38
-1.3018025 2.368243 0.89085782 2.3509534e-38
-1.288269 2.379885 0.84962481 2.3509541e-38
-1.2985427 2.3827772 0.84471303 2.3509548e-38
-1.3062977 2.384872 0.84127873 2.3509555e-38
-1.3345225 2.3949041 0.82134783 2.3509562e-38
-1.3504138 2.3960748 0.82394725 2.3509569e-38
-1.3640101 2.3972111 0.82575691 2.3509576e-38
-1.3755057 2.3980443 0.82768101 2.3509583e-38
-1.3896761 2.398062 0.83316839 2.350959e-38
-1.4101253 2.3995144 0.8366822 2.3509597e-38
-1.4529521 2.4061122 0.8330617 2.3509603e-38
-1.4735487 2.4080107 0.83525693 2.350961e-38
-1.5110099 2.4108429 0.84116429 2.3509617e-38
-1.5267894 2.4133098 0.83971977 2.3509624e-38
-1.5652255 2.4194117 0.83591354 2.3509631e-38
-1.6004895 2.4242682 0.83471143 2.3509638e-38
-1.6150112 2.424937 0.83832759 2.3509645e-38
-1.6470087 2.4282608 0.84057939 2.3509652e-38
-1.6629887 2.4283974 0.84640849 2.3509659e-38
-1.6772373 2.4285669 0.85145766 2.3509666e-38
-1.7094657 2.4256949 0.87292802 2.3509671e-38
-1.7503467 2.4190116 0.90954965 2.3509678e-38
-1.7988396 2.4132464 0.9463138 2.3509685e-38
-1.8230572 2.4086528 0.96996671 2.3509692e-38
-1.8326565 2.4073429 0.97776353 2.3509699e-38
-1.8440021 2.4033794 0.9944374 2.3509706e-38
-1.8644727 2.3978896 1.0193913 2.3509713e-38
-1.874284 2.3934216 1.0370233 2.350972e-38
-1.8875967 2.3828213 1.0749539 2.3509727e-38
-1.8935795 2.3737762 1.1052189 2.3509734e-38
-1.8956952 2.3675623 1.1252301 2.3509741e-38
-1.8852696 2.3649979 1.1290694 2.3509747e-38
-1.8511742 2.3717613 1.0948539 2.3509754e-38
-1.8242365 2.37831 1.0641013 2.3509761e-38
-1.8114717 2.3793917 1.0557709 2.3509768e-38
-1.7849858 2.3826158 1.0354586 2.3509775e-38
-1.7186866 2.3847024 1.0030873 2.3509782e-38
-1.7085853 2.3854644 0.99678385 2.3509789e-38
-1.6373844 2.3852193 0.96969366 2.3509796e-38
-1.600868 2.3791633 0.97410882 2.3509803e-38
-1.5825379 2.3758087 0.97729683 2.350981e-38
-1.5606029 2.3705502 0.98495233 2.3509816e-38
-1.5079488 2.3644161 0.9832952 2.3509823e-38
-1.4889429 2.3638461 0.97762233 2.350983e-38
-1.4763191 2.3642554 0.97142196 2.3509837e-38
-1.4433188 2.3633134 0.96142381 2.3509844e-38
-1.4289262 2.3669469 0.94457757 2.3509851e-38
-1.3822615 2.3692036 0.91935933 2.3509858e-38
-1.3633068 2.3678825 0.91602594 2.3509865e-38
-1.343195 2.3664892 0.91246128 2.3509872e-38
-1.3237994 2.3644569 0.91114926 2.3509879e-38
