# .PCD v0.7 - Point Cloud Data file format
VERSION 0.7
FIELDS x y z rgb
SIZE 4 4 4 4
TYPE F F F F
COUNT 1 1 1 1
WIDTH 321
HEIGHT 1
VIEWPOINT 0 0 0 1 0 0 0
POINTS 321
DATA ascii
-2.7872834 1.0851456 0.58050096 2.3509528e-38
-2.7870772 1.090378 0.57568204 2.3509528e-38
-2.7861521 1.0956225 0.56176907 2.350953e-38
-2.7850339 1.1059493 0.54326349 2.3509531e-38
-2.7834971 1.1074114 0.52319843 2.3509532e-38
-2.7829919 1.1074324 0.51679796 2.3509532e-38
-2.7809901 1.1094856 0.49060267 2.3509534e-38
-2.7796307 1.1145165 0.47127962 2.3509535e-38
-2.7791421 1.1149837 0.46489865 2.3509537e-38
-2.7787437 1.1156973 0.4595592 2.3509538e-38
-2.7776413 1.1169032 0.44509888 2.3509538e-38
-2.7727976 1.1182235 0.38326043 2.3509539e-38
-2.7716923 1.1231384 0.36719632 2.3509541e-38
-2.7712858 1.1258384 0.36091352 2.3509542e-38
-2.770879 1.1285343 0.35463053 2.3509544e-38
-2.77001 1.1331432 0.34169018 2.3509544e-38
-2.7685578 1.1356593 0.32225657 2.3509545e-38
-2.7677107 1.1376706 0.31068552 2.3509547e-38
-2.7652507 1.1442077 0.27680242 2.3509548e-38
-2.7645271 1.151162 0.26471299 2.3509549e-38
-2.7634444 1.1515787 0.25084072 2.3509549e-38
-2.7630177 1.1524748 0.24505959 2.3509551e-38
-2.7623892 1.1511217 0.23767789 2.3509552e-38
-2.7609394 1.1512113 0.21929602 2.3509554e-38
-2.7603121 1.1504023 0.21170081 2.3509555e-38
-2.7596574 1.1496909 0.20371751 2.3509555e-38
-2.758615 1.1493632 0.19066973 2.3509556e-38
-2.7565091 1.1462144 0.16534726 2.3509558e-38
-2.7553425 1.1488193 0.14948924 2.3509559e-38
-2.7540498 1.1488583 0.13311662 2.3509561e-38
-2.753556 1.148694 0.12693648 2.3509561e-38
-2.7514606 1.1466005 0.10130666 2.3509562e-38
-2.7503631 1.1471013 0.087209865 2.3509563e-38
-2.749928 1.146737 0.081856802 2.3509565e-38
-2.7488127 1.144358 0.068748578 2.3509566e-38
-2.7475929 1.1420285 0.054300264 2.3509566e-38
-2.7429128 1.1420876 -0.0049434453 2.3509568e-38
-2.7419248 1.1528339 -0.021978796 2.3509569e-38
-2.741116 1.1522443 -0.031962439 2.350957e-38
-2.7381639 1.1400588 -0.064172879 2.350957e-38
-2.734678 1.1519693 -0.11330582 2.3509572e-38
-2.7338927 1.1500394 -0.12243018 2.3509573e-38
-2.7332044 1.1491544 -0.13076822 2.3509575e-38
-2.729001 1.1552346 -0.18651366 2.3509576e-38
-2.7283015 1.1527666 -0.19432442 2.3509576e-38
-2.7238891 1.1568253 -0.25186729 2.3509577e-38
-2.7226064 1.1548291 -0.26725319 2.3509579e-38
-2.7205505 1.1526425 -0.29234841 2.350958e-38
-2.7190704 1.1545331 -0.31187078 2.3509582e-38
-2.7150683 1.1592013 -0.3644821 2.3509582e-38
-2.7146537 1.1602473 -0.37016851 2.3509583e-38
-2.7137523 1.1639248 -0.38312274 2.3509584e-38
-2.7067618 1.1505557 -0.46593136 2.3509586e-38
-2.7056246 1.1547914 -0.48210973 2.3509587e-38
-2.7009585 1.1526611 -0.54024822 2.3509587e-38
-2.6974797 1.1286858 -0.5741514 2.3509589e-38
-2.692214 1.1258386 -0.63957554 2.350959e-38
-2.6907878 1.1290451 -0.65897876 2.3509591e-38
-2.6892538 1.1008061 -0.66647059 2.3509593e-38
-2.6887224 1.0880189 -0.66780043 2.3509593e-38
-2.6878738 1.0572311 -0.66554439 2.3509594e-38
-2.6861494 0.99982619 -0.66314703 2.3509596e-38
-2.6858847 0.99504924 -0.66447884 2.3509597e-38
-2.6856616 0.99127483 -0.66570884 2.3509598e-38
-2.6854389 0.96935833 -0.65927976 2.3509598e-38
-2.6847651 0.9495784 -0.65946203 2.35096e-38
-2.684473 0.93793583 -0.65824544 2.3509601e-38
-2.682761 0.89947319 -0.66367877 2.3509603e-38
-2.6820135 0.87990135 -0.66487831 2.3509604e-38
-2.6814497 0.85010815 -0.65944529 2.3509604e-38
-2.6809583 0.83038676 -0.65733945 2.3509605e-38
-2.6791797 0.78917897 -0.66246092 2.3509607e-38
-2.6787591 0.78285426 -0.66511059 2.3509608e-38
-2.6769321 0.72954524 -0.6657359 2.3509608e-38
-2.6757116 0.68270165 -0.66141546 2.350961e-38
-2.6752243 0.65571386 -0.65619922 2.3509611e-38
-2.6736069 0.62113583 -0.66207224 2.3509612e-38
-2.673218 0.61569118 -0.66469824 2.3509614e-38
-2.672251 0.55921251 -0.65310448 2.3509614e-38
-2.6712363 0.53252053 -0.65467983 2.3509615e-38
-2.6710203 0.51372176 -0.64948201 2.3509617e-38
-2.6682744 0.44092506 -0.65350872 2.3509618e-38
-2.6674242 0.43156916 -0.66032088 2.3509619e-38
-2.6672313 0.41279221 -0.65483791 2.3509619e-38
-2.6668603 0.37503105 -0.64359963 2.3509621e-38
-2.6663206 0.35300055 -0.64113772 2.3509622e-38
-2.6658041 0.3404088 -0.64235747 2.3509624e-38
-2.6653447 0.33001697 -0.64378643 2.3509625e-38
-2.6617603 0.27883312 -0.66754746 2.3509625e-38
-2.6607261 0.23735268 -0.66312832 2.3509626e-38
-2.6590466 0.17276512 -0.65712959 2.3509628e-38
-2.6591465 0.1676935 -0.65372849 2.3509629e-38
-2.6598012 0.13827655 -0.63303375 2.3509631e-38
-2.6596637 0.12066455 -0.62734091 2.3509631e-38
-2.6563625 0.039167881 -0.63472384 2.3509632e-38
-2.6542795 0.011356801 -0.6493485 2.3509633e-38
-2.6534185 -0.017133228 -0.64822018 2.3509635e-38
-2.653007 -0.031051029 -0.64755589 2.3509636e-38
-2.6531084 -0.041710835 -0.64177799 2.3509636e-38
-2.6527858 -0.074971899 -0.63182503 2.3509638e-38
-2.6517718 -0.10060428 -0.63383979 2.3509639e-38
-2.6501992 -0.12884971 -0.64182156 2.350964e-38
-2.6480014 -0.1740762 -0.65054905 2.3509642e-38
-2.6473606 -0.19147885 -0.6513133 2.3509642e-38
-2.6467133 -0.20920634 -0.6520232 2.3509643e-38
-2.6458154 -0.23575217 -0.65218997 2.3509645e-38
-2.6452839 -0.24952039 -0.65310508 2.3509646e-38
-2.6452677 -0.26207304 -0.64801192 2.3509647e-38
-2.6438975 -0.31093961 -0.64473307 2.3509647e-38
-2.6426766 -0.37294614 -0.63401681 2.3509649e-38
-2.6419766 -0.39169019 -0.63496655 2.350965e-38
-2.6419399 -0.39368474 -0.63458747 2.3509652e-38
-2.639992 -0.4459666 -0.6371761 2.3509652e-38
-2.6390071 -0.47246695 -0.63845855 2.3509653e-38
-2.6386797 -0.52273732 -0.62139058 2.3509654e-38
-2.6375039 -0.55585533 -0.6222946 2.3509656e-38
-2.6347616 -0.60461336 -0.63642514 2.3509657e-38
-2.6339006 -0.6185388 -0.64144075 2.3509657e-38
-2.6338863 -0.6246869 -0.63902783 2.3509659e-38
-2.6333048 -0.65654701 -0.6329456 2.350966e-38
-2.6319861 -0.70740598 -0.62817049 2.3509661e-38
-2.6312313 -0.72287059 -0.63119924 2.3509663e-38
-2.6295764 -0.75679445 -0.63782197 2.3509663e-38
-2.6277144 -0.80486465 -0.64110142 2.3509664e-38
-2.6273403 -0.81900352 -0.63986856 2.3509666e-38
-2.6264222 -0.88053441 -0.62552708 2.3509667e-38
-2.6265922 -0.9143585 -0.60910308 2.3509668e-38
-2.6265929 -0.91683745 -0.60805029 2.3509668e-38
-2.6277471 -0.90395415 -0.59888309 2.350967e-38
-2.6279721 -0.8981542 -0.59848201 2.3509671e-38
-2.6321702 -0.84061122 -0.56964004 2.3509673e-38
-2.6369553 -0.82707411 -0.51481092 2.3509674e-38
-2.6389921 -0.83331788 -0.48640007 2.3509674e-38
-2.6430271 -0.81511664 -0.44302469 2.3509675e-38
-2.6450045 -0.8130644 -0.41887045 2.3509677e-38
-2.6485958 -0.82867914 -0.36684164 2.3509678e-38
-2.6497872 -0.83330172 -0.34981933 2.350968e-38
-2.6508224 -0.83526087 -0.33589193 2.350968e-38
-2.6509786 -0.83574772 -0.33371282 2.3509681e-38
-2.6524408 -0.83325839 -0.3162598 2.3509682e-38
-2.6534066 -0.83266932 -0.30428943 2.3509684e-38
-2.6549859 -0.83630228 -0.28277254 2.3509685e-38
-2.6584053 -0.83980274 -0.23803084 2.3509685e-38
-2.6588774 -0.84174013 -0.23124029 2.3509687e-38
-2.6612606 -0.8461538 -0.1992216 2.3509688e-38
-2.6637323 -0.84919149 -0.16666815 2.3509689e-38
-2.6663163 -0.84916949 -0.13398036 2.3509689e-38
-2.667413 -0.8475945 -0.12076841 2.3509691e-38
-2.6698728 -0.85095167 -0.088229075 2.3509692e-38
-2.6712675 -0.85502148 -0.06886363 2.3509694e-38
-2.6737902 -0.85667086 -0.03624925 2.3509695e-38
-2.6762972 -0.85874826 -0.0036537349 2.3509695e-38
-2.6773984 -0.85704786 0.0095637888 2.3509696e-38
-2.6802161 -0.85346991 0.043706641 2.3509698e-38
-2.6824379 -0.84983754 0.070284858 2.3509699e-38
-2.6837664 -0.82128537 0.075049147 2.3509701e-38
-2.6841698 -0.81368983 0.076949671 2.3509701e-38
-2.684737 -0.80234241 0.079337165 2.3509702e-38
-2.6869338 -0.74085319 0.081190214 2.3509703e-38
-2.6879537 -0.72730201 0.088378653 2.3509705e-38
-2.6896806 -0.69124067 0.095014796 2.3509706e-38
-2.6901374 -0.67390275 0.093479201 2.3509706e-38
-2.6901689 -0.66269279 0.089148328 2.3509708e-38
-2.6911955 -0.62841779 0.087675616 2.3509709e-38
-2.6922932 -0.60947096 0.093570873 2.350971e-38
-2.6927764 -0.58672231 0.090088829 2.3509712e-38
-2.6932886 -0.57346284 0.090972677 2.3509712e-38
-2.6937156 -0.5632925 0.092085466 2.3509713e-38
-2.695215 -0.52253014 0.093859896 2.3509715e-38
-2.6962199 -0.49937981 0.096808061 2.3509716e-38
-2.6970036 -0.46850908 0.093699738 2.3509717e-38
-2.6974969 -0.44902962 0.091722354 2.3509717e-38
-2.698164 -0.43415433 0.093886122 2.3509719e-38
-2.6988647 -0.4098953 0.092517242 2.350972e-38
-2.6994011 -0.39772093 0.094168738 2.3509722e-38
-2.6998229 -0.38317251 0.093365386 2.3509723e-38
-2.7001126 -0.36184359 0.088034317 2.3509723e-38
-2.7005544 -0.34871829 0.088085994 2.3509724e-38
-2.7008431 -0.33634937 0.086520508 2.3509726e-38
-2.7012784 -0.322079 0.086006358 2.3509727e-38
-2.703239 -0.28404862 0.094768986 2.3509727e-38
-2.7039504 -0.25985992 0.093563661 2.3509729e-38
-2.7041588 -0.25516951 0.094223753 2.350973e-38
-2.7045593 -0.2426621 0.094012722 2.3509731e-38
-2.7050583 -0.22814655 0.094206616 2.3509733e-38
-2.7060983 -0.18475521 0.089054987 2.3509733e-38
-2.7068853 -0.16909194 0.092402801 2.3509734e-38
-2.7079582 -0.14247936 0.094751552 2.3509736e-38
-2.7084436 -0.12278334 0.092582747 2.3509737e-38
-2.7089958 -0.1094472 0.093942299 2.3509738e-38
-2.7094638 -0.095578291 0.094013676 2.3509738e-38
-2.7111475 -0.036748663 0.090496078 2.350974e-38
-2.7118268 -0.023169599 0.093362197 2.3509741e-38
-2.7123239 -0.0099387616 0.094068959 2.3509743e-38
-2.7129683 0.0087815002 0.094326541 2.3509744e-38
-2.7132926 0.023443386 0.092242733 2.3509744e-38
-2.7136061 0.039662212 0.08936505 2.3509745e-38
-2.7139146 0.053115472 0.08759363 2.3509747e-38
-2.7142718 0.0681649 0.085764214 2.3509748e-38
-2.7146547 0.088456258 0.082048342 2.350975e-38
-2.7146754 0.089678422 0.081792429 2.350975e-38
-2.7160864 0.14021932 0.078322485 2.3509751e-38
-2.717061 0.18541317 0.071586654 2.3509752e-38
-2.7177627 0.19903494 0.074719086 2.3509754e-38
-2.7184 0.21925558 0.074250892 2.3509755e-38
-2.7194037 0.24619482 0.075586274 2.3509755e-38
-2.7200825 0.26556695 0.076000825 2.3509757e-38
-2.7209198 0.28589076 0.078020796 2.3509758e-38
-2.7217577 0.31790024 0.075115964 2.3509759e-38
-2.7220962 0.33133811 0.073730215 2.3509761e-38
-2.7226269 0.34714079 0.073778138 2.3509761e-38
-2.7234633 0.36517608 0.076751664 2.3509762e-38
-2.7240365 0.37855208 0.078359172 2.3509764e-38
-2.7251377 0.41032773 0.078888372 2.3509765e-38
-2.725832 0.44286913 0.073941216 2.3509767e-38
-2.7264953 0.45763123 0.076105788 2.3509767e-38
-2.728668 0.52082014 0.076936349 2.3509768e-38
-2.7288809 0.5307765 0.075430647 2.3509769e-38
-2.7297199 0.55694211 0.075005963 2.3509771e-38
-2.7302282 0.57668185 0.073109105 2.3509771e-38
-2.7307892 0.5900352 0.074574664 2.3509772e-38
-2.7312243 0.62191683 0.06662856 2.3509774e-38
-2.7327223 0.65272433 0.072584078 2.3509775e-38
-2.7335005 0.68719351 0.067889318 2.3509776e-38
-2.7339475 0.70798844 0.064771399 2.3509776e-38
-2.7344115 0.72115636 0.06508632 2.3509778e-38
-2.7349741 0.73451239 0.066570625 2.3509779e-38
-2.7357588 0.75477105 0.06794925 2.3509781e-38
-2.7363722 0.77044439 0.069100097 2.3509782e-38
-2.7373154 0.8075729 0.065368608 2.3509782e-38
-2.7381887 0.83380401 0.065350994 2.3509783e-38
-2.7387989 0.85373837 0.064660981 2.3509785e-38
-2.7399309 0.88067079 0.067621753 2.3509786e-38
-2.7403438 0.90002131 0.064680919 2.3509788e-38
-2.7413201 0.93293679 0.063147381 2.3509788e-38
-2.7418571 0.94624388 0.064327076 2.3509789e-38
-2.7430234 0.97686875 0.06616272 2.350979e-38
-2.7436657 0.99951804 0.064735249 2.3509792e-38
-2.7442846 1.0129818 0.066885695 2.3509793e-38
-2.7445989 1.0202862 0.067780837 2.3509793e-38
-2.7449629 1.034339 0.066457316 2.3509795e-38
-2.7456601 1.0589411 0.064899638 2.3509796e-38
-2.7539196 1.1433512 0.13379584 2.3509797e-38
-2.7549069 1.1434606 0.14623849 2.3509799e-38
-2.7559488 1.1440096 0.15918921 2.3509799e-38
-2.7560263 1.1439927 0.16017626 2.35098e-38
-2.7574801 1.1437403 0.17868049 2.3509802e-38
-2.7589474 1.1422809 0.19786142 2.3509803e-38
-2.7614632 1.0671431 0.26139355 2.3509804e-38
-2.7579751 1.0186917 0.23770015 2.3509804e-38
-2.7570515 0.99334586 0.23670934 2.3509806e-38
-2.756752 0.98558474 0.23619319 2.3509807e-38
-2.7562692 0.95966923 0.24101885 2.3509809e-38
-2.7561142 0.94102752 0.24692567 2.3509809e-38
-2.7558191 0.90460801 0.25855595 2.350981e-38
-2.756139 0.89668119 0.26594812 2.3509811e-38
-2.756427 0.89371133 0.27084351 2.3509813e-38
-2.7592492 0.88227135 0.31137848 2.3509814e-38
-2.762516 0.83412278 0.37302858 2.3509814e-38
-2.7632794 0.82939965 0.3846826 2.3509816e-38
-2.7668562 0.78594995 0.44827068 2.3509817e-38
-2.7666721 0.76679599 0.45402068 2.3509818e-38
-2.7690551 0.70504457 0.5102303 2.350982e-38
-2.7692828 0.65383744 0.53471172 2.350982e-38
-2.769567 0.64803302 0.54075688 2.3509821e-38
-2.7692461 0.54198259 0.58144152 2.3509823e-38
-2.7690423 0.53541994 0.5816319 2.3509824e-38
-2.7681258 0.51483071 0.57872283 2.3509825e-38
-2.7673011 0.48134691 0.58241361 2.3509825e-38
-2.7673581 0.47658926 0.58514166 2.3509827e-38
-2.7673299 0.45776671 0.59273082 2.3509828e-38
-2.764879 0.40257215 0.58500177 2.350983e-38
-2.7638686 0.38325983 0.580365 2.3509831e-38
-2.7635536 0.36388978 0.58455586 2.3509831e-38
-2.7626381 0.30514008 0.59775591 2.3509832e-38
-2.7615237 0.27914226 0.59462458 2.3509834e-38
-2.7596905 0.23958211 0.58812153 2.3509835e-38
-2.7589438 0.21860079 0.58752525 2.3509837e-38
-2.7587948 0.19954683 0.59367794 2.3509837e-38
-2.7583158 0.17902108 0.59627688 2.3509838e-38
-2.7542932 0.12027868 0.57016766 2.3509839e-38
-2.7532694 0.05078169 0.58653635 2.3509841e-38
-2.752846 0.038726151 0.58626109 2.3509842e-38
-2.752645 0.033468343 0.58593959 2.3509842e-38
-2.7522612 0.023877881 0.58512676 2.3509844e-38
-2.7512207 0.00058046728 0.58179045 2.3509845e-38
-2.7501781 -0.05308751 0.59124404 2.3509846e-38
-2.7485199 -0.087337546 0.58471352 2.3509846e-38
-2.7483966 -0.10046212 0.5886879 2.3509848e-38
-2.7485569 -0.11322065 0.59609854 2.3509849e-38
-2.7502816 -0.123668 0.62232858 2.3509851e-38
-2.7513824 -0.12001607 0.63471627 2.3509852e-38
-2.7558742 -0.0060039014 0.64344966 2.3509852e-38
-2.7559805 0.012968265 0.6367898 2.3509853e-38
-2.7583237 0.11265242 0.62438083 2.3509855e-38
-2.7602012 0.15751372 0.62920779 2.3509856e-38
-2.7629552 0.25152022 0.62439287 2.3509858e-38
-2.7651873 0.32373351 0.62216628 2.3509858e-38
-2.7670519 0.4013468 0.61301702 2.3509859e-38
-2.7680147 0.42767823 0.61408526 2.350986e-38
-2.7702932 0.48766559 0.61760885 2.3509862e-38
-2.7705989 0.51620412 0.60943329 2.3509863e-38
-2.771512 0.56955594 0.5984807 2.3509863e-38
-2.7723677 0.58441001 0.60303819 2.3509865e-38
-2.7727857 0.62274688 0.59215534 2.3509866e-38
-2.7725663 0.68098307 0.56480491 2.3509867e-38
-2.7776239 0.77052647 0.59101856 2.3509869e-38
-2.78005 0.83130902 0.59607285 2.3509869e-38
-2.7808673 0.84127152 0.60221189 2.350987e-38
-2.7810166 0.86433434 0.59436798 2.3509872e-38
-2.7831442 0.95923615 0.58125007 2.3509873e-38
-2.7843659 1.0052044 0.57731211 2.3509874e-38
-2.7862096 1.0396987 0.58608848 2.3509874e-38
-2.7882249 1.0680956 0.59960985 2.3509876e-38
-2.6755998 -0.044118527 -0.3561765 2.3509877e-38
-2.6781313 -0.045826308 -0.32342857 2.3509879e-38
-2.6794002 -0.046826743 -0.30694914 2.350988e-38
-2.6872716 0.075818017 -0.25909719 2.350988e-38
-2.6838217 0.094362795 -0.31057414 2.3509881e-38
-2.6812718 0.095956191 -0.3435092 2.3509883e-38
-2.6769898 0.076529413 -0.38949198 2.3509884e-38
