# .PCD v0.7 - Point Cloud Data file format
VERSION 0.7
FIELDS x y z rgb
SIZE 4 4 4 4
TYPE F F F F
COUNT 1 1 1 1
WIDTH 107
HEIGHT 1
VIEWPOINT 0 0 0 1 0 0 0
POINTS 107
DATA ascii
1.5145521 0.55412394 0.87653273 2.3509528e-38
1.530071 0.58197713 0.87603772 2.3509531e-38
1.5555078 0.59498048 0.87489206 2.3509534e-38
1.5729231 0.60420668 0.87411106 2.3509538e-38
1.5878733 0.61158502 0.87343502 2.3509541e-38
1.601105 0.61832404 0.87283885 2.3509544e-38
1.6210113 0.61291575 0.87178296 2.3509548e-38
1.6527976 0.61299133 0.87018591 2.3509551e-38
1.6719453 0.60628653 0.86915487 2.3509555e-38
1.6924911 0.60019237 0.86805969 2.3509558e-38
1.7331067 0.60492277 0.86606652 2.3509561e-38
1.7426344 0.60997927 0.86563927 2.3509565e-38
1.7761705 0.60879809 0.86394143 2.3509568e-38
1.7945364 0.60367 0.86296582 2.350957e-38
1.8289969 0.60510671 0.86124831 2.3509575e-38
1.8621061 0.60409427 0.85957372 2.3509577e-38
1.9153937 0.61721992 0.85702938 2.3509582e-38
1.9328995 0.60742253 0.85604918 2.3509584e-38
1.950115 0.60218495 0.8551302 2.3509587e-38
1.9854852 0.60385936 0.85336936 2.3509591e-38
2.0037804 0.59664559 0.85237592 2.3509594e-38
2.0097837 0.55023956 0.85159945 2.3509598e-38
2.016041 0.50399154 0.85081178 2.3509601e-38
2.0360844 0.46491081 0.84940445 2.3509604e-38
2.0694406 0.43270227 0.84739822 2.3509608e-38
2.0660527 0.39793715 0.84721279 2.3509611e-38
2.0752664 0.35322875 0.84629232 2.3509614e-38
2.0816491 0.3400158 0.84583622 2.3509618e-38
2.1360886 0.30233204 0.84271431 2.3509621e-38
2.225605 0.3323825 0.83852202 2.3509625e-38
2.2391119 0.33945459 0.83791536 2.3509628e-38
2.254801 0.31477293 0.83687431 2.3509631e-38
2.2627552 0.3025398 0.83634925 2.3509635e-38
2.2720671 0.29091766 0.83576226 2.3509638e-38
2.2761204 0.27648783 0.83541089 2.3509642e-38
2.2679343 0.25487345 0.83560133 2.3509645e-38
2.2648392 0.2345475 0.83554894 2.3509647e-38
2.2539401 0.18235525 0.83556288 2.3509652e-38
2.2606144 0.13677093 0.83476096 2.3509654e-38
2.2605712 0.10343768 0.83442211 2.3509657e-38
2.2602565 0.070155039 0.83409745 2.3509661e-38
2.2481735 0.051361874 0.83451253 2.3509664e-38
2.2457333 -0.0033162856 0.83407581 2.3509668e-38
2.2449932 -0.036674246 0.83377165 2.3509671e-38
2.2313125 -0.043775752 0.83438677 2.3509674e-38
2.2166188 -0.051356621 0.83504784 2.3509678e-38
2.2033541 -0.058351174 0.83564299 2.3509681e-38
2.1865687 -0.16600958 0.83538532 2.3509685e-38
2.1936536 -0.17883095 0.83489799 2.3509688e-38
2.2007267 -0.19167247 0.83441114 2.3509691e-38
2.2091801 -0.21568419 0.83374047 2.3509695e-38
2.1968429 -0.22204012 0.83429569 2.3509698e-38
2.1648362 -0.22439459 0.83588052 2.3509701e-38
2.143816 -0.22038773 0.83697808 2.3509705e-38
2.1093707 -0.22109592 0.83870226 2.3509708e-38
2.0668526 -0.2464266 0.84058028 2.3509712e-38
2.0409036 -0.25856167 0.84176052 2.3509715e-38
2.0218537 -0.25181836 0.84278709 2.3509717e-38
2.0016813 -0.245775 0.84386289 2.3509722e-38
1.9839821 -0.23848401 0.84482723 2.3509724e-38
1.9633305 -0.23252411 0.84592628 2.3509727e-38
1.9408808 -0.22782132 0.84710288 2.3509731e-38
1.9075162 -0.22751316 0.84878308 2.3509734e-38
1.8829341 -0.22493087 0.85004526 2.3509738e-38
1.8520643 -0.22447893 0.85160166 2.3509741e-38
1.8195767 -0.22468559 0.85323244 2.3509744e-38
1.7845812 -0.22226323 0.85501635 2.3509748e-38
1.7673225 -0.1856394 0.85625863 2.3509751e-38
1.7546334 -0.12620914 0.85750449 2.3509755e-38
1.7413988 -0.10007595 0.85843712 2.3509758e-38
1.6531527 -0.063421056 0.86324787 2.3509761e-38
1.626084 -0.044484973 0.8648023 2.3509765e-38
1.6090652 -0.036797877 0.86573642 2.3509768e-38
1.5790439 -0.019380046 0.86742359 2.3509771e-38
1.5454304 0.012667877 0.86944115 2.3509775e-38
1.5394852 0.059110418 0.87021524 2.3509778e-38
1.5325207 0.071960427 0.87069678 2.3509782e-38
1.5328681 0.1051339 0.87101865 2.3509785e-38
1.5267315 0.15145698 0.87180096 2.3509788e-38
1.5211376 0.19858737 0.87256438 2.3509792e-38
1.520276 0.23053811 0.87293452 2.3509795e-38
1.5218281 0.28097385 0.87337261 2.3509799e-38
1.5233785 0.29536155 0.87344187 2.3509802e-38
1.527161 0.35250303 0.87383628 2.3509804e-38
1.5259448 0.36563548 0.87403178 2.3509809e-38
1.5238926 0.39757672 0.87446165 2.3509811e-38
1.5238583 0.43051207 0.87480038 2.3509814e-38
1.52468 0.46430415 0.87510473 2.3509818e-38
1.5240589 0.49655077 0.87546581 2.3509821e-38
1.518833 0.54344183 0.87620831 2.3509825e-38
2.2285757 0.59816432 0.84109181 2.3509828e-38
2.248924 0.57561678 0.83983821 2.3509831e-38
2.2573867 0.5462687 0.83911264 2.3509835e-38
2.2631073 0.53345668 0.83869404 2.3509838e-38
2.2737858 0.51544797 0.837973 2.3509842e-38
2.2785535 0.5087021 0.83766431 2.3509845e-38
2.2821922 0.47760755 0.83716321 2.3509848e-38
2.260525 0.44972643 0.83796728 2.3509852e-38
2.2492547 0.46033439 0.83864224 2.3509855e-38
2.2412531 0.47253802 0.83916932 2.3509858e-38
2.2341044 0.48527342 0.83965892 2.3509862e-38
2.2270315 0.49805591 0.84014535 2.3509865e-38
2.1944802 0.56372279 0.8424533 2.3509869e-38
2.1640337 0.58088261 0.84415931 2.3509872e-38
2.1571255 0.5937829 0.84463859 2.3509874e-38
2.175998 0.60447735 0.84379923 2.3509879e-38
2.2104268 0.60679919 0.84209239 2.3509881e-38
