# .PCD v0.7 - Point Cloud Data file format
VERSION 0.7
FIELDS x y z rgb
SIZE 4 4 4 4
TYPE F F F F
COUNT 1 1 1 1
WIDTH 61
HEIGHT 1
VIEWPOINT 0 0 0 1 0 0 0
POINTS 61
DATA ascii
-0.72924572 -2.7430923 -0.60460645 2.3509528e-38
-0.75007176 -2.7371802 -0.60458922 2.3509534e-38
-0.850541 -2.7566144 -0.60744041 2.3509539e-38
-0.86309481 -2.7629242 -0.60803419 2.3509545e-38
-0.87819064 -2.7673454 -0.6085546 2.3509551e-38
-0.89815766 -2.7659302 -0.60879821 2.3509556e-38
-0.90534705 -2.7515836 -0.60803914 2.3509563e-38
-0.9388299 -2.719794 -0.60664761 2.3509569e-38
-1.0277392 -2.6835105 -0.60589796 2.3509575e-38
-1.0419489 -2.6907525 -0.6065762 2.350958e-38
-1.0700828 -2.7035062 -0.60782212 2.3509586e-38
-1.0769327 -2.690613 -0.6071465 2.3509591e-38
-1.1084487 -2.659019 -0.60573429 2.3509598e-38
-1.1297352 -2.6368761 -0.60473138 2.3509604e-38
-1.1173294 -2.6136634 -0.6031056 2.350961e-38
-1.1006844 -2.5735607 -0.60037619 2.3509615e-38
-1.0793612 -2.5450976 -0.59828156 2.3509621e-38
-1.0497167 -2.5297925 -0.59685457 2.3509628e-38
-1.0267416 -2.5040102 -0.59489667 2.3509633e-38
-1.0814258 -2.3977394 -0.58929789 2.3509639e-38
-1.1173352 -2.3830073 -0.58899033 2.3509645e-38
-1.1408724 -2.3819296 -0.58931381 2.350965e-38
-1.1513776 -2.3679364 -0.58863115 2.3509656e-38
-1.1561623 -2.3540149 -0.58785844 2.3509663e-38
-1.1412261 -2.3461678 -0.58713114 2.3509668e-38
-1.1295425 -2.3400242 -0.58656186 2.3509674e-38
-1.1150581 -2.332864 -0.58588409 2.350968e-38
-1.0776458 -2.329989 -0.58508921 2.3509685e-38
-1.0427936 -2.3306673 -0.5845542 2.3509692e-38
-1.0106202 -2.3281951 -0.58387077 2.3509698e-38
-0.97468483 -2.3259141 -0.58313668 2.3509703e-38
-0.95485729 -2.3322363 -0.58319557 2.3509709e-38
-0.9033944 -2.3217268 -0.58170116 2.3509715e-38
-0.88185471 -2.3269444 -0.58166414 2.350972e-38
-0.84582442 -2.3256121 -0.58098656 2.3509727e-38
-0.80984986 -2.3224659 -0.58019894 2.3509733e-38
-0.77777326 -2.322505 -0.57967067 2.3509738e-38
-0.74641007 -2.3204701 -0.5790273 2.3509744e-38
-0.70854455 -2.3199921 -0.57837164 2.350975e-38
-0.67445815 -2.3185601 -0.57772017 2.3509757e-38
-0.63887346 -2.3165059 -0.5770058 2.3509762e-38
-0.60448158 -2.3152211 -0.57635826 2.3509768e-38
-0.5707444 -2.313982 -0.57572436 2.3509774e-38
-0.51981491 -2.311667 -0.57474017 2.3509779e-38
-0.49561751 -2.3216882 -0.57495314 2.3509785e-38
-0.48848659 -2.3553109 -0.57689285 2.3509792e-38
-0.49562818 -2.3738499 -0.57814544 2.3509797e-38
-0.50609332 -2.4120576 -0.58065677 2.3509803e-38
-0.52532262 -2.4718316 -0.58463287 2.3509809e-38
-0.52303696 -2.5050473 -0.58662772 2.3509814e-38
-0.52228528 -2.5202718 -0.587547 2.3509821e-38
-0.53766423 -2.5476708 -0.58947808 2.3509827e-38
-0.54193866 -2.5653014 -0.59062773 2.3509832e-38
-0.56117177 -2.6230359 -0.59447908 2.3509838e-38
-0.58981383 -2.6712379 -0.59790266 2.3509844e-38
-0.60247833 -2.7185736 -0.60100889 2.3509849e-38
-0.61850446 -2.7514474 -0.60328579 2.3509856e-38
-0.63174915 -2.7585518 -0.60393971 2.3509862e-38
-0.65396148 -2.7534194 -0.603993 2.3509867e-38
-0.67519915 -2.7480068 -0.60401309 2.3509873e-38
-0.7072053 -2.7477522 -0.604527 2.3509879e-38
