# .PCD v0.7 - Point Cloud Data file format
VERSION 0.7
FIELDS x y z rgb
SIZE 4 4 4 4
TYPE F F F F
COUNT 1 1 1 1
WIDTH 53
HEIGHT 1
VIEWPOINT 0 0 0 1 0 0 0
POINTS 53
DATA ascii
-1.8023078 2.0372236 1.0604172 2.3509528e-38
-1.8135358 2.0596066 1.0577657 2.3509534e-38
-1.8176284 2.0782142 1.0557221 2.3509541e-38
-1.8191663 2.0962315 1.0538172 2.3509548e-38
-1.8128518 2.1154423 1.0520298 2.3509555e-38
-1.7865988 2.1615071 1.048084 2.3509562e-38
-1.7826713 2.1889708 1.0453726 2.3509568e-38
-1.7737521 2.2153103 1.0429296 2.3509575e-38
-1.797722 2.2810283 1.0354202 2.3509582e-38
-1.7880325 2.290802 1.0347091 2.3509589e-38
-1.7781495 2.2940872 1.0346731 2.3509596e-38
-1.760842 2.301888 1.0343987 2.3509601e-38
-1.7214824 2.3089595 1.0348746 2.3509608e-38
-1.6875137 2.3386242 1.0328556 2.3509615e-38
-1.6560529 2.3254209 1.0351802 2.3509622e-38
-1.5818179 2.3455873 1.0353736 2.3509629e-38
-1.5601126 2.3238876 1.0382755 2.3509635e-38
-1.5363994 2.3048391 1.0409654 2.3509642e-38
-1.5046178 2.2731135 1.0452095 2.3509649e-38
-1.4719291 2.2415519 1.0494643 2.3509656e-38
-1.4091362 2.2246919 1.053125 2.3509663e-38
-1.404477 2.2150772 1.0542589 2.350967e-38
-1.396742 2.2004063 1.0560085 2.3509675e-38
-1.3833466 2.1851051 1.0579962 2.3509682e-38
-1.3493068 2.1506505 1.0625907 2.3509689e-38
-1.3307569 2.1193497 1.0663859 2.3509696e-38
-1.2835654 2.0788777 1.0720034 2.3509703e-38
-1.2782856 2.0741768 1.0726496 2.3509709e-38
-1.2720146 2.0669229 1.0735897 2.3509716e-38
-1.2474903 2.0479314 1.0762985 2.3509723e-38
-1.2301196 2.0204577 1.0796629 2.350973e-38
-1.2409977 1.9860322 1.0828794 2.3509737e-38
-1.2432705 1.9687301 1.0845938 2.3509743e-38
-1.2650509 1.9690942 1.0838895 2.350975e-38
-1.2787141 1.9663806 1.083751 2.3509757e-38
-1.2878696 1.9723793 1.0828521 2.3509764e-38
-1.3036535 2.0003891 1.0794809 2.3509771e-38
-1.4091684 2.0062692 1.0756446 2.3509778e-38
-1.4198661 1.9962488 1.0763502 2.3509783e-38
-1.4350739 1.9940143 1.076115 2.350979e-38
-1.4515109 1.9877555 1.0762569 2.3509797e-38
-1.4685527 1.9800644 1.0765283 2.3509804e-38
-1.5243436 1.9836593 1.0744495 2.3509811e-38
-1.5397415 1.9768076 1.0746849 2.3509817e-38
-1.5746218 1.9608861 1.0752585 2.3509824e-38
-1.5963291 1.9724143 1.0734053 2.3509831e-38
-1.6236924 1.9838419 1.0713893 2.3509838e-38
-1.6624272 1.9948776 1.0690657 2.3509845e-38
-1.680432 1.9990206 1.0680873 2.3509851e-38
-1.7156738 2.0011165 1.0667925 2.3509858e-38
-1.7520038 1.9973643 1.0660669 2.3509865e-38
-1.7779701 2.0165069 1.0632983 2.3509872e-38
-1.7899446 2.0273809 1.0618107 2.3509879e-38
