# .PCD v0.7 - Point Cloud Data file format
VERSION 0.7
FIELDS x y z rgb
SIZE 4 4 4 4
TYPE F F F F
COUNT 1 1 1 1
WIDTH 1041
HEIGHT 1
VIEWPOINT 0 0 0 1 0 0 0
POINTS 1041
DATA ascii
2.1841977 -2.218617 -1.0603933 2.3509583e-38
2.2238903 -2.2284844 -1.0600693 2.3509583e-38
2.2498748 -2.2187383 -1.0598652 2.3509583e-38
2.2961888 -2.2258167 -1.0594893 2.3509584e-38
2.3285551 -2.2245011 -1.0592297 2.3509584e-38
2.3802805 -2.2470758 -1.0588024 2.3509584e-38
2.3905935 -2.2421615 -1.0587219 2.3509584e-38
2.397681 -2.2395077 -1.0586662 2.3509584e-38
2.4055855 -2.2346711 -1.0586051 2.3509586e-38
2.4528658 -2.2258952 -1.0582294 2.3509586e-38
2.501298 -2.2190936 -1.0578434 2.3509586e-38
2.5438824 -2.2079418 -1.0575067 2.3509586e-38
2.5494947 -2.2072535 -1.057462 2.3509586e-38
2.5801589 -2.2021892 -1.0572177 2.3509587e-38
2.5994833 -2.2032542 -1.0570619 2.3509587e-38
2.6309662 -2.199651 -1.0568107 2.3509587e-38
2.6348259 -2.1993918 -1.0567797 2.3509587e-38
2.663492 -2.1995292 -1.0565492 2.3509587e-38
2.6858776 -2.2020857 -1.056368 2.3509589e-38
2.7093117 -2.1955552 -1.0561827 2.3509589e-38
2.7354047 -2.1970322 -1.0559722 2.3509589e-38
2.7525258 -2.2000327 -1.055833 2.3509589e-38
2.7861614 -2.2209446 -1.055552 2.3509589e-38
2.7973416 -2.2300591 -1.0554575 2.350959e-38
2.8221111 -2.2255108 -1.0552605 2.350959e-38
2.8568087 -2.232934 -1.0549779 2.350959e-38
2.8798125 -2.2362597 -1.0547912 2.350959e-38
2.9019618 -2.2423837 -1.05461 2.350959e-38
2.9128537 -2.2454972 -1.0545208 2.3509591e-38
2.9757297 -2.2183843 -1.0540289 2.3509591e-38
2.999553 -2.2238581 -1.0538347 2.3509591e-38
3.0112596 -2.1470635 -1.0537792 2.3509591e-38
3.0207827 -2.1322811 -1.0537102 2.3509591e-38
3.0303602 -2.1107869 -1.0536441 2.3509593e-38
3.029537 -2.0931146 -1.0536596 2.3509593e-38
3.027952 -2.0774159 -1.0536802 2.3509593e-38
3.0147491 -2.0514381 -1.0537995 2.3509593e-38
3.009763 -2.0228355 -1.0538539 2.3509593e-38
3.0142469 -1.9815542 -1.0538388 2.3509594e-38
3.018435 -1.9510351 -1.0538204 2.3509594e-38
3.0273905 -1.9288924 -1.0537596 2.3509594e-38
3.0187416 -1.900529 -1.0538436 2.3509594e-38
3.0187955 -1.8676069 -1.0538597 2.3509594e-38
3.0380549 -1.8083438 -1.0537347 2.3509596e-38
3.0088627 -1.7886236 -1.0539795 2.3509596e-38
2.9824202 -1.7365566 -1.0542183 2.3509596e-38
2.9805453 -1.7048625 -1.0542493 2.3509596e-38
2.991585 -1.6648946 -1.0541807 2.3509596e-38
2.9948075 -1.6471848 -1.0541638 2.3509597e-38
3.0028534 -1.6037716 -1.054121 2.3509597e-38
3.0080554 -1.5923094 -1.054085 2.3509597e-38
2.990799 -1.5530672 -1.0542434 2.3509597e-38
2.9909353 -1.5193858 -1.0542595 2.3509597e-38
2.9879315 -1.5073906 -1.0542898 2.3509598e-38
2.9860971 -1.4888058 -1.0543139 2.3509598e-38
2.9913168 -1.4516586 -1.0542905 2.3509598e-38
2.987757 -1.4050487 -1.0543429 2.3509598e-38
2.9909065 -1.3899001 -1.0543251 2.3509598e-38
2.9863579 -1.3732418 -1.05437 2.35096e-38
2.983222 -1.3583492 -1.0544027 2.35096e-38
2.9822304 -1.3392233 -1.0544204 2.35096e-38
2.9929049 -1.3041804 -1.0543523 2.35096e-38
3.001081 -1.266495 -1.0543056 2.35096e-38
3.0016077 -1.2588359 -1.0543052 2.3509601e-38
3.0018976 -1.249169 -1.0543077 2.3509601e-38
2.9999793 -1.2340014 -1.0543308 2.3509601e-38
2.9999137 -1.2095534 -1.0543437 2.3509601e-38
2.9967422 -1.2002846 -1.054374 2.3509601e-38
2.9917293 -1.1723584 -1.0544282 2.3509603e-38
2.9886949 -1.1403793 -1.0544686 2.3509603e-38
2.9850075 -1.1097381 -1.0545139 2.3509603e-38
2.9857614 -1.0930656 -1.0545163 2.3509603e-38
2.9819138 -1.0782882 -1.0545547 2.3509603e-38
2.9797578 -1.0630586 -1.0545797 2.3509604e-38
2.9776952 -1.0137894 -1.0546211 2.3509604e-38
2.9808366 -0.99635261 -1.0546046 2.3509604e-38
2.9793999 -0.97395772 -1.0546275 2.3509604e-38
2.9868863 -0.94322354 -1.0545828 2.3509605e-38
2.98195 -0.91102922 -1.0546387 2.3509605e-38
2.9799588 -0.89745629 -1.0546618 2.3509605e-38
2.9733148 -0.88656819 -1.0547206 2.3509605e-38
2.9658563 -0.85573524 -1.0547961 2.3509605e-38
2.9600186 -0.84225798 -1.0548499 2.3509607e-38
2.9560878 -0.82718891 -1.0548891 2.3509607e-38
2.9619918 -0.77525985 -1.0548677 2.3509607e-38
2.9532199 -0.74700868 -1.0549526 2.3509607e-38
2.9514151 -0.71401006 -1.0549837 2.3509607e-38
2.9543626 -0.67212349 -1.0549812 2.3509608e-38
2.9582667 -0.66128695 -1.0549552 2.3509608e-38
2.9570506 -0.65429693 -1.0549686 2.3509608e-38
2.9560966 -0.64627075 -1.0549803 2.3509608e-38
2.9533434 -0.6304642 -1.0550104 2.3509608e-38
2.9526134 -0.61481941 -1.0550241 2.350961e-38
2.9518738 -0.59831768 -1.0550385 2.350961e-38
2.9473205 -0.58414805 -1.0550822 2.350961e-38
2.9448717 -0.53581637 -1.0551263 2.350961e-38
2.950711 -0.48408234 -1.0551054 2.350961e-38
2.961158 -0.43240651 -1.0550475 2.3509611e-38
2.9608831 -0.42871052 -1.0550516 2.3509611e-38
2.9566264 -0.39810595 -1.0551013 2.3509611e-38
2.9562683 -0.38141051 -1.0551126 2.3509611e-38
2.9591289 -0.36725885 -1.0550967 2.3509611e-38
2.9612689 -0.35440263 -1.055086 2.3509612e-38
2.9606388 -0.33011955 -1.0551033 2.3509612e-38
2.9532189 -0.28499332 -1.0551857 2.3509612e-38
2.9502838 -0.26869786 -1.0552175 2.3509612e-38
2.9474239 -0.25411454 -1.0552479 2.3509612e-38
2.9495766 -0.20207115 -1.055257 2.3509614e-38
2.9584961 -0.18316559 -1.0551947 2.3509614e-38
2.9585428 -0.16632138 -1.0552028 2.3509614e-38
2.9666708 -0.12881415 -1.0551565 2.3509614e-38
2.9640548 -0.097469628 -1.0551932 2.3509614e-38
2.9569373 -0.084619254 -1.055257 2.3509615e-38
2.9259033 -0.034777626 -1.0555317 2.3509615e-38
2.9254665 -0.0194363 -1.0555429 2.3509615e-38
2.9249661 0.014514529 -1.055564 2.3509615e-38
2.9540422 0.06234454 -1.0553545 2.3509615e-38
2.9331241 0.11587548 -1.0555497 2.3509617e-38
2.9329364 0.13533504 -1.0555609 2.3509617e-38
2.9333391 0.15065233 -1.0555655 2.3509617e-38
2.9300745 0.16881821 -1.0556009 2.3509617e-38
2.9344535 0.21745618 -1.0555904 2.3509617e-38
2.9176328 0.27424729 -1.0557542 2.3509618e-38
2.9184768 0.29186204 -1.0557562 2.3509618e-38
2.9209845 0.30988771 -1.0557451 2.3509618e-38
2.9227877 0.32665998 -1.0557392 2.3509618e-38
2.9232559 0.36015269 -1.0557523 2.3509618e-38
2.923152 0.37844601 -1.0557623 2.3509619e-38
2.9229236 0.40860629 -1.0557796 2.3509619e-38
2.9238851 0.42644644 -1.0557806 2.3509619e-38
2.9188249 0.44050834 -1.0558285 2.3509619e-38
2.9103985 0.4860543 -1.0559192 2.3509619e-38
2.9083595 0.50016481 -1.0559427 2.3509621e-38
2.909528 0.53572416 -1.0559512 2.3509621e-38
2.9123709 0.55309451 -1.0559372 2.3509621e-38
2.9169881 0.57577544 -1.0559117 2.3509621e-38
2.9240725 0.59187096 -1.0558627 2.3509621e-38
2.9284787 0.61056465 -1.0558367 2.3509622e-38
2.9264848 0.62640941 -1.0558606 2.3509622e-38
2.9185863 0.65892184 -1.0559406 2.3509622e-38
2.9166756 0.66974145 -1.0559614 2.3509622e-38
2.9163101 0.68344384 -1.0559713 2.3509622e-38
2.9201858 0.70569217 -1.0559514 2.3509624e-38
2.9113085 0.75021142 -1.0560452 2.3509624e-38
2.9193833 0.78611797 -1.0559984 2.3509624e-38
2.9235101 0.80663151 -1.0559756 2.3509624e-38
2.9253879 0.83131403 -1.0559728 2.3509624e-38
2.9250553 0.85644716 -1.0559883 2.3509625e-38
2.9281199 0.89052671 -1.0559808 2.3509625e-38
2.9053671 0.92863417 -1.056183 2.3509625e-38
2.9037116 0.94792014 -1.0562062 2.3509625e-38
2.9055207 0.96346217 -1.0561994 2.3509625e-38
2.8981526 1.0075313 -1.0562807 2.3509626e-38
2.9024599 1.0411712 -1.0562632 2.3509626e-38
2.9028513 1.0594574 -1.0562692 2.3509626e-38
2.9156249 1.1285418 -1.0562016 2.3509626e-38
2.9258125 1.1392994 -1.0561249 2.3509626e-38
2.9180472 1.1513246 -1.0561935 2.3509628e-38
2.9121861 1.1654985 -1.0562477 2.3509628e-38
2.9066978 1.210972 -1.0563148 2.3509628e-38
2.8966849 1.2375495 -1.0564088 2.3509628e-38
2.8942208 1.2529708 -1.0564363 2.3509628e-38
2.891865 1.2682061 -1.056463 2.3509629e-38
2.8870161 1.2824447 -1.056509 2.3509629e-38
2.8898976 1.3245618 -1.0565071 2.3509629e-38
2.894907 1.3356534 -1.0564724 2.3509629e-38
2.8883042 1.3667513 -1.0565413 2.3509631e-38
2.8899517 1.3824866 -1.0565361 2.3509631e-38
2.8897591 1.3987442 -1.0565457 2.3509631e-38
2.8895741 1.4159645 -1.056556 2.3509631e-38
2.8909962 1.441052 -1.0565572 2.3509631e-38
2.8942163 1.4510388 -1.0565363 2.3509632e-38
2.8928549 1.4670379 -1.0565555 2.3509632e-38
2.8882046 1.4809428 -1.0565997 2.3509632e-38
2.8848243 1.4952041 -1.0566342 2.3509632e-38
2.8860221 1.5294229 -1.0566418 2.3509632e-38
2.8820369 1.5600522 -1.0566891 2.3509633e-38
2.8814266 1.5764447 -1.0567025 2.3509633e-38
2.8850768 1.5943983 -1.0566821 2.3509633e-38
2.8788259 1.6083299 -1.0567394 2.3509633e-38
2.8749852 1.654207 -1.0567935 2.3509633e-38
2.8831663 1.6767524 -1.056739 2.3509635e-38
2.8883955 1.7114843 -1.0567145 2.3509635e-38
2.9054513 1.7536749 -1.0565988 2.3509635e-38
2.9142072 1.7753537 -1.0565393 2.3509635e-38
2.8942697 1.8299438 -1.0567272 2.3509635e-38
2.8903551 1.8616914 -1.0567745 2.3509636e-38
2.8928049 1.8799452 -1.0567641 2.3509636e-38
2.89011 1.9100201 -1.056801 2.3509636e-38
2.8960707 1.9306496 -1.0567634 2.3509636e-38
2.8974798 1.9804628 -1.0567772 2.3509636e-38
2.8863204 2.0069659 -1.0568802 2.3509638e-38
2.8820901 2.0548167 -1.0569385 2.3509638e-38
2.8892138 2.073961 -1.056891 2.3509638e-38
2.9100151 2.1124766 -1.0567431 2.3509638e-38
2.9157648 2.1219697 -1.0567015 2.3509638e-38
2.941169 2.152086 -1.0565126 2.3509639e-38
2.926913 2.193774 -1.0566481 2.3509639e-38
2.9078102 2.217993 -1.0568141 2.3509639e-38
2.8998692 2.2623816 -1.0569005 2.3509639e-38
2.8817019 2.2858388 -1.0570582 2.3509639e-38
2.8723917 2.3151867 -1.057148 2.350964e-38
2.8458021 2.3665268 -1.0573876 2.350964e-38
2.8279896 2.3736544 -1.0575346 2.350964e-38
2.8028033 2.3744097 -1.0577374 2.350964e-38
2.7764893 2.3764663 -1.05795 2.350964e-38
2.7578402 2.3838153 -1.0581037 2.3509642e-38
2.7377813 2.3937986 -1.05827 2.3509642e-38
2.6623943 2.4202049 -1.0588894 2.3509642e-38
2.6576886 2.4178333 -1.0589261 2.3509642e-38
2.61097 2.3780081 -1.0592816 2.3509642e-38
2.5991802 2.3756602 -1.0593752 2.3509643e-38
2.5937691 2.3745856 -1.0594182 2.3509643e-38
2.5798562 2.3717475 -1.0595287 2.3509643e-38
2.5646522 2.37047 -1.0596503 2.3509643e-38
2.4999154 2.4020157 -1.0601867 2.3509643e-38
2.4418037 2.3660903 -1.0606359 2.3509645e-38
2.4244883 2.3644516 -1.0607743 2.3509645e-38
2.3904011 2.3618031 -1.0610471 2.3509645e-38
2.355181 2.3591366 -1.0613289 2.3509645e-38
2.3510964 2.3571873 -1.0613607 2.3509645e-38
2.2879589 2.360666 -1.0618701 2.3509646e-38
2.2495828 2.4697216 -1.0622337 2.3509646e-38
2.2816422 2.5039923 -1.0619934 2.3509646e-38
2.3146801 2.5366683 -1.0617441 2.3509646e-38
2.341475 2.5670066 -1.0615438 2.3509646e-38
2.349787 2.5715375 -1.0614796 2.3509647e-38
2.3537471 2.573314 -1.0614485 2.3509647e-38
2.360465 2.5770328 -1.0613964 2.3509647e-38
2.3792863 2.6192112 -1.0612663 2.3509647e-38
2.4122369 2.6528807 -1.0610185 2.3509647e-38
2.4317605 2.6795657 -1.0608748 2.3509649e-38
2.4456723 2.7033784 -1.060775 2.3509649e-38
2.4688489 2.7319825 -1.060603 2.3509649e-38
2.5124602 2.7712567 -1.0602722 2.3509649e-38
2.5178723 2.7742634 -1.0602304 2.3509649e-38
2.5366919 2.7837732 -1.0600837 2.350965e-38
2.5449505 2.7907097 -1.0600207 2.350965e-38
2.5492489 2.7962823 -1.0599891 2.350965e-38
2.5594132 2.8722918 -1.0599458 2.350965e-38
2.5543897 2.893172 -1.0599966 2.350965e-38
2.5148101 2.8895097 -1.060313 2.3509652e-38
2.4663427 2.862642 -1.0606892 2.3509652e-38
2.4177756 2.8669 -1.0610818 2.3509652e-38
2.3741381 2.8753335 -1.061437 2.3509652e-38
2.3644528 2.8759265 -1.061515 2.3509652e-38
2.3271883 2.8895216 -1.0618216 2.3509653e-38
2.305959 2.8809581 -1.061988 2.3509653e-38
2.2928205 2.8730977 -1.0620897 2.3509653e-38
2.2446549 2.8637094 -1.0624722 2.3509653e-38
2.1997149 2.8730695 -1.0628383 2.3509653e-38
2.1864929 2.8814759 -1.0629489 2.3509654e-38
2.1731343 2.8762619 -1.0630537 2.3509654e-38
2.1366153 2.8740933 -1.0633461 2.3509654e-38
2.091644 2.8994629 -1.0637206 2.3509654e-38
2.0510011 2.8781946 -1.0640366 2.3509654e-38
2.0424545 2.875526 -1.0641041 2.3509656e-38
2.029088 2.8701248 -1.0642087 2.3509656e-38
1.9644704 2.8660538 -1.0647264 2.3509656e-38
1.9054503 2.8684742 -1.0652021 2.3509656e-38
1.8846747 2.8746181 -1.0653723 2.3509657e-38
1.87449 2.869381 -1.0654515 2.3509657e-38
1.8705274 2.8674743 -1.0654824 2.3509657e-38
1.8614622 2.8640196 -1.0655535 2.3509657e-38
1.8317298 2.856823 -1.065789 2.3509657e-38
1.791134 2.8592503 -1.0661167 2.3509659e-38
1.7746681 2.859694 -1.0662493 2.3509659e-38
1.7697699 2.8576305 -1.0662876 2.3509659e-38
1.6902272 2.8402708 -1.0669184 2.3509659e-38
1.6630666 2.8327091 -1.0671329 2.3509659e-38
1.6576399 2.8316643 -1.0671761 2.350966e-38
1.5962523 2.8401835 -1.067674 2.350966e-38
1.5808928 2.8478248 -1.0678012 2.350966e-38
1.5650499 2.8503504 -1.06793 2.350966e-38
1.4791174 2.845372 -1.0686184 2.350966e-38
1.4389656 2.8216264 -1.0689293 2.3509661e-38
1.3540752 2.8457825 -1.0696242 2.3509661e-38
1.352065 2.8289058 -1.0696317 2.3509661e-38
1.3352156 2.7871473 -1.0697461 2.3509661e-38
1.3344508 2.7529223 -1.0697349 2.3509661e-38
1.3097211 2.6271961 -1.0698704 2.3509663e-38
1.256315 2.6305659 -1.0703015 2.3509663e-38
1.2360767 2.6202161 -1.0704591 2.3509663e-38
1.2254808 2.6176088 -1.0705429 2.3509663e-38
1.2190526 2.594866 -1.0705831 2.3509663e-38
1.2133027 2.5753334 -1.0706196 2.3509664e-38
1.2110356 2.5426908 -1.0706213 2.3509664e-38
1.1947492 2.5067766 -1.0707341 2.3509664e-38
1.1303668 2.4812829 -1.0712389 2.3509664e-38
1.1157978 2.4828126 -1.0713569 2.3509664e-38
1.0847214 2.4914777 -1.071611 2.3509666e-38
1.0575726 2.4953082 -1.0718313 2.3509666e-38
1.0246133 2.494756 -1.072096 2.3509666e-38
1.0176715 2.4915814 -1.0721502 2.3509666e-38
0.97206908 2.4816914 -1.0725119 2.3509666e-38
0.9619658 2.4798391 -1.0725923 2.3509667e-38
0.91417837 2.4828432 -1.072978 2.3509667e-38
0.90855277 2.4850559 -1.0730244 2.3509667e-38
0.88466626 2.4889781 -1.0732185 2.3509667e-38
0.8537873 2.4910693 -1.0734677 2.3509667e-38
0.83489221 2.4952083 -1.0736217 2.3509668e-38
0.82179332 2.4901934 -1.0737245 2.3509668e-38
0.79430395 2.4881163 -1.0739444 2.3509668e-38
0.77495301 2.4891679 -1.0741009 2.3509668e-38
0.76932448 2.4902945 -1.0741465 2.3509668e-38
0.76246607 2.4905436 -1.0742018 2.350967e-38
0.74591208 2.4924786 -1.0743358 2.350967e-38
0.7326991 2.4915926 -1.0744417 2.350967e-38
0.71263415 2.4858077 -1.0746001 2.350967e-38
0.6848098 2.48013 -1.0748211 2.350967e-38
0.64102751 2.4773309 -1.0751717 2.3509671e-38
0.62228274 2.4844608 -1.0753258 2.3509671e-38
0.60409755 2.4874275 -1.0754737 2.3509671e-38
0.59437954 2.4860771 -1.075551 2.3509671e-38
0.56735522 2.4759295 -1.0757632 2.3509671e-38
0.53344536 2.4706271 -1.0760332 2.3509673e-38
0.50560051 2.4583566 -1.0762509 2.3509673e-38
0.48872223 2.456212 -1.0763855 2.3509673e-38
0.47384936 2.4558911 -1.0765049 2.3509673e-38
0.41240692 2.4577522 -1.077 2.3509673e-38
0.38462949 2.4559114 -1.0772223 2.3509674e-38
0.3539415 2.4557533 -1.077469 2.3509674e-38
0.34406045 2.4556162 -1.0775486 2.3509674e-38
0.33178073 2.4573078 -1.077648 2.3509674e-38
0.31843817 2.4551587 -1.0777543 2.3509674e-38
0.31203255 2.4547789 -1.0778055 2.3509675e-38
0.2897872 2.4510705 -1.0779825 2.3509675e-38
0.270354 2.4506052 -1.0781385 2.3509675e-38
0.2389489 2.4485922 -1.0783901 2.3509675e-38
0.19102784 2.457979 -1.0787802 2.3509675e-38
0.18815948 2.4582634 -1.0788033 2.3509677e-38
0.17867428 2.4576564 -1.0788794 2.3509677e-38
0.16896251 2.4582255 -1.0789577 2.3509677e-38
0.15689647 2.4587038 -1.0790551 2.3509677e-38
0.14627983 2.4607863 -1.0791415 2.3509677e-38
0.13509847 2.4604323 -1.0792311 2.3509678e-38
0.12158448 2.460582 -1.0793399 2.3509678e-38
0.11513685 2.4615049 -1.0793921 2.3509678e-38
0.09563414 2.4581201 -1.0795473 2.3509678e-38
0.080366373 2.4577103 -1.0796698 2.3509678e-38
0.065055907 2.4584353 -1.0797932 2.350968e-38
0.026001979 2.4620275 -1.0801091 2.350968e-38
0.01530933 2.4596276 -1.0801939 2.350968e-38
-0.020764831 2.4583464 -1.0804833 2.350968e-38
-0.046386957 2.4665725 -1.0806935 2.350968e-38
-0.057772029 2.4637227 -1.0807836 2.3509681e-38
-0.077833295 2.4612305 -1.0809437 2.3509681e-38
-0.08657527 2.4614296 -1.0810139 2.3509681e-38
-0.15567106 2.5252006 -1.0816017 2.3509681e-38
-0.16391569 2.5539424 -1.0816826 2.3509682e-38
-0.17343171 2.5819268 -1.0817732 2.3509682e-38
-0.17593811 2.5822539 -1.0817935 2.3509682e-38
-0.22805481 2.5794868 -1.0822111 2.3509682e-38
-0.2551055 2.5890396 -1.0824335 2.3509682e-38
-0.29539934 2.5791688 -1.0827526 2.3509684e-38
-0.35353374 2.5495963 -1.0832051 2.3509684e-38
-0.4549537 2.5513818 -1.0840214 2.3509684e-38
-0.46173048 2.5572057 -1.0840789 2.3509684e-38
-0.4884257 2.5668201 -1.0842985 2.3509684e-38
-0.59600943 2.5449769 -1.0851524 2.3509685e-38
-0.65892714 2.5280352 -1.0856497 2.3509685e-38
-0.72139573 2.5443096 -1.0861603 2.3509685e-38
-0.76998687 2.5529542 -1.0865554 2.3509685e-38
-0.77889878 2.5516601 -1.0866262 2.3509685e-38
-0.81247526 2.545608 -1.0868933 2.3509687e-38
-0.85452706 2.5584962 -1.0872378 2.3509687e-38
-0.86743492 2.5528886 -1.0873388 2.3509687e-38
-0.9084031 2.5471215 -1.0876653 2.3509687e-38
-0.9450413 2.561404 -1.0879673 2.3509687e-38
-0.99272376 2.5694482 -1.0883547 2.3509688e-38
-1.0011358 2.569201 -1.0884222 2.3509688e-38
-1.0392159 2.5717854 -1.0887296 2.3509688e-38
-1.0546733 2.5704801 -1.0888532 2.3509688e-38
-1.0900561 2.5692592 -1.0891373 2.3509688e-38
-1.1360508 2.5630581 -1.089504 2.3509689e-38
-1.1699245 2.5519736 -1.0897708 2.3509689e-38
-1.1901557 2.5516956 -1.0899332 2.3509689e-38
-1.2391248 2.5735188 -1.0903379 2.3509689e-38
-1.2867106 2.5664599 -1.090717 2.3509689e-38
-1.3393843 2.5542266 -1.0911342 2.3509691e-38
-1.3705689 2.5553024 -1.0913857 2.3509691e-38
-1.4068391 2.5541587 -1.0916767 2.3509691e-38
-1.486486 2.5277128 -1.0923038 2.3509691e-38
-1.5269288 2.5566652 -1.0926437 2.3509691e-38
-1.5439439 2.5645752 -1.0927844 2.3509692e-38
-1.5763404 2.5563776 -1.0930407 2.3509692e-38
-1.6588014 2.5374098 -1.0936941 2.3509692e-38
-1.6878002 2.5394247 -1.0939285 2.3509692e-38
-1.7449515 2.5569558 -1.0943968 2.3509692e-38
-1.7558389 2.4823389 -1.0944467 2.3509694e-38
-1.7572256 2.4698107 -1.0944515 2.3509694e-38
-1.7591342 2.4540541 -1.0944589 2.3509694e-38
-1.7980075 2.3818328 -1.094735 2.3509694e-38
-1.7985781 2.3667283 -1.0947318 2.3509694e-38
-1.8579105 2.2657194 -1.0951581 2.3509695e-38
-1.9181606 2.2698767 -1.0956446 2.3509695e-38
-1.9492089 2.2716815 -1.0958953 2.3509695e-38
-1.9837106 2.2661002 -1.0961697 2.3509695e-38
-2.0255642 2.2777407 -1.0965123 2.3509695e-38
-2.063431 2.2648866 -1.0968102 2.3509696e-38
-2.0838656 2.2666516 -1.0969754 2.3509696e-38
-2.0877724 2.2671847 -1.097007 2.3509696e-38
-2.1046419 2.2686 -1.0971434 2.3509696e-38
-2.1185303 2.2657926 -1.0972536 2.3509696e-38
-2.1228406 2.2653506 -1.0972881 2.3509698e-38
-2.1468434 2.267534 -1.097482 2.3509698e-38
-2.1618121 2.268605 -1.0976031 2.3509698e-38
-2.1886265 2.2591972 -1.0978138 2.3509698e-38
-2.194262 2.2585547 -1.097859 2.3509698e-38
-2.2019863 2.2552938 -1.0979195 2.3509699e-38
-2.2419121 2.2528415 -1.0982389 2.3509699e-38
-2.2899108 2.2637858 -1.0986307 2.3509699e-38
-2.3148317 2.2603586 -1.0988294 2.3509699e-38
-2.3505762 2.2699454 -1.0991217 2.3509699e-38
-2.3946688 2.2877336 -1.0994852 2.3509701e-38
-2.3955593 2.2881746 -1.0994925 2.3509701e-38
-2.4056685 2.2938144 -1.0995766 2.3509701e-38
-2.411761 2.2940519 -1.0996257 2.3509701e-38
-2.417443 2.2929659 -1.0996709 2.3509701e-38
-2.4259531 2.2909892 -1.0997385 2.3509702e-38
-2.4392307 2.2834067 -1.0998412 2.3509702e-38
-2.4699569 2.2712417 -1.1000822 2.3509702e-38
-2.4835644 2.2678156 -1.1001898 2.3509702e-38
-2.4871683 2.2632618 -1.1002165 2.3509702e-38
-2.4926653 2.255388 -1.1002568 2.3509703e-38
-2.494307 2.253114 -1.1002688 2.3509703e-38
-2.4931054 2.2375774 -1.1002513 2.3509703e-38
-2.4904907 2.2192912 -1.100221 2.3509703e-38
-2.4888244 2.2086291 -1.1002023 2.3509703e-38
-2.4845154 2.1762111 -1.1001514 2.3509705e-38
-2.487488 2.1238453 -1.1001487 2.3509705e-38
-2.4833124 2.111238 -1.1001087 2.3509705e-38
-2.4815376 2.0950825 -1.1000863 2.3509705e-38
-2.4830656 2.0766428 -1.1000893 2.3509705e-38
-2.4934232 2.0223553 -1.1001452 2.3509706e-38
-2.4925077 2.0058739 -1.1001297 2.3509706e-38
-2.4900868 1.9920692 -1.100103 2.3509706e-38
-2.4918668 1.9568377 -1.1000996 2.3509706e-38
-2.4933853 1.9392729 -1.100103 2.3509708e-38
-2.4841101 1.8958676 -1.1000066 2.3509708e-38
-2.5189314 1.8272663 -1.1002519 2.3509708e-38
-2.4745705 1.7684897 -1.0998657 2.3509708e-38
-2.4725599 1.7526423 -1.0998414 2.3509708e-38
-2.4692945 1.7379943 -1.0998077 2.3509709e-38
-2.468694 1.7212832 -1.0997945 2.3509709e-38
-2.4718757 1.7035452 -1.0998111 2.3509709e-38
-2.4731827 1.6861389 -1.0998129 2.3509709e-38
-2.4673712 1.6561486 -1.099751 2.3509709e-38
-2.4685123 1.6388384 -1.0997514 2.350971e-38
-2.4707525 1.6055901 -1.0997528 2.350971e-38
-2.4703166 1.5912838 -1.0997421 2.350971e-38
-2.4687605 1.5727441 -1.09972 2.350971e-38
-2.4720004 1.5517633 -1.0997354 2.350971e-38
-2.4708922 1.5384222 -1.0997199 2.3509712e-38
-2.4727077 1.5210702 -1.0997256 2.3509712e-38
-2.4695039 1.5060362 -1.0996923 2.3509712e-38
-2.4670296 1.4932371 -1.099666 2.3509712e-38
-2.4647148 1.4756515 -1.0996385 2.3509712e-38
-2.4653373 1.4603012 -1.0996357 2.3509713e-38
-2.4647121 1.4452932 -1.0996233 2.3509713e-38
-2.468555 1.4093126 -1.099636 2.3509713e-38
-2.4633963 1.3946207 -1.0995871 2.3509713e-38
-2.4729187 1.3382989 -1.0996352 2.3509713e-38
-2.473614 1.3249242 -1.0996341 2.3509715e-38
-2.4713042 1.3082429 -1.099607 2.3509715e-38
-2.4687364 1.2927595 -1.0995786 2.3509715e-38
-2.4637682 1.245753 -1.0995148 2.3509715e-38
-2.4642372 1.2417907 -1.0995166 2.3509715e-38
-2.4664872 1.227401 -1.0995275 2.3509716e-38
-2.4645064 1.2129916 -1.0995042 2.3509716e-38
-2.4664116 1.1890016 -1.0995075 2.3509716e-38
-2.4638555 1.1795506 -1.0994822 2.3509716e-38
-2.4531481 1.1517451 -1.099382 2.3509716e-38
-2.4451408 1.1002061 -1.0992918 2.3509717e-38
-2.4437234 1.0907273 -1.0992755 2.3509717e-38
-2.4441404 1.0741072 -1.0992703 2.3509717e-38
-2.4494388 1.0551115 -1.0993035 2.3509717e-38
-2.4497426 1.0374912 -1.0992969 2.3509717e-38
-2.448607 1.0083976 -1.0992732 2.3509719e-38
-2.4481375 1.0063617 -1.0992683 2.3509719e-38
-2.4461493 0.99073201 -1.0992445 2.3509719e-38
-2.4476671 0.97360069 -1.0992481 2.3509719e-38
-2.4445333 0.94319439 -1.0992075 2.3509719e-38
-2.4408288 0.92737752 -1.0991697 2.350972e-38
-2.4420536 0.86138207 -1.0991464 2.350972e-38
-2.4423275 0.84520429 -1.0991403 2.350972e-38
-2.4434009 0.82929724 -1.0991409 2.350972e-38
-2.4375789 0.81065089 -1.0990847 2.350972e-38
-2.4363081 0.79713356 -1.0990677 2.3509722e-38
-2.435909 0.77617937 -1.0990539 2.3509722e-38
-2.4384372 0.76385254 -1.099068 2.3509722e-38
-2.4478219 0.73976952 -1.0991313 2.3509722e-38
-2.4494746 0.72460204 -1.0991369 2.3509722e-38
-2.4454136 0.71019381 -1.099097 2.3509723e-38
-2.4439974 0.66200149 -1.0990614 2.3509723e-38
-2.4407928 0.64703721 -1.099028 2.3509723e-38
-2.4437292 0.59572327 -1.0990256 2.3509723e-38
-2.4649951 0.56820995 -1.0991827 2.3509723e-38
-2.4480202 0.52711701 -1.0990255 2.3509724e-38
-2.4451935 0.51110113 -1.0989947 2.3509724e-38
-2.4440148 0.49524084 -1.0989773 2.3509724e-38
-2.4453926 0.46458536 -1.0989728 2.3509724e-38
-2.445596 0.46224546 -1.0989734 2.3509724e-38
-2.4445524 0.44643375 -1.0989569 2.3509726e-38
-2.4720688 0.36654288 -1.0991379 2.3509726e-38
-2.4375825 0.31780201 -1.0988359 2.3509726e-38
-2.4268308 0.29089427 -1.0987359 2.3509726e-38
-2.4293294 0.25593182 -1.0987383 2.3509726e-38
-2.4265537 0.24146886 -1.0987087 2.3509727e-38
-2.4149373 0.19808908 -1.0985936 2.3509727e-38
-2.4233501 0.16097699 -1.0986422 2.3509727e-38
-2.4210153 0.11392006 -1.0985999 2.3509727e-38
-2.4208138 0.096348584 -1.0985894 2.3509727e-38
-2.4252634 0.075446531 -1.0986145 2.3509729e-38
-2.4277949 0.068821944 -1.0986316 2.3509729e-38
-2.4349957 0.055630073 -1.0986829 2.3509729e-38
-2.422621 0.028869594 -1.0985699 2.3509729e-38
-2.4076231 -0.028422209 -1.0984204 2.3509729e-38
-2.4004447 -0.042500958 -1.0983555 2.350973e-38
-2.385839 -0.08163701 -1.0982183 2.350973e-38
-2.3897765 -0.13451879 -1.0982234 2.350973e-38
-2.3902049 -0.15209079 -1.0982177 2.350973e-38
-2.3877401 -0.16780028 -1.0981902 2.350973e-38
-2.3982575 -0.2191222 -1.0982488 2.3509731e-38
-2.4014449 -0.24883144 -1.0982596 2.3509731e-38
-2.4026868 -0.25793156 -1.0982648 2.3509731e-38
-2.3982332 -0.2723316 -1.0982218 2.3509731e-38
-2.3966684 -0.28792587 -1.0982013 2.3509733e-38
-2.3958361 -0.30414671 -1.0981863 2.3509733e-38
-2.395365 -0.33483723 -1.0981672 2.3509733e-38
-2.3981116 -0.35478193 -1.0981791 2.3509733e-38
-2.4051001 -0.40793601 -1.0982085 2.3509733e-38
-2.4125695 -0.42830098 -1.0982583 2.3509734e-38
-2.4147446 -0.44597965 -1.0982668 2.3509734e-38
-2.4114482 -0.45969501 -1.0982335 2.3509734e-38
-2.4120097 -0.49399886 -1.0982207 2.3509734e-38
-2.4153678 -0.51098454 -1.0982392 2.3509734e-38
-2.4089363 -0.54200912 -1.0981717 2.3509736e-38
-2.4027376 -0.61188298 -1.0980867 2.3509736e-38
-2.4026551 -0.62069511 -1.0980814 2.3509736e-38
-2.4082921 -0.67316151 -1.0981002 2.3509736e-38
-2.4157736 -0.69376802 -1.0981501 2.3509736e-38
-2.4164701 -0.71063936 -1.0981472 2.3509737e-38
-2.3907952 -0.77902335 -1.0979062 2.3509737e-38
-2.3912914 -0.79423779 -1.0979025 2.3509737e-38
-2.3930166 -0.83034766 -1.0978981 2.3509737e-38
-2.3894212 -0.86074877 -1.0978539 2.3509737e-38
-2.3858404 -0.90947902 -1.0978005 2.3509738e-38
-2.3912632 -0.92671418 -1.0978354 2.3509738e-38
-2.392072 -0.92899877 -1.0978408 2.3509738e-38
-2.3882301 -0.9427464 -1.097803 2.3509738e-38
-2.3857703 -0.97326601 -1.0977678 2.3509738e-38
-2.3864877 -0.98975629 -1.0977652 2.350974e-38
-2.3824742 -1.0063969 -1.0977246 2.350974e-38
-2.3810453 -1.0225377 -1.0977049 2.350974e-38
-2.3827205 -1.0402662 -1.0977094 2.350974e-38
-2.3812375 -1.0513133 -1.097692 2.350974e-38
-2.3811231 -1.0554723 -1.0976889 2.3509741e-38
-2.3832235 -1.0732845 -1.0976968 2.3509741e-38
-2.3756797 -1.1022267 -1.0976216 2.3509741e-38
-2.3742707 -1.117493 -1.0976025 2.3509741e-38
-2.3786659 -1.1530429 -1.0976199 2.3509741e-38
-2.3877606 -1.1910121 -1.0976739 2.3509743e-38
-2.3928745 -1.2083998 -1.0977062 2.3509743e-38
-2.3875051 -1.2389677 -1.0976477 2.3509743e-38
-2.3904209 -1.2578816 -1.0976615 2.3509743e-38
-2.390564 -1.2586643 -1.0976623 2.3509743e-38
-2.3858392 -1.2725185 -1.0976173 2.3509744e-38
-2.3864269 -1.3084003 -1.0976039 2.3509744e-38
-2.404197 -1.3634903 -1.097719 2.3509744e-38
-2.4011436 -1.4289012 -1.0976615 2.3509744e-38
-2.3962636 -1.493099 -1.0975899 2.3509744e-38
-2.3919125 -1.5065157 -1.097548 2.3509745e-38
-2.3879902 -1.5206428 -1.0975094 2.3509745e-38
-2.3802145 -1.5653727 -1.0974244 2.3509745e-38
-2.3826287 -1.5837986 -1.0974343 2.3509745e-38
-2.3781776 -1.6021763 -1.0973895 2.3509745e-38
-2.3802881 -1.6396952 -1.0973873 2.3509747e-38
-2.399339 -1.6737088 -1.0975232 2.3509747e-38
-2.400975 -1.6916574 -1.0975275 2.3509747e-38
-2.3978336 -1.7058256 -1.0974951 2.3509747e-38
-2.394273 -1.7545583 -1.0974419 2.3509747e-38
-2.4048588 -1.7769407 -1.0975157 2.3509748e-38
-2.4084396 -1.811924 -1.0975267 2.3509748e-38
-2.374517 -1.8765379 -1.0972215 2.3509748e-38
-2.3722498 -1.8920023 -1.0971953 2.3509748e-38
-2.3780816 -1.9271214 -1.0972246 2.3509748e-38
-2.3725765 -1.9409788 -1.0971735 2.350975e-38
-2.3623643 -1.9863899 -1.0970684 2.350975e-38
-2.3665986 -2.0204806 -1.0970851 2.350975e-38
-2.3550408 -2.0659795 -1.0969694 2.350975e-38
-2.3599446 -2.0863955 -1.0969982 2.350975e-38
-2.3869214 -2.1312165 -1.0971926 2.3509751e-38
-2.3894413 -2.1478453 -1.0972046 2.3509751e-38
-2.3716807 -2.1942263 -1.0970384 2.3509751e-38
-2.3835855 -2.2594824 -1.0971011 2.3509751e-38
-2.3620028 -2.2834823 -1.0969155 2.3509751e-38
-2.3546362 -2.2962239 -1.0968498 2.3509752e-38
-2.3499284 -2.3099778 -1.096805 2.3509752e-38
-2.4635506 2.1034176 -1.0999459 2.3509752e-38
-2.4540584 2.0432944 -1.0998394 2.3509752e-38
-2.4703462 2.0172017 -1.0999571 2.3509752e-38
-2.4753678 1.9661384 -1.0999717 2.3509754e-38
-2.4748724 1.9563295 -1.0999628 2.3509754e-38
-2.4741859 1.9336963 -1.0999459 2.3509754e-38
-2.4642193 1.9048672 -1.0998511 2.3509754e-38
-2.4613886 1.8744168 -1.0998131 2.3509754e-38
-2.4579184 1.8575568 -1.0997766 2.3509755e-38
-2.4517794 1.8298264 -1.0997132 2.3509755e-38
-2.4466822 1.7831639 -1.0996488 2.3509755e-38
-2.439332 1.7704593 -1.0995833 2.3509755e-38
-2.4320989 1.7246802 -1.099502 2.3509755e-38
-2.4381595 1.704634 -1.0995407 2.3509757e-38
-2.4394002 1.6713749 -1.0995338 2.3509757e-38
-2.4497814 1.6503124 -1.0996065 2.3509757e-38
-2.4544463 1.6305799 -1.0996343 2.3509757e-38
-2.457937 1.6114841 -1.0996525 2.3509758e-38
-2.4541149 1.563705 -1.0995978 2.3509758e-38
-2.4500141 1.5173061 -1.0995413 2.3509758e-38
-2.429085 1.4440371 -1.099336 2.3509758e-38
-2.4420173 1.405952 -1.0994209 2.3509758e-38
-2.4395549 1.3741423 -1.099385 2.3509759e-38
-2.4370041 1.3413491 -1.0993479 2.3509759e-38
-2.4327435 1.327045 -1.0993065 2.3509759e-38
-2.2993462 1.3315089 -1.0982362 2.3509759e-38
-2.2632234 1.3667526 -1.0979633 2.3509759e-38
-2.2497246 1.3737438 -1.0978584 2.3509761e-38
-2.2106459 1.361017 -1.0975378 2.3509761e-38
-2.1256309 1.4546418 -1.0969014 2.3509761e-38
-2.1019816 1.4981952 -1.0967332 2.3509761e-38
-2.0764706 1.5461707 -1.0965525 2.3509761e-38
-2.0743434 1.5802786 -1.0965525 2.3509762e-38
-2.0392973 1.6479635 -1.0963048 2.3509762e-38
-2.0382843 1.7145165 -1.0963304 2.3509762e-38
-2.0100663 1.762167 -1.0961274 2.3509762e-38
-1.9821497 1.8093464 -1.0959268 2.3509762e-38
-1.9541143 1.7911958 -1.0956922 2.3509764e-38
-1.8645625 1.7525694 -1.0949526 2.3509764e-38
-1.7596341 1.7937328 -1.0941297 2.3509764e-38
-1.7659429 1.8723304 -1.09422 2.3509764e-38
-1.7729425 1.8852079 -1.0942829 2.3509764e-38
-1.7848743 1.9450251 -1.094409 2.3509765e-38
-1.7965392 1.9719849 -1.0945163 2.3509765e-38
-1.7845063 1.9781936 -1.0944227 2.3509765e-38
-1.7313397 2.0388234 -1.0940259 2.3509765e-38
-1.7001246 2.1210108 -1.0938162 2.3509765e-38
-1.6953441 2.1400049 -1.0937874 2.3509767e-38
-1.7888908 2.2216685 -1.0945809 2.3509767e-38
-1.8462617 2.233547 -1.0950482 2.3509767e-38
-1.8853263 2.2381537 -1.0953646 2.3509767e-38
-1.904299 2.245369 -1.0955209 2.3509767e-38
-1.9276352 2.2521684 -1.0957119 2.3509768e-38
-1.9584098 2.2506258 -1.0959586 2.3509768e-38
-1.9936857 2.2556725 -1.0962447 2.3509768e-38
-2.0220184 2.249469 -1.0964694 2.3509768e-38
-2.0589459 2.2518044 -1.0967675 2.3509768e-38
-2.0697794 2.2509904 -1.0968542 2.3509769e-38
-2.1021497 2.2414806 -1.0971098 2.3509769e-38
-2.1213529 2.2514617 -1.0972693 2.3509769e-38
-2.1453729 2.2553482 -1.0974641 2.3509769e-38
-2.1754029 2.25172 -1.0977038 2.3509769e-38
-2.1873267 2.247004 -1.0977975 2.3509771e-38
-2.1945395 2.2436109 -1.0978535 2.3509771e-38
-2.2097151 2.2345269 -1.0979711 2.3509771e-38
-2.2430718 2.242444 -1.0982434 2.3509771e-38
-2.2501388 2.2427788 -1.0983003 2.3509771e-38
-2.2633524 2.2418418 -1.0984061 2.3509772e-38
-2.306529 2.2351794 -1.0987498 2.3509772e-38
-2.3298156 2.2406476 -1.0989398 2.3509772e-38
-2.3408902 2.2415581 -1.0990292 2.3509772e-38
-2.3502214 2.2429299 -1.099105 2.3509772e-38
-2.3768778 2.2484796 -1.0993222 2.3509774e-38
-2.4626122 2.1701746 -1.099972 2.3509774e-38
-2.4642789 2.1529548 -1.0999768 2.3509774e-38
-2.4638894 2.1354616 -1.0999647 2.3509774e-38
0.99444807 0.264541 -1.071213 2.3509774e-38
1.0002052 0.2534202 -1.0711612 2.3509775e-38
1.0103387 0.19286218 -1.071049 2.3509775e-38
1.0134634 0.16136409 -1.0710081 2.3509775e-38
1.0109642 0.14358622 -1.0710192 2.3509775e-38
1.032174 0.088596821 -1.0708209 2.3509775e-38
1.0358717 0.057444155 -1.0707755 2.3509776e-38
1.0304148 0.024951808 -1.0708029 2.3509776e-38
1.0290412 0.0044141626 -1.0708036 2.3509776e-38
1.0391203 -0.056382809 -1.0706919 2.3509776e-38
1.0316302 -0.076762155 -1.0707418 2.3509776e-38
1.0291533 -0.11098634 -1.0707445 2.3509778e-38
1.0229334 -0.13074759 -1.0707846 2.3509778e-38
1.0177497 -0.18281898 -1.0707999 2.3509778e-38
0.99980706 -0.20879212 -1.0709311 2.3509778e-38
0.98764741 -0.26460963 -1.0710007 2.3509778e-38
0.9808569 -0.28469747 -1.0710452 2.3509779e-38
0.98044544 -0.3178677 -1.0710317 2.3509779e-38
0.97394115 -0.33776724 -1.071074 2.3509779e-38
0.97018045 -0.37291116 -1.0710865 2.3509779e-38
0.93673617 -0.43954584 -1.0713217 2.3509779e-38
0.91527039 -0.46717474 -1.0714803 2.3509781e-38
0.88600379 -0.49905071 -1.0716995 2.3509781e-38
0.87223053 -0.50623137 -1.0718068 2.3509781e-38
0.8639071 -0.52698815 -1.0718632 2.3509781e-38
0.84795386 -0.55183882 -1.0719789 2.3509781e-38
0.82104373 -0.58231646 -1.0721799 2.3509782e-38
0.79416633 -0.62927824 -1.0723723 2.3509782e-38
0.78797507 -0.64896077 -1.0724123 2.3509782e-38
0.77090722 -0.67434293 -1.0725366 2.3509782e-38
0.7362178 -0.70886022 -1.0727981 2.3509782e-38
0.71811193 -0.71822709 -1.072939 2.3509783e-38
0.70737535 -0.72380346 -1.0730226 2.3509783e-38
0.6561904 -0.76689392 -1.0734123 2.3509783e-38
0.6470328 -0.77159327 -1.0734836 2.3509783e-38
0.61172789 -0.80644482 -1.0737499 2.3509785e-38
0.5800916 -0.82291001 -1.0739959 2.3509785e-38
0.56851667 -0.82890272 -1.074086 2.3509785e-38
0.54528815 -0.85742849 -1.0742583 2.3509785e-38
0.51292396 -0.87422538 -1.0745101 2.3509785e-38
0.44360712 -0.91017473 -1.0750494 2.3509786e-38
0.41359949 -0.92572629 -1.0752828 2.3509786e-38
0.38847229 -0.93874174 -1.0754783 2.3509786e-38
0.37274334 -0.94693869 -1.0756006 2.3509786e-38
0.36227229 -0.95239133 -1.075682 2.3509786e-38
0.31222028 -0.96181375 -1.0760797 2.3509788e-38
0.30215013 -0.96701419 -1.0761579 2.3509788e-38
0.28430468 -0.97629809 -1.0762969 2.3509788e-38
0.2560119 -0.98697954 -1.076519 2.3509788e-38
0.21883851 -0.99378121 -1.0768144 2.3509788e-38
0.19483367 -1.0062528 -1.0770012 2.3509789e-38
0.14662926 -1.0147758 -1.0773845 2.3509789e-38
0.12403636 -1.0100158 -1.0775685 2.3509789e-38
0.075662024 -1.0185416 -1.0779532 2.3509789e-38
0.040863916 -1.0200906 -1.0782323 2.3509789e-38
0.021037351 -1.0139046 -1.0783948 2.350979e-38
-0.00082981959 -1.0087447 -1.0785733 2.350979e-38
-0.037410147 -1.0112144 -1.0788661 2.350979e-38
-0.087970778 -1.0045127 -1.0792758 2.350979e-38
-0.1251837 -1.0072373 -1.0795739 2.350979e-38
-0.14537734 -1.0012473 -1.0797391 2.3509792e-38
-0.1930152 -1.0094768 -1.0801182 2.3509792e-38
-0.21491432 -1.0042994 -1.0802969 2.3509792e-38
-0.26397237 -0.98021889 -1.0807035 2.3509792e-38
-0.28600985 -0.97518075 -1.0808833 2.3509792e-38
-0.30639139 -0.96919233 -1.0810502 2.3509793e-38
-0.33797944 -0.95260555 -1.0813124 2.3509793e-38
-0.34938312 -0.94970679 -1.0814055 2.3509793e-38
-0.37302133 -0.93782836 -1.0816019 2.3509793e-38
-0.4208006 -0.9148283 -1.0819975 2.3509793e-38
-0.46355572 -0.90228856 -1.0823476 2.3509795e-38
-0.48447442 -0.8966077 -1.0825187 2.3509795e-38
-0.51158315 -0.87917238 -1.0827453 2.3509795e-38
-0.55847043 -0.85254383 -1.0831358 2.3509795e-38
-0.56673288 -0.84028023 -1.0832086 2.3509795e-38
-0.58844411 -0.83501118 -1.0833857 2.3509796e-38
-0.62404281 -0.80404329 -1.0836877 2.3509796e-38
-0.63290387 -0.79205638 -1.0837649 2.3509796e-38
-0.65713054 -0.77060384 -1.0839705 2.3509796e-38
-0.69193012 -0.74016052 -1.0842658 2.3509796e-38
-0.72431201 -0.70751488 -1.0845426 2.3509797e-38
-0.73101193 -0.69834042 -1.0846012 2.3509797e-38
-0.75849843 -0.67574757 -1.0848334 2.3509797e-38
-0.79414374 -0.64469022 -1.0851359 2.3509797e-38
-0.8222875 -0.6262669 -1.0853714 2.3509797e-38
-0.83889335 -0.60256708 -1.0855168 2.3509799e-38
-0.85604733 -0.57755792 -1.0856674 2.3509799e-38
-0.86436951 -0.56317687 -1.0857415 2.3509799e-38
-0.91711015 -0.49631855 -1.0861995 2.3509799e-38
-0.91976088 -0.45803019 -1.0862401 2.3509799e-38
-0.92351419 -0.44754463 -1.0862755 2.35098e-38
-0.92943972 -0.43414366 -1.0863299 2.35098e-38
-0.9338156 -0.41998854 -1.0863723 2.35098e-38
-0.95048362 -0.39553094 -1.0865188 2.35098e-38
-0.95643091 -0.38214052 -1.0865731 2.35098e-38
-0.96400434 -0.36954162 -1.0866406 2.3509802e-38
-0.97072977 -0.35652995 -1.086701 2.3509802e-38
-0.98737425 -0.31731772 -1.0868548 2.3509802e-38
-0.99413592 -0.30339122 -1.0869162 2.3509802e-38
-1.0091 -0.27749509 -1.0870495 2.3509802e-38
-1.0179721 -0.26552817 -1.087127 2.3509803e-38
-1.0242779 -0.25659299 -1.087182 2.3509803e-38
-1.0443349 -0.21533404 -1.0873642 2.3509803e-38
-1.0514576 -0.20420903 -1.0874269 2.3509803e-38
-1.062526 -0.18960485 -1.0875235 2.3509803e-38
-1.0924348 -0.15565372 -1.0877811 2.3509804e-38
-1.0973053 -0.11584667 -1.0878403 2.3509804e-38
-1.0956813 -0.10793012 -1.0878313 2.3509804e-38
-1.1059998 -0.099089451 -1.0879188 2.3509804e-38
-1.1252315 -0.060447264 -1.0880928 2.3509804e-38
-1.1339555 -0.045210242 -1.0881706 2.3509806e-38
-1.1456641 -0.022643778 -1.0882761 2.3509806e-38
-1.1580023 0.0083027249 -1.0883909 2.3509806e-38
-1.161424 0.10746656 -1.0884686 2.3509806e-38
-1.1554189 0.12535067 -1.0884293 2.3509806e-38
-1.1301602 0.1548268 -1.088241 2.3509807e-38
-1.1123587 0.18455736 -1.088113 2.3509807e-38
-1.0885576 0.20944059 -1.0879341 2.3509807e-38
-1.0627091 0.2558578 -1.0877497 2.3509807e-38
-1.0537564 0.27702916 -1.0876884 2.3509807e-38
-1.0319628 0.30481905 -1.087527 2.3509809e-38
-1.009818 0.33277962 -1.0873634 2.3509809e-38
-1.0030966 0.35278505 -1.0873194 2.3509809e-38
-0.98598647 0.37818971 -1.0871946 2.3509809e-38
-0.96203327 0.40713638 -1.0870167 2.350981e-38
-0.9546144 0.42748103 -1.0869672 2.350981e-38
-0.90770441 0.5014118 -1.0866272 2.350981e-38
-0.89826739 0.50629711 -1.0865539 2.350981e-38
-0.89139014 0.50980091 -1.0865004 2.350981e-38
-0.87933499 0.51601934 -1.0864067 2.3509811e-38
-0.86534899 0.52318645 -1.0862978 2.3509811e-38
-0.85587335 0.52798486 -1.086224 2.3509811e-38
-0.83723205 0.55424052 -1.0860873 2.3509811e-38
-0.82974589 0.57461792 -1.0860374 2.3509811e-38
-0.80405867 0.60436094 -1.0858458 2.3509813e-38
-0.7885024 0.62948382 -1.0857334 2.3509813e-38
-0.76629353 0.65704125 -1.0855688 2.3509813e-38
-0.75869709 0.67747998 -1.085518 2.3509813e-38
-0.73630852 0.70555949 -1.0853522 2.3509813e-38
-0.71566594 0.71627843 -1.0851916 2.3509814e-38
-0.7087546 0.71986794 -1.0851378 2.3509814e-38
-0.67720425 0.75276709 -1.0849007 2.3509814e-38
-0.64684594 0.78504419 -1.0846729 2.3509814e-38
-0.6379922 0.78957158 -1.0846041 2.3509814e-38
-0.62461948 0.79652911 -1.0845001 2.3509816e-38
-0.59883434 0.8099767 -1.0842994 2.3509816e-38
-0.57400429 0.83034223 -1.0841101 2.3509816e-38
-0.54960161 0.85196745 -1.0839248 2.3509816e-38
-0.53327382 0.86041492 -1.0837978 2.3509816e-38
-0.51572943 0.86955267 -1.0836613 2.3509817e-38
-0.50561374 0.87477499 -1.0835826 2.3509817e-38
-0.47539273 0.90703332 -1.0833559 2.3509817e-38
-0.45480734 0.91767848 -1.0831958 2.3509817e-38
-0.4083215 0.92528391 -1.0828258 2.3509817e-38
-0.39568388 0.93186975 -1.0827276 2.3509818e-38
-0.38026863 0.9398213 -1.0826077 2.3509818e-38
-0.36362275 0.9485209 -1.0824783 2.3509818e-38
-0.32118532 0.95402342 -1.0821397 2.3509818e-38
-0.30567297 0.96208698 -1.082019 2.3509818e-38
-0.28541377 0.97259879 -1.0818614 2.350982e-38
-0.23805614 0.98069328 -1.0814848 2.350982e-38
-0.21037923 0.98586243 -1.0812649 2.350982e-38
-0.16875067 1.0000896 -1.0809373 2.350982e-38
-0.11986385 1.0123309 -1.0805504 2.350982e-38
-0.082904264 1.015236 -1.0802547 2.3509821e-38
-0.041185305 1.0167913 -1.0799201 2.3509821e-38
-0.014945132 1.0139563 -1.0797075 2.3509821e-38
0.017880829 1.0144588 -1.0794438 2.3509821e-38
0.061195102 1.0052078 -1.079091 2.3509821e-38
0.12221331 1.0026394 -1.078599 2.3509823e-38
0.15093555 1.0009662 -1.0783674 2.3509823e-38
0.2006859 0.99378484 -1.0779635 2.3509823e-38
0.2631644 0.99319744 -1.0774609 2.3509823e-38
0.30854571 0.96724373 -1.0770829 2.3509823e-38
0.33172861 0.96277475 -1.0768942 2.3509824e-38
0.3627221 0.94584852 -1.0766364 2.3509824e-38
0.38028461 0.93845016 -1.0764915 2.3509824e-38
0.4283523 0.9138878 -1.0760926 2.3509824e-38
0.45874867 0.89658296 -1.0758394 2.3509824e-38
0.47797495 0.89008224 -1.0756816 2.3509825e-38
0.49803364 0.88400894 -1.0755171 2.3509825e-38
0.53012651 0.86765355 -1.0752509 2.3509825e-38
0.54532063 0.85906667 -1.0751244 2.3509825e-38
0.57537794 0.84186167 -1.074874 2.3509825e-38
0.60786492 0.81285799 -1.0745982 2.3509827e-38
0.62826687 0.80307388 -1.0744292 2.3509827e-38
0.65427512 0.78361112 -1.0742102 2.3509827e-38
0.67034614 0.7589668 -1.0740685 2.3509827e-38
0.67835647 0.74652117 -1.0739979 2.3509827e-38
0.69732296 0.73987192 -1.073842 2.3509828e-38
0.72465473 0.72105336 -1.0736128 2.3509828e-38
0.73466295 0.70970696 -1.0735266 2.3509828e-38
0.74776137 0.68348765 -1.0734081 2.3509828e-38
0.75523728 0.67086834 -1.0733415 2.3509828e-38
0.77988815 0.65067482 -1.0731332 2.350983e-38
0.82277811 0.60685223 -1.0727662 2.350983e-38
0.87018591 0.56569016 -1.0723642 2.350983e-38
0.87654793 0.55250162 -1.0723064 2.350983e-38
0.88379067 0.53974175 -1.0722417 2.350983e-38
0.89003456 0.52503991 -1.0721842 2.3509831e-38
0.93800223 0.43439913 -1.0717527 2.3509831e-38
0.94601858 0.42346355 -1.0716828 2.3509831e-38
0.95449483 0.41130391 -1.0716084 2.3509831e-38
0.96352196 0.39949217 -1.0715299 2.3509831e-38
0.97364783 0.37177095 -1.0714344 2.3509832e-38
0.98111475 0.35912013 -1.0713679 2.3509832e-38
0.98614848 0.34528518 -1.0713205 2.3509832e-38
0.99204499 0.29885122 -1.0712497 2.3509832e-38
1.622485 2.3432934 -1.0672123 2.3509832e-38
1.6161017 2.3564739 -1.0672702 2.3509834e-38
1.5631058 2.4836972 -1.0677607 2.3509834e-38
1.6010035 2.4971738 -1.0674627 2.3509834e-38
1.6170135 2.4984045 -1.0673345 2.3509834e-38
1.6734967 2.5010784 -1.0668817 2.3509835e-38
1.6926838 2.4942904 -1.0667239 2.3509835e-38
1.7130651 2.496057 -1.0665611 2.3509835e-38
1.7352693 2.4944203 -1.0663817 2.3509835e-38
1.7617955 2.502598 -1.0661726 2.3509835e-38
1.7773818 2.5079494 -1.0660498 2.3509837e-38
1.7876834 2.5094204 -1.0659678 2.3509837e-38
1.8311653 2.500356 -1.0656136 2.3509837e-38
1.8782881 2.5086765 -1.0652388 2.3509837e-38
1.8924512 2.5133371 -1.0651274 2.3509837e-38
1.9150721 2.5145774 -1.0649461 2.3509838e-38
1.9450452 2.5111568 -1.0647033 2.3509838e-38
1.9845461 2.5141256 -1.0643872 2.3509838e-38
2.0411012 2.4940338 -1.0639225 2.3509838e-38
2.0765257 2.4927344 -1.0636368 2.3509838e-38
2.097456 2.4923234 -1.0634683 2.3509839e-38
2.1583753 2.4067814 -1.0629354 2.3509839e-38
2.1333129 2.3457551 -1.0631061 2.3509839e-38
2.1702518 2.3458219 -1.0628091 2.3509839e-38
2.1899323 2.3395159 -1.0626477 2.3509839e-38
2.2030828 2.3353848 -1.0625399 2.3509841e-38
2.2105248 2.3325427 -1.0624785 2.3509841e-38
2.2334547 2.3379369 -1.0622969 2.3509841e-38
2.2712407 2.3332727 -1.0619907 2.3509841e-38
2.3134413 2.3371525 -1.0616534 2.3509841e-38
2.335453 2.3326941 -1.0614741 2.3509842e-38
2.3587933 2.331151 -1.0612857 2.3509842e-38
2.390763 2.336132 -1.061031 2.3509842e-38
2.427268 2.3351619 -1.060737 2.3509842e-38
2.4412506 2.3326488 -1.0606234 2.3509842e-38
2.4844685 2.3444495 -1.0602819 2.3509844e-38
2.508332 2.3516161 -1.0600936 2.3509844e-38
2.5199466 2.3571012 -1.0600032 2.3509844e-38
2.5717177 2.3564117 -1.0595864 2.3509844e-38
2.605041 2.3661463 -1.0593233 2.3509844e-38
2.6212721 2.3669395 -1.0591931 2.3509845e-38
2.6252739 2.3681819 -1.0591617 2.3509845e-38
2.639436 2.3706648 -1.0590491 2.3509845e-38
2.6618614 2.3734617 -1.0588702 2.3509845e-38
2.6894784 2.372896 -1.0586479 2.3509845e-38
2.7375147 2.3588569 -1.0582545 2.3509846e-38
2.7421889 2.3588514 -1.0582169 2.3509846e-38
2.7623892 2.3558993 -1.058053 2.3509846e-38
2.8526344 2.2714972 -1.0572846 2.3509846e-38
2.8697937 2.2137275 -1.0571176 2.3509846e-38
2.8760269 2.1841648 -1.0570527 2.3509848e-38
2.8858411 2.1232138 -1.0569431 2.3509848e-38
2.8702993 2.0833104 -1.0570477 2.3509848e-38
2.858691 2.0438185 -1.0571212 2.3509848e-38
2.8516486 2.023128 -1.0571673 2.3509848e-38
2.8680258 1.998105 -1.057023 2.3509849e-38
2.8779306 1.9384116 -1.0569134 2.3509849e-38
2.8736997 1.9198769 -1.0569381 2.3509849e-38
2.8696926 1.8841158 -1.0569521 2.3509849e-38
2.8707383 1.8692554 -1.056936 2.3509849e-38
2.8695259 1.8542527 -1.0569384 2.3509851e-38
2.8723798 1.8202116 -1.0568985 2.3509851e-38
2.873229 1.7861527 -1.0568742 2.3509851e-38
2.8646667 1.7355459 -1.0569175 2.3509851e-38
2.8150287 1.6912856 -1.0572941 2.3509851e-38
2.7989516 1.6844062 -1.0574201 2.3509852e-38
2.7920549 1.5992559 -1.0574324 2.3509852e-38
2.7608013 1.5641755 -1.0576663 2.3509852e-38
2.7483411 1.5576162 -1.0577631 2.3509852e-38
2.7339046 1.5501835 -1.0578753 2.3509852e-38
2.7267175 1.5298848 -1.0579231 2.3509853e-38
2.6669261 1.4820764 -1.0583795 2.3509853e-38
2.6249881 1.3944494 -1.0586725 2.3509853e-38
2.6107287 1.3877938 -1.058784 2.3509853e-38
2.5977466 1.3802106 -1.0588844 2.3509853e-38
2.5505669 1.3391769 -1.0592431 2.3509855e-38
2.5033879 1.2981436 -1.0596017 2.3509855e-38
2.4997482 1.2468203 -1.0596051 2.3509855e-38
2.4825933 1.2039421 -1.0597215 2.3509855e-38
2.4496064 1.1713535 -1.0599701 2.3509855e-38
2.4000494 1.1624223 -1.0603641 2.3509856e-38
2.3379784 1.2127382 -1.0608886 2.3509856e-38
2.3309703 1.2256111 -1.0609514 2.3509856e-38
2.3180146 1.2518781 -1.0610689 2.3509856e-38
2.3109918 1.2647439 -1.0611317 2.3509856e-38
2.2834518 1.2834612 -1.0613627 2.3509858e-38
2.2563176 1.335395 -1.0616071 2.3509858e-38
2.1595829 1.3842267 -1.0624096 2.3509858e-38
2.1549535 1.4643415 -1.0624874 2.3509858e-38
2.1604359 1.4836973 -1.062453 2.3509858e-38
2.1271255 1.5819298 -1.0627705 2.3509859e-38
2.1416016 1.6224437 -1.0626744 2.3509859e-38
2.1782191 1.6579057 -1.062398 2.3509859e-38
2.2045605 1.7357944 -1.0622252 2.3509859e-38
2.2540805 1.8137456 -1.0618664 2.350986e-38
2.2832215 1.8279105 -1.0616393 2.350986e-38
2.2162116 1.88894 -1.0622089 2.350986e-38
2.2070601 1.9055153 -1.0622909 2.350986e-38
2.1887233 1.9112356 -1.0624411 2.350986e-38
2.0819063 1.9050465 -1.063297 2.3509862e-38
2.0720849 1.9164448 -1.0633818 2.3509862e-38
2.0557704 1.9244545 -1.063517 2.3509862e-38
2.0268207 1.9424777 -1.0637589 2.3509862e-38
1.9718457 1.9799639 -1.06422 2.3509862e-38
1.9520437 1.9861671 -1.0643821 2.3509863e-38
1.8636732 2.0558577 -1.0651277 2.3509863e-38
1.8480992 2.0807898 -1.0652655 2.3509863e-38
1.8207526 2.0996015 -1.065495 2.3509863e-38
1.7996606 2.0733817 -1.0656513 2.3509863e-38
1.7578344 2.0504498 -1.065976 2.3509865e-38
1.7231523 2.0489573 -1.0662543 2.3509865e-38
1.6685925 2.0536301 -1.0666953 2.3509865e-38
1.5916564 2.0626872 -1.0673186 2.3509865e-38
1.5573815 2.0949647 -1.0676105 2.3509865e-38
1.5299109 2.1467328 -1.0678576 2.3509866e-38
1.4952265 2.1452391 -1.0681356 2.3509866e-38
1.4402322 2.1827152 -1.0685966 2.3509866e-38
1.4933323 2.2926855 -1.0682253 2.3509866e-38
1.50647 2.3003852 -1.0681233 2.3509866e-38
1.5282694 2.3253007 -1.0679609 2.3509867e-38
1.5394669 2.3331978 -1.0678747 2.3509867e-38
1.5533131 2.3404024 -1.067767 2.3509867e-38
1.6119879 2.3375876 -1.0672938 2.3509867e-38
-2.273298 1.1799901 -1.0979501 2.3509867e-38
-2.3066809 1.2777541 -1.0982679 2.3509869e-38
-2.4361935 1.3077812 -1.0993243 2.3509869e-38
-2.4464405 1.2550119 -1.0993803 2.3509869e-38
-2.4292059 1.2150384 -1.0992215 2.3509869e-38
-2.411881 1.1410735 -1.0990449 2.3509869e-38
-2.3572466 1.1034203 -1.0985866 2.350987e-38
2.2314143 -1.0057336 -1.0606258 2.350987e-38
2.310946 -0.96377009 -1.0600077 2.350987e-38
2.4201002 -0.90846002 -1.0591577 2.350987e-38
2.449378 -0.99084502 -1.0588807 2.350987e-38
2.4657705 -1.0011249 -1.0587438 2.3509872e-38
2.4834962 -1.0061088 -1.0585988 2.3509872e-38
2.5653884 -1.0619577 -1.0579121 2.3509872e-38
2.6512799 -1.1664885 -1.0571687 2.3509872e-38
2.6757636 -1.1866798 -1.0569618 2.3509872e-38
2.6843374 -1.1992005 -1.0568863 2.3509873e-38
2.7044234 -1.2377869 -1.0567054 2.3509873e-38
2.7208946 -1.2457563 -1.056569 2.3509873e-38
2.7139034 -1.3807648 -1.0565571 2.3509873e-38
2.6439607 -1.4171281 -1.0571009 2.3509873e-38
2.5906475 -1.395846 -1.0575403 2.3509874e-38
2.5723014 -1.3889251 -1.0576916 2.3509874e-38
2.5521631 -1.3828578 -1.0578566 2.3509874e-38
2.5252476 -1.3638777 -1.0580825 2.3509874e-38
2.4644258 -1.3459713 -1.0585806 2.3509874e-38
2.417285 -1.3209867 -1.0589721 2.3509876e-38
2.3905184 -1.3018982 -1.0591969 2.3509876e-38
2.3706703 -1.2956198 -1.0593598 2.3509876e-38
2.352072 -1.288842 -1.0595129 2.3509876e-38
2.3169398 -1.2575864 -1.0598111 2.3509876e-38
2.2966261 -1.2516465 -1.0599775 2.3509877e-38
2.2532287 -1.2082587 -1.0603484 2.3509877e-38
2.2525976 -1.1259638 -1.060395 2.3509877e-38
2.2456882 -1.1131477 -1.0604568 2.3509877e-38
