# .PCD v0.7 - Point Cloud Data file format
VERSION 0.7
FIELDS x y z rgb
SIZE 4 4 4 4
TYPE F F F F
COUNT 1 1 1 1
WIDTH 66
HEIGHT 1
VIEWPOINT 0 0 0 1 0 0 0
POINTS 66
DATA ascii
-2.3338408 -2.327173 -1.1412146 2.3509528e-38
-2.3360062 -2.3277972 -1.1267251 2.3509532e-38
-2.3331552 -2.3277977 -1.124734 2.3509538e-38
-2.3083479 -2.3275471 -1.1139348 2.3509544e-38
-2.2736964 -2.3267295 -1.110851 2.3509549e-38
-2.2594819 -2.3262632 -1.1129349 2.3509555e-38
-2.2286556 -2.3254137 -1.1133246 2.3509561e-38
-2.1977322 -2.3246865 -1.1104906 2.3509566e-38
-2.1848578 -2.3243718 -1.1096283 2.350957e-38
-2.1400886 -2.3230622 -1.1121244 2.3509576e-38
-2.1051087 -2.3222198 -1.109446 2.3509582e-38
-2.0852561 -2.3215342 -1.113239 2.3509587e-38
-2.0420899 -2.3204396 -1.1113353 2.3509593e-38
-2.0104179 -2.3197358 -1.1073997 2.3509598e-38
-1.9787363 -2.3188775 -1.1074129 2.3509604e-38
-1.9613262 -2.3183208 -1.1096017 2.3509608e-38
-1.9145576 -2.3169272 -1.1128638 2.3509614e-38
-1.8807571 -2.3162575 -1.1065733 2.3509619e-38
-1.8724623 -2.3159626 -1.1083775 2.3509625e-38
-1.8576194 -2.3154697 -1.1107028 2.3509631e-38
-1.8219736 -2.3145113 -1.1105356 2.3509636e-38
-1.8057526 -2.3138726 -1.1156532 2.3509642e-38
-1.7507073 -2.3123119 -1.1174567 2.3509647e-38
-1.7293628 -2.3120146 -1.1102717 2.3509652e-38
-1.6965746 -2.3113396 -1.1048115 2.3509657e-38
-1.6439478 -2.3097897 -1.1080173 2.3509663e-38
-1.6095794 -2.3089786 -1.1049526 2.3509668e-38
-1.5615858 -2.3075905 -1.1072283 2.3509674e-38
-1.5200857 -2.306566 -1.1046835 2.350968e-38
-1.4544137 -2.3045404 -1.1110312 2.3509685e-38
-1.4221004 -2.3037796 -1.1081038 2.3509689e-38
-1.3752414 -2.3024192 -1.1104558 2.3509695e-38
-1.337851 -2.3015344 -1.1071886 2.3509701e-38
-1.3443035 -2.3011744 -1.1208901 2.3509706e-38
-1.3535472 -2.3009341 -1.1334671 2.3509712e-38
-1.3702514 -2.3015225 -1.1299832 2.3509717e-38
-1.3997551 -2.3022509 -1.1317822 2.3509723e-38
-1.4302918 -2.3027313 -1.1406574 2.3509727e-38
-1.4603063 -2.3023612 -1.170978 2.3509733e-38
-1.4684671 -2.3025494 -1.1718146 2.3509738e-38
-1.5043747 -2.3034248 -1.174296 2.3509744e-38
-1.5389829 -2.3053288 -1.1495126 2.350975e-38
-1.5826336 -2.3065524 -1.1484466 2.3509755e-38
-1.6141188 -2.3073268 -1.150444 2.3509761e-38
-1.6481538 -2.3080955 -1.1543607 2.3509767e-38
-1.6867003 -2.3090391 -1.1569213 2.3509771e-38
-1.7200452 -2.3097446 -1.1619769 2.3509776e-38
-1.7567998 -2.3107343 -1.1621158 2.3509782e-38
-1.8004292 -2.3117449 -1.1664915 2.3509788e-38
-1.8319986 -2.3127425 -1.1628308 2.3509793e-38
-1.8519404 -2.3131757 -1.1655712 2.3509799e-38
-1.892148 -2.3141296 -1.1690271 2.3509804e-38
-1.9299037 -2.3150442 -1.1717806 2.3509809e-38
-1.9658023 -2.3158422 -1.1762359 2.3509814e-38
-2.0029511 -2.3168504 -1.1761729 2.350982e-38
-2.0504656 -2.3180165 -1.1792585 2.3509825e-38
-2.0749941 -2.3185031 -1.1838073 2.3509831e-38
-2.0937381 -2.3190506 -1.1827862 2.3509837e-38
-2.1272438 -2.3197818 -1.1872861 2.3509842e-38
-2.1658888 -2.3206766 -1.1911758 2.3509846e-38
-2.1863177 -2.3213091 -1.1891348 2.3509852e-38
-2.2327466 -2.3227527 -1.1843591 2.3509858e-38
-2.2481079 -2.3231854 -1.1839213 2.3509863e-38
-2.2806168 -2.3238223 -1.1901683 2.3509869e-38
-2.2957473 -2.3244362 -1.1849284 2.3509874e-38
-2.316947 -2.3251493 -1.1813629 2.350988e-38
