# .PCD v0.7 - Point Cloud Data file format
VERSION 0.7
FIELDS x y z rgb
SIZE 4 4 4 4
TYPE F F F F
COUNT 1 1 1 1
WIDTH 185
HEIGHT 1
VIEWPOINT 0 0 0 1 0 0 0
POINTS 185
DATA ascii
-2.2781122 -2.2970319 -1.0862741 2.3509528e-38
-2.3009343 -2.2860429 -1.0910723 2.350953e-38
-2.3095803 -2.2830195 -1.0778615 2.3509531e-38
-2.3140852 -2.2822912 -1.0598119 2.3509534e-38
-2.3175716 -2.2831235 -1.0274286 2.3509535e-38
-2.3168209 -2.2846012 -1.012544 2.3509537e-38
-2.3163185 -2.2859662 -0.99762505 2.3509539e-38
-2.3226256 -2.2856841 -0.96261322 2.3509541e-38
-2.3254061 -2.2868342 -0.93037885 2.3509544e-38
-2.3229263 -2.2890186 -0.91679847 2.3509545e-38
-2.3252058 -2.2905285 -0.88288897 2.3509547e-38
-2.3186712 -2.2994442 -0.80542248 2.3509549e-38
-2.3230064 -2.2989845 -0.78486425 2.3509551e-38
-2.3268142 -2.2981811 -0.77208143 2.3509552e-38
-2.3305807 -2.297296 -0.76062626 2.3509555e-38
-2.3322906 -2.2970915 -0.75282407 2.3509556e-38
-2.3349609 -2.2997499 -0.7013737 2.3509559e-38
-2.3372316 -2.3018281 -0.66001225 2.3509561e-38
-2.3404901 -2.3017879 -0.64054483 2.3509562e-38
-2.3409488 -2.3037798 -0.61145264 2.3509565e-38
-2.3407791 -2.3049388 -0.59721148 2.3509566e-38
-2.3441277 -2.3059413 -0.5634312 2.3509568e-38
-2.3461905 -2.3062861 -0.54621959 2.350957e-38
-2.3454432 -2.3077672 -0.53126752 2.3509572e-38
-2.3437424 -2.3095994 -0.51754993 2.3509575e-38
-2.3431883 -2.313416 -0.47061253 2.3509576e-38
-2.3458462 -2.3133881 -0.45466033 2.3509577e-38
-2.3425546 -2.3158896 -0.44188035 2.350958e-38
-2.3407726 -2.3177757 -0.42794251 2.3509582e-38
-2.3416588 -2.3185959 -0.41169101 2.3509583e-38
-2.3469727 -2.3175185 -0.39326876 2.3509586e-38
-2.3479888 -2.3194771 -0.36119533 2.3509587e-38
-2.3469734 -2.3210244 -0.34702441 2.350959e-38
-2.3451271 -2.3228722 -0.33399102 2.3509591e-38
-2.3438125 -2.3258202 -0.30318195 2.3509593e-38
-2.3446875 -2.3265271 -0.28848505 2.3509596e-38
-2.3537807 -2.3251023 -0.25144479 2.3509597e-38
-2.3557115 -2.3251038 -0.23956877 2.35096e-38
-2.3493092 -2.3311932 -0.1985655 2.3509601e-38
-2.3556156 -2.3309264 -0.16336605 2.3509603e-38
-2.3535397 -2.3354137 -0.11692792 2.3509605e-38
-2.3520095 -2.3371913 -0.10287698 2.3509607e-38
-2.3520873 -2.3406167 -0.057222202 2.3509608e-38
-2.360121 -2.3406017 -0.0080993921 2.3509611e-38
-2.3626719 -2.3420062 0.026096329 2.3509612e-38
-2.3600447 -2.3443053 0.040281087 2.3509615e-38
-2.3686543 -2.3442578 0.092518598 2.3509617e-38
-2.3701425 -2.3458903 0.12318623 2.3509618e-38
-2.3727815 -2.3461878 0.14331774 2.3509621e-38
-2.3732305 -2.3469613 0.15627098 2.3509622e-38
-2.3808317 -2.3453717 0.18197787 2.3509624e-38
-2.3837931 -2.3449979 0.19523574 2.3509626e-38
-2.3854611 -2.3470089 0.23199935 2.3509628e-38
-2.3929882 -2.3471379 0.27992076 2.3509631e-38
-2.3947644 -2.3487656 0.31229398 2.3509632e-38
-2.3983002 -2.3483648 0.32871288 2.3509633e-38
-2.3969717 -2.3511758 0.35763127 2.3509636e-38
-2.3950775 -2.3535857 0.37778562 2.3509638e-38
-2.3992848 -2.3540945 0.41032821 2.3509639e-38
-2.3945489 -2.3602977 0.46306211 2.3509642e-38
-2.4020734 -2.360805 0.51594907 2.3509643e-38
-2.4056842 -2.3625512 0.5611555 2.3509646e-38
-2.4084952 -2.3637152 0.5937683 2.3509647e-38
-2.4052711 -2.3686523 0.6390869 2.3509649e-38
-2.4103079 -2.3677611 0.65825379 2.3509652e-38
-2.4075575 -2.3700778 0.67192042 2.3509653e-38
-2.4103749 -2.3711934 0.70393312 2.3509654e-38
-2.4132404 -2.372448 0.73807794 2.3509657e-38
-2.4160798 -2.372376 0.75456375 2.3509659e-38
-2.4152708 -2.3740282 0.77139091 2.3509661e-38
-2.4190481 -2.3742068 0.79693371 2.3509663e-38
-2.4140978 -2.3789935 0.82967484 2.3509664e-38
-2.4118316 -2.3810017 0.84224218 2.3509667e-38
-2.4130456 -2.3828897 0.87459892 2.3509668e-38
-2.4176426 -2.3823655 0.89590448 2.3509671e-38
-2.4172068 -2.3845065 0.92146963 2.3509673e-38
-2.415499 -2.3878014 0.95443934 2.3509674e-38
-2.4214826 -2.3865256 0.97435665 2.3509677e-38
-2.4189987 -2.3887398 0.98830587 2.3509678e-38
-2.4200797 -2.3903902 1.0167131 2.350968e-38
-2.4238091 -2.3912981 1.0515859 2.3509682e-38
-2.4251614 -2.391185 1.0583955 2.3509684e-38
-2.4298582 -2.3904617 1.077692 2.3509687e-38
-2.4396095 -2.3873658 1.0967349 2.3509688e-38
-2.4394894 -2.3886759 1.1132807 2.3509689e-38
-2.4381051 -2.392668 1.157433 2.3509692e-38
-2.43995 -2.3927679 1.1700765 2.3509694e-38
-2.4384685 -2.3946588 1.1859105 2.3509695e-38
-2.4390123 -2.3955438 1.2009257 2.3509698e-38
-2.4432735 -2.3950214 1.2202016 2.3509699e-38
-2.4473732 -2.3956506 1.2536714 2.3509702e-38
-2.4563005 -2.3929515 1.2728881 2.3509703e-38
-2.4638264 -2.3919466 1.3058434 2.3509705e-38
-2.4656601 -2.391999 1.3177927 2.3509708e-38
-2.4648256 -2.3933928 1.3310564 2.3509709e-38
-2.4771266 -2.3915842 1.3827251 2.350971e-38
-2.4715831 -2.3939304 1.3796386 2.3509713e-38
-2.4464474 -2.4040241 1.3584212 2.3509715e-38
-2.4408503 -2.4061725 1.3523918 2.3509717e-38
-2.4289448 -2.4098005 1.3271466 2.3509719e-38
-2.4191024 -2.4125543 1.3030291 2.350972e-38
-2.4083929 -2.4144385 1.2621224 2.3509723e-38
-2.3805339 -2.4243433 1.2217032 2.3509724e-38
-2.3715551 -2.4278936 1.2133957 2.3509726e-38
-2.3618741 -2.4299569 1.1811663 2.3509729e-38
-2.35725 -2.4306459 1.1618664 2.350973e-38
-2.3523774 -2.4306257 1.1316768 2.3509733e-38
-2.3491507 -2.4304836 1.1099868 2.3509734e-38
-2.3462732 -2.4293504 1.0773773 2.3509736e-38
-2.3459449 -2.4285064 1.0642287 2.3509738e-38
-2.3467116 -2.427031 1.0494846 2.350974e-38
-2.3453109 -2.4253042 1.0181049 2.3509743e-38
-2.3402705 -2.4262736 0.99994105 2.3509744e-38
-2.3352947 -2.4271131 0.98046374 2.3509745e-38
-2.3333969 -2.4269409 0.96654022 2.3509748e-38
-2.326345 -2.4287696 0.94736183 2.350975e-38
-2.3242662 -2.4272621 0.91471249 2.3509751e-38
-2.3254447 -2.4252343 0.89519924 2.3509754e-38
-2.3250732 -2.4219635 0.84977967 2.3509755e-38
-2.3283086 -2.4193487 0.83516765 2.3509758e-38
-2.3302701 -2.4173491 0.82083482 2.3509759e-38
-2.3292236 -2.4145613 0.77764511 2.3509761e-38
-2.3324525 -2.4104786 0.74362212 2.3509764e-38
-2.3345237 -2.408504 0.73029631 2.3509765e-38
-2.331001 -2.4066715 0.68449754 2.3509767e-38
-2.3286612 -2.4062889 0.66508305 2.3509769e-38
-2.3289547 -2.405149 0.65184659 2.3509771e-38
-2.3341873 -2.3982043 0.59238702 2.3509774e-38
-2.3318477 -2.3982725 0.57891887 2.3509775e-38
-2.3378024 -2.3930218 0.54623026 2.3509776e-38
-2.3364682 -2.3926456 0.53307539 2.3509779e-38
-2.3278408 -2.3937328 0.49444431 2.3509781e-38
-2.3248677 -2.3916421 0.44861788 2.3509782e-38
-2.3227134 -2.3901701 0.41597217 2.3509785e-38
-2.3289714 -2.3852282 0.38921481 2.3509786e-38
-2.3215871 -2.3852077 0.34360969 2.3509789e-38
-2.3238852 -2.3806601 0.29774213 2.350979e-38
-2.3193564 -2.3815033 0.28105548 2.3509792e-38
-2.3153067 -2.3805969 0.24423563 2.3509795e-38
-2.3138149 -2.3788092 0.21150126 2.3509796e-38
-2.3123999 -2.3783519 0.19677642 2.3509797e-38
-2.3110909 -2.3777411 0.18068828 2.35098e-38
-2.3076987 -2.3766727 0.14576894 2.3509802e-38
-2.3041887 -2.3767931 0.12581068 2.3509804e-38
-2.3031869 -2.3730724 0.070577562 2.3509806e-38
-2.300077 -2.3730047 0.05058752 2.3509807e-38
-2.2958384 -2.3736684 0.033322856 2.350981e-38
-2.2956519 -2.3720675 0.011063352 2.3509811e-38
-2.287313 -2.373492 -0.02135025 2.3509814e-38
-2.2898681 -2.3712556 -0.035159409 2.3509816e-38
-2.2875264 -2.3699017 -0.067390189 2.3509817e-38
-2.2891712 -2.3669295 -0.096499071 2.350982e-38
-2.2874579 -2.3665659 -0.1118086 2.3509821e-38
-2.2812901 -2.3663912 -0.15198475 2.3509823e-38
-2.2819171 -2.3626113 -0.19799156 2.3509825e-38
-2.2845311 -2.3589184 -0.23064357 2.3509827e-38
-2.2869308 -2.356874 -0.24286707 2.350983e-38
-2.2857172 -2.3553364 -0.27060106 2.3509831e-38
-2.285017 -2.3552318 -0.27628446 2.3509832e-38
-2.2768664 -2.357053 -0.30230945 2.3509835e-38
-2.2776623 -2.3545847 -0.32997227 2.3509837e-38
-2.2725489 -2.3531098 -0.38082209 2.3509838e-38
-2.2703776 -2.3516459 -0.41346693 2.3509841e-38
-2.2660043 -2.3512146 -0.44600123 2.3509842e-38
-2.2681932 -2.3491848 -0.45933279 2.3509845e-38
-2.2680616 -2.3467634 -0.49207985 2.3509846e-38
-2.2654586 -2.3455014 -0.52470297 2.3509848e-38
-2.2660186 -2.3432262 -0.5512768 2.3509851e-38
-2.2632585 -2.3420265 -0.58404356 2.3509852e-38
-2.2616708 -2.3401806 -0.61813265 2.3509853e-38
-2.268368 -2.334074 -0.65755582 2.3509856e-38
-2.2681661 -2.3319037 -0.68742156 2.3509858e-38
-2.2613878 -2.3333983 -0.70932376 2.350986e-38
-2.2588844 -2.3322511 -0.73982781 2.3509862e-38
-2.2612581 -2.3300052 -0.75487542 2.3509863e-38
-2.2601261 -2.3282804 -0.78457296 2.3509866e-38
-2.2533736 -2.3296757 -0.80763423 2.3509867e-38
-2.2505815 -2.3285036 -0.84023225 2.3509869e-38
-2.2487013 -2.3250005 -0.8979764 2.3509872e-38
-2.249661 -2.3221204 -0.93007034 2.3509873e-38
-2.2446022 -2.3209553 -0.97649997 2.3509876e-38
-2.2402897 -2.3201449 -1.0136727 2.3509877e-38
-2.2446735 -2.3161392 -1.0395799 2.3509879e-38
-2.2550008 -2.3106148 -1.0490294 2.3509881e-38
-2.2707405 -2.3011832 -1.0767779 2.3509883e-38
