# .PCD v0.7 - Point Cloud Data file format
VERSION 0.7
FIELDS x y z rgb
SIZE 4 4 4 4
TYPE F F F F
COUNT 1 1 1 1
WIDTH 353
HEIGHT 1
VIEWPOINT 0 0 0 1 0 0 0
POINTS 353
DATA ascii
3.0206883 -2.1018262 0.62455654 2.3509528e-38
3.0303924 -2.0636556 0.60335785 2.3509528e-38
3.0262969 -2.0293062 0.60952759 2.350953e-38
3.0195498 -1.982172 0.62021321 2.3509531e-38
3.0161722 -1.935492 0.62429166 2.3509531e-38
3.0151784 -1.9022015 0.62441474 2.3509532e-38
3.0129442 -1.8693511 0.62700319 2.3509534e-38
3.0120211 -1.8536805 0.62795776 2.3509535e-38
3.0153136 -1.8044171 0.61876827 2.3509535e-38
3.0130384 -1.7573625 0.62065721 2.3509537e-38
3.008944 -1.7231151 0.62682921 2.3509538e-38
3.0054777 -1.6762893 0.63107479 2.3509538e-38
3.004528 -1.6431291 0.63111901 2.3509539e-38
3.0008082 -1.6272812 0.63756669 2.3509541e-38
2.9919012 -1.580303 0.65251195 2.3509542e-38
2.9903321 -1.5669521 0.65486413 2.3509542e-38
2.9896324 -1.5326765 0.65435565 2.3509544e-38
2.9851232 -1.5067075 0.66180032 2.3509545e-38
2.984154 -1.4735478 0.66188389 2.3509547e-38
2.986362 -1.454299 0.65647811 2.3509547e-38
2.9816387 -1.4285486 0.66435778 2.3509548e-38
2.9785633 -1.3931527 0.66846198 2.3509549e-38
2.9834306 -1.3420068 0.65606803 2.3509549e-38
2.9824083 -1.3104391 0.6563428 2.3509551e-38
2.9725471 -1.2341604 0.67155272 2.3509552e-38
2.9763763 -1.2154756 0.66298807 2.3509554e-38
2.975081 -1.14938 0.66190046 2.3509554e-38
2.9752347 -1.1165277 0.65979064 2.3509555e-38
2.9736087 -1.1041145 0.6623072 2.3509556e-38
2.9722164 -1.0898157 0.6642608 2.3509556e-38
2.9707708 -1.0566258 0.66527939 2.3509558e-38
2.9721894 -1.0371016 0.66141343 2.3509559e-38
2.9693613 -1.023271 0.66621828 2.3509561e-38
2.9656827 -1.0092279 0.67268443 2.3509561e-38
2.9614842 -0.99456686 0.68014032 2.3509562e-38
2.9558525 -0.94907457 0.68871999 2.3509563e-38
2.954915 -0.9326908 0.68966329 2.3509565e-38
2.9512095 -0.89699703 0.69499129 2.3509565e-38
2.9492793 -0.88491976 0.69812536 2.3509566e-38
2.9479518 -0.85337162 0.69900239 2.3509568e-38
2.9539001 -0.80157256 0.68444598 2.3509568e-38
2.954222 -0.7698915 0.68206948 2.3509569e-38
2.9512162 -0.75604057 0.68722278 2.350957e-38
2.9468398 -0.74006611 0.69495535 2.3509572e-38
2.9413371 -0.72571671 0.70499545 2.3509572e-38
2.9390631 -0.63133323 0.70427668 2.3509573e-38
2.9403644 -0.61678326 0.70091641 2.3509575e-38
2.9440608 -0.59136736 0.69224215 2.3509575e-38
2.945261 -0.56513107 0.68843651 2.3509576e-38
2.9489546 -0.54526424 0.68007588 2.3509577e-38
2.9502747 -0.52017224 0.67609566 2.3509579e-38
2.9971347 -0.47087798 0.58116531 2.3509579e-38
3.002703 -0.47531602 0.57045132 2.350958e-38
3.0111027 -0.48713711 0.55457157 2.3509582e-38
3.0138519 -0.49209765 0.54943478 2.3509583e-38
3.0391297 -0.50353718 0.50031674 2.3509583e-38
3.0738072 -0.43254259 0.42816597 2.3509584e-38
3.0720038 -0.41672692 0.43084538 2.3509586e-38
3.0677505 -0.331999 0.43455374 2.3509586e-38
3.0666523 -0.32421687 0.43628669 2.3509587e-38
3.0582752 -0.3161189 0.45232677 2.3509589e-38
3.0560236 -0.31433293 0.45665956 2.350959e-38
3.0512257 -0.3126013 0.46600664 2.350959e-38
3.0411811 -0.31190115 0.4857344 2.3509591e-38
3.0395265 -0.31185123 0.48898929 2.3509593e-38
3.0162911 -0.30408153 0.53428781 2.3509593e-38
3.0119379 -0.3079291 0.5430668 2.3509594e-38
3.009645 -0.30964997 0.547674 2.3509596e-38
2.9994845 -0.31522715 0.56797594 2.3509597e-38
2.9894559 -0.32000479 0.58797473 2.3509597e-38
2.9619586 -0.30949882 0.64151067 2.3509598e-38
2.9466269 -0.23022661 0.66732049 2.35096e-38
2.9413674 -0.20456704 0.67625904 2.3509601e-38
2.9419882 -0.11917616 0.67033941 2.3509601e-38
2.945235 -0.085758097 0.66211092 2.3509603e-38
2.9468882 -0.033351772 0.65597302 2.3509604e-38
2.9464126 0.011818916 0.65442395 2.3509604e-38
2.9363027 0.06438525 0.67142695 2.3509605e-38
2.9318402 0.088833459 0.67886358 2.3509607e-38
2.9274867 0.13856861 0.68469536 2.3509608e-38
2.9315848 0.18754932 0.67393494 2.3509608e-38
2.932055 0.22025245 0.67121017 2.350961e-38
2.9349122 0.24217436 0.66438133 2.3509611e-38
2.9355402 0.27222395 0.66149122 2.3509611e-38
2.930939 0.29881674 0.66908377 2.3509612e-38
2.9233143 0.34747171 0.68141145 2.3509614e-38
2.9237142 0.37744439 0.67897528 2.3509615e-38
2.9272218 0.46481526 0.6672644 2.3509615e-38
2.9257147 0.4983567 0.66838491 2.3509617e-38
2.9228168 0.54489732 0.67152721 2.3509618e-38
2.9100273 0.62061673 0.69252974 2.3509619e-38
2.9097068 0.65362734 0.69134432 2.3509619e-38
2.9133329 0.70536256 0.6813615 2.3509621e-38
2.9098606 0.73166984 0.68674695 2.3509622e-38
2.9040442 0.76946187 0.69611448 2.3509622e-38
2.905081 0.80093539 0.69234121 2.3509624e-38
2.9051859 0.8388949 0.69004595 2.3509625e-38
2.9118917 0.8719269 0.67503172 2.3509626e-38
2.9130409 0.90035778 0.67120647 2.3509626e-38
2.9207067 0.94024688 0.65392524 2.3509628e-38
2.9200592 0.97148842 0.65348053 2.3509629e-38
2.924547 1.0247536 0.64171863 2.3509629e-38
2.9284971 1.054904 0.63228536 2.3509631e-38
2.9297402 1.0895821 0.6279301 2.3509632e-38
2.9220507 1.1269369 0.64100665 2.3509633e-38
2.916168 1.1518571 0.65121305 2.3509633e-38
2.9137187 1.2302142 0.65172189 2.3509635e-38
2.9191771 1.2695168 0.63881654 2.3509636e-38
2.9174819 1.2827878 0.64142329 2.3509638e-38
2.9182398 1.3152663 0.63814467 2.3509638e-38
2.9223626 1.3665814 0.6272074 2.3509639e-38
2.9230564 1.3987148 0.62407386 2.350964e-38
2.9168353 1.4145498 0.63544524 2.350964e-38
2.9115748 1.4647235 0.64303786 2.3509642e-38
2.9125991 1.4952255 0.63934296 2.3509643e-38
2.9155433 1.5167373 0.63236439 2.3509645e-38
2.9165618 1.546122 0.62874401 2.3509645e-38
2.9148083 1.5592959 0.63146996 2.3509646e-38
2.9134722 1.5927134 0.63226062 2.3509647e-38
2.9114804 1.6246735 0.63442135 2.3509647e-38
2.9129949 1.6556441 0.62973696 2.3509649e-38
2.9118495 1.6920407 0.62998849 2.350965e-38
2.911762 1.724947 0.62835002 2.3509652e-38
2.909328 1.7379539 0.63242406 2.3509652e-38
2.9033163 1.7739691 0.64227283 2.3509653e-38
2.903825 1.8066087 0.63947535 2.3509654e-38
2.9031911 1.8415043 0.63880372 2.3509656e-38
2.8988063 1.8770382 0.64547729 2.3509656e-38
2.8980644 1.8996742 0.64569128 2.3509657e-38
2.9020996 1.9512261 0.63491321 2.3509659e-38
2.9007232 1.9832432 0.63586116 2.3509659e-38
2.9009147 1.9970007 0.634727 2.350966e-38
2.9016232 2.0166781 0.63224977 2.3509661e-38
2.8990133 2.0456176 0.63579398 2.3509663e-38
2.8995917 2.0633264 0.63368142 2.3509663e-38
2.8927233 2.0911536 0.64566654 2.3509664e-38
2.8907685 2.1110098 0.64842099 2.3509666e-38
2.8894274 2.1459849 0.64913571 2.3509666e-38
2.8926294 2.1774194 0.64110482 2.3509667e-38
2.889009 2.2119067 0.6463325 2.3509668e-38
2.8894174 2.2475584 0.64356583 2.350967e-38
2.8959799 2.2749131 0.62914616 2.350967e-38
2.8955841 2.3075664 0.62812835 2.3509671e-38
2.8937616 2.3207593 0.63098937 2.3509673e-38
2.9011343 2.4030216 0.61195379 2.3509674e-38
2.8946364 2.4153676 0.62406147 2.3509674e-38
2.8895872 2.4155185 0.63399029 2.3509675e-38
2.8835974 2.4122336 0.64595848 2.3509677e-38
2.8786342 2.4060528 0.65606546 2.3509677e-38
2.8758779 2.4036493 0.66162229 2.3509678e-38
2.8703671 2.3998077 0.67267811 2.350968e-38
2.8672619 2.3904576 0.67930448 2.3509681e-38
2.8625581 2.3746486 0.68943137 2.3509681e-38
2.8585615 2.3578258 0.6982215 2.3509682e-38
2.8606017 2.3431752 0.69501364 2.3509684e-38
2.8300097 2.2479639 0.76045597 2.3509684e-38
2.8141904 2.2430346 0.79185939 2.3509685e-38
2.8105395 2.241977 0.79910266 2.3509687e-38
2.8029716 2.2389722 0.81416148 2.3509688e-38
2.7882242 2.2408361 0.84308141 2.3509688e-38
2.7839584 2.2400699 0.85151982 2.3509689e-38
2.7784145 2.2349772 0.86270916 2.3509691e-38
2.7566633 2.2156076 0.90657961 2.3509692e-38
2.7297521 2.2059736 0.96007013 2.3509692e-38
2.7173083 2.1838059 0.98578 2.3509694e-38
2.7014263 2.1640394 1.0181228 2.3509695e-38
2.7022116 2.1420197 1.0177886 2.3509695e-38
2.7050436 2.1037524 1.0143216 2.3509696e-38
2.7049789 2.0864336 1.0154011 2.3509698e-38
2.7059751 2.0743172 1.0141075 2.3509699e-38
2.7076828 2.0653379 1.0112411 2.3509699e-38
2.7090633 2.0604105 1.0087954 2.3509701e-38
2.7097831 1.9757657 1.0120369 2.3509702e-38
2.7073174 1.9419467 1.0187501 2.3509702e-38
2.7031903 1.9249065 1.0278091 2.3509703e-38
2.7092509 1.8703429 1.0188839 2.3509705e-38
2.7079937 1.8476633 1.0226068 2.3509706e-38
2.7072077 1.8355829 1.0248178 2.3509706e-38
2.7071946 1.8276805 1.0252794 2.3509708e-38
2.7085693 1.8112975 1.0234747 2.3509709e-38
2.7088549 1.7896018 1.0241072 2.350971e-38
2.7153983 1.749624 1.0134298 2.350971e-38
2.710197 1.628989 1.0303038 2.3509712e-38
2.709487 1.5845733 1.0341452 2.3509713e-38
2.7073717 1.5561244 1.0398729 2.3509713e-38
2.7121155 1.5246134 1.0322713 2.3509715e-38
2.7179594 1.4843837 1.0229846 2.3509716e-38
2.7178957 1.4712043 1.0238342 2.3509717e-38
2.7179632 1.4571633 1.024475 2.3509717e-38
2.7216308 1.438421 1.0182879 2.3509719e-38
2.7223291 1.393133 1.0194061 2.350972e-38
2.7193122 1.3660645 1.0268321 2.350972e-38
2.718096 1.3419371 1.0305536 2.3509722e-38
2.7164633 1.3248911 1.0347042 2.3509723e-38
2.7139935 1.3038753 1.0407219 2.3509724e-38
2.7114527 1.2757454 1.0472701 2.3509724e-38
2.7169025 1.2529833 1.0377967 2.3509726e-38
2.720294 1.2266557 1.0325718 2.3509727e-38
2.7113614 1.1640046 1.0535983 2.3509729e-38
2.7082622 1.1558996 1.0601432 2.3509729e-38
2.7065797 1.1499177 1.0637835 2.350973e-38
2.7011976 1.13609 1.0751354 2.3509731e-38
2.6960669 1.0986178 1.0872951 2.3509731e-38
2.6977012 1.0831724 1.0849276 2.3509733e-38
2.6983824 1.070177 1.0843033 2.3509734e-38
2.6991982 1.0507693 1.0837657 2.3509736e-38
2.698056 1.0099889 1.0882573 2.3509736e-38
2.6999605 0.98660213 1.0857965 2.3509737e-38
2.7013569 0.97169238 1.083869 2.3509738e-38
2.7017965 0.93862844 1.0848227 2.3509738e-38
2.7040277 0.90633404 1.0822083 2.350974e-38
2.7043736 0.89228106 1.082301 2.3509741e-38
2.7038765 0.87196368 1.0843974 2.3509743e-38
2.7033176 0.83934647 1.0872917 2.3509743e-38
2.700139 0.82027823 1.0945961 2.3509744e-38
2.6921601 0.7912066 1.1118987 2.3509745e-38
2.6889336 0.78431076 1.118627 2.3509747e-38
2.7053232 0.76941389 1.087193 2.3509747e-38
2.7204976 0.71634185 1.0602512 2.3509748e-38
2.7255175 0.70179784 1.0511718 2.350975e-38
2.7294538 0.68765837 1.0442041 2.350975e-38
2.7432621 0.62611586 1.0204161 2.3509751e-38
2.7442355 0.6095863 1.0194099 2.3509752e-38
2.7466669 0.58575648 1.0159361 2.3509754e-38
2.749506 0.56293052 1.0116042 2.3509754e-38
2.7501974 0.5498324 1.0109653 2.3509755e-38
2.7508981 0.53635806 1.0103266 2.3509757e-38
2.746011 0.4783695 1.0231361 2.3509757e-38
2.7419806 0.4428646 1.0330217 2.3509758e-38
2.7453816 0.42564973 1.0272762 2.3509759e-38
2.7457075 0.38416773 1.0289164 2.3509761e-38
2.7453454 0.37016642 1.0303994 2.3509761e-38
2.7436914 0.35331547 1.0345823 2.3509762e-38
2.7455118 0.30250293 1.0337946 2.3509764e-38
2.7450318 0.25564077 1.0373189 2.3509765e-38
2.73983 0.21434829 1.0498281 2.3509765e-38
2.7408776 0.19324234 1.0489272 2.3509767e-38
2.7442381 0.16707402 1.0437536 2.3509768e-38
2.7439928 0.1287072 1.0463482 2.3509768e-38
2.7456558 0.076116882 1.0459692 2.3509769e-38
2.7473936 0.063010775 1.0432706 2.3509771e-38
2.7472568 0.022935029 1.0457444 2.3509772e-38
2.7469869 0.018076885 1.0465428 2.3509772e-38
2.7467644 -0.010134831 1.0485337 2.3509774e-38
2.7460568 -0.043261364 1.0517488 2.3509775e-38
2.7452343 -0.075760715 1.0551553 2.3509775e-38
2.7511532 -0.14190564 1.047147 2.3509776e-38
2.745995 -0.17470232 1.059103 2.3509778e-38
2.7507675 -0.19315234 1.0507264 2.3509779e-38
2.7632136 -0.19545203 1.0263592 2.3509779e-38
2.7963748 -0.19806936 0.96124244 2.3509781e-38
2.8014171 -0.19116202 0.95093995 2.3509782e-38
2.8188024 -0.17523471 0.91584909 2.3509783e-38
2.8522103 -0.21358344 0.85221422 2.3509783e-38
2.8594952 -0.20982543 0.83767056 2.3509785e-38
2.8633192 -0.19884354 0.82954115 2.3509786e-38
2.8962185 -0.17131537 0.76328033 2.3509786e-38
2.9207625 -0.21976036 0.71764529 2.3509788e-38
2.9221931 -0.26568151 0.71735716 2.3509789e-38
2.92487 -0.27941784 0.71284544 2.350979e-38
2.9292088 -0.29380089 0.70509672 2.350979e-38
2.9352708 -0.31166601 0.69415039 2.3509792e-38
2.9391077 -0.32159141 0.6871466 2.3509793e-38
2.9428043 -0.32922906 0.68029046 2.3509793e-38
2.9454701 -0.43026176 0.6806047 2.3509795e-38
2.9403346 -0.45450333 0.69204509 2.3509796e-38
2.9395602 -0.48705623 0.69536048 2.3509797e-38
2.9383471 -0.51945639 0.69953054 2.3509797e-38
2.9373245 -0.5519228 0.70332879 2.3509799e-38
2.934411 -0.57092643 0.71010846 2.35098e-38
2.9289668 -0.58795363 0.72175962 2.3509802e-38
2.9138405 -0.62291962 0.75345117 2.3509802e-38
2.9069948 -0.62865096 0.7672385 2.3509803e-38
2.9061358 -0.63572884 0.76931864 2.3509804e-38
2.9076903 -0.64871842 0.76697463 2.3509804e-38
2.9089012 -0.65972394 0.76519662 2.3509806e-38
2.898741 -0.73054701 0.78908896 2.3509807e-38
2.885263 -0.7624777 0.81737089 2.3509809e-38
2.8807395 -0.8065418 0.82869697 2.3509809e-38
2.8628008 -0.83902305 0.86578619 2.350981e-38
2.8506944 -0.85358083 0.89041364 2.3509811e-38
2.8388755 -0.85795975 0.91391444 2.3509811e-38
2.8338804 -0.85980284 0.92384464 2.3509813e-38
2.828676 -0.86162305 0.93418783 2.3509814e-38
2.818388 -0.86820251 0.9547962 2.3509816e-38
2.815753 -0.86993027 0.96007669 2.3509816e-38
2.7687614 -0.85681862 1.0518326 2.3509817e-38
2.7645664 -0.84255385 1.0593036 2.3509818e-38
2.7619624 -0.83769017 1.0641607 2.350982e-38
2.7536283 -0.82918489 1.0800945 2.350982e-38
2.757076 -0.85599428 1.0747837 2.3509821e-38
2.7578235 -0.87548119 1.0743856 2.3509823e-38
2.7579315 -0.88668144 1.0747883 2.3509823e-38
2.7554982 -0.94630331 1.0828588 2.3509824e-38
2.7617674 -0.96986157 1.0718175 2.3509825e-38
2.7648966 -1.0028098 1.0674722 2.3509827e-38
2.765378 -1.0157822 1.067238 2.3509827e-38
2.7651305 -1.0485182 1.0695269 2.3509828e-38
2.766685 -1.0811691 1.0682644 2.350983e-38
2.7657647 -1.1196142 1.0721911 2.350983e-38
2.770576 -1.1595825 1.0649219 2.3509831e-38
2.770818 -1.227414 1.0681783 2.3509832e-38
2.7727249 -1.2424952 1.0652552 2.3509834e-38
2.7735546 -1.2728274 1.0652915 2.3509834e-38
2.7786081 -1.3125453 1.0575306 2.3509835e-38
2.7776802 -1.3283317 1.0602267 2.3509837e-38
2.7744362 -1.3639212 1.0685692 2.3509838e-38
2.7729914 -1.4190308 1.0744447 2.3509838e-38
2.774488 -1.4487247 1.0731333 2.3509839e-38
2.7779353 -1.4720867 1.0676351 2.3509841e-38
2.7805836 -1.502434 1.0640929 2.3509841e-38
2.7795417 -1.5315971 1.0677477 2.3509842e-38
2.7819843 -1.5567424 1.0643243 2.3509844e-38
2.7823553 -1.6018919 1.0660784 2.3509845e-38
2.7825036 -1.6357758 1.0676506 2.3509845e-38
2.7862687 -1.6634521 1.0617635 2.3509846e-38
2.7876763 -1.7134923 1.0617481 2.3509848e-38
2.7893894 -1.7265552 1.0590945 2.3509848e-38
2.7885089 -1.7817965 1.0638683 2.3509849e-38
2.790894 -1.8025846 1.060318 2.3509851e-38
2.7962658 -1.8294216 1.0512232 2.3509852e-38
2.7989872 -1.8609818 1.0476041 2.3509852e-38
2.8001196 -1.8735474 1.0460674 2.3509853e-38
2.8027422 -1.9046198 1.0426152 2.3509855e-38
2.8048556 -1.9237564 1.0395095 2.3509856e-38
2.805876 -1.9293003 1.037806 2.3509856e-38
2.8111887 -1.9398172 1.02793 2.3509858e-38
2.8145797 -2.0528088 1.027474 2.3509859e-38
2.8160279 -2.0646834 1.0252775 2.3509859e-38
2.8173532 -2.0819292 1.0236177 2.350986e-38
2.8332238 -2.0901182 0.99283552 2.3509862e-38
2.8519065 -2.0876505 0.95593286 2.3509863e-38
2.8620112 -2.0917814 0.93627405 2.3509863e-38
2.8658471 -2.0919678 0.92873549 2.3509865e-38
2.8684402 -2.0721395 0.92254174 2.3509866e-38
2.8688958 -2.059509 0.92095095 2.3509866e-38
2.8682799 -2.0449054 0.9213596 2.3509867e-38
2.8689711 -2.028821 0.91911298 2.3509869e-38
2.8515036 -2.0029109 0.95206279 2.350987e-38
2.8438914 -1.9771144 0.96562451 2.350987e-38
2.8668613 -1.8835595 0.91527277 2.3509872e-38
2.8757627 -1.8802143 0.89757085 2.3509873e-38
2.8900838 -1.8689393 0.86876637 2.3509874e-38
2.9029372 -1.8674281 0.8433882 2.3509874e-38
2.9316947 -1.8983439 0.78849536 2.3509876e-38
2.947104 -1.9182353 0.7592653 2.3509877e-38
2.9731798 -1.9653063 0.71053869 2.3509877e-38
2.9715009 -2.0303662 0.7174232 2.3509879e-38
2.9746485 -2.0777683 0.71383786 2.350988e-38
2.9782066 -2.0911319 0.70756972 2.3509881e-38
2.9852736 -2.0991831 0.69410563 2.3509881e-38
2.9998529 -2.1026356 0.665604 2.3509883e-38
3.0138683 -2.1058922 0.63820088 2.3509884e-38
