# .PCD v0.7 - Point Cloud Data file format
VERSION 0.7
FIELDS x y z rgb
SIZE 4 4 4 4
TYPE F F F F
COUNT 1 1 1 1
WIDTH 316
HEIGHT 1
VIEWPOINT 0 0 0 1 0 0 0
POINTS 316
DATA ascii
-2.6764579 2.3493986 1.3865634 2.3509528e-38
-2.6784275 2.3350878 1.4186109 2.3509528e-38
-2.6786621 2.326196 1.4252187 2.350953e-38
-2.6786499 2.3227942 1.4263804 2.3509531e-38
-2.6780462 2.2903557 1.4308751 2.3509532e-38
-2.6781118 2.2770576 1.4369279 2.3509534e-38
-2.6782327 2.268681 1.4418101 2.3509534e-38
-2.6794212 2.2308073 1.4725164 2.3509535e-38
-2.6780541 2.1916723 1.4693565 2.3509537e-38
-2.6755123 2.1479046 1.4522008 2.3509538e-38
-2.674943 2.1337383 1.4500558 2.3509539e-38
-2.674531 2.1205759 1.4496357 2.3509539e-38
-2.6734591 2.0994887 1.4434268 2.3509541e-38
-2.6720681 2.0596807 1.440201 2.3509542e-38
-2.6710765 2.0217345 1.4416273 2.3509544e-38
-2.6699245 1.9379296 1.4587246 2.3509545e-38
-2.6676478 1.9135587 1.4375929 2.3509545e-38
-2.6651304 1.8523828 1.4275364 2.3509547e-38
-2.6643162 1.8082759 1.43374 2.3509548e-38
-2.6638696 1.7916453 1.4342072 2.3509549e-38
-2.6635921 1.7559257 1.4443613 2.3509551e-38
-2.6632178 1.7420536 1.4447242 2.3509551e-38
-2.6628594 1.724316 1.4468064 2.3509552e-38
-2.6623039 1.6895334 1.4528607 2.3509554e-38
-2.6619153 1.6773763 1.4523665 2.3509555e-38
-2.6602654 1.6440387 1.4431455 2.3509556e-38
-2.6598465 1.6307752 1.4426697 2.3509556e-38
-2.6592789 1.5971988 1.4480953 2.3509558e-38
-2.6582355 1.5331914 1.4589586 2.3509559e-38
-2.6581571 1.4885204 1.4752718 2.3509561e-38
-2.6580493 1.4697328 1.4811287 2.3509562e-38
-2.6574788 1.4311856 1.4884485 2.3509563e-38
-2.6557841 1.3837659 1.4841046 2.3509563e-38
-2.6553576 1.3521169 1.4906783 2.3509565e-38
-2.6547308 1.3381419 1.4876848 2.3509566e-38
-2.6539865 1.3238425 1.4832363 2.3509568e-38
-2.6529574 1.2970958 1.4798061 2.3509569e-38
-2.6524909 1.2838198 1.4786917 2.3509569e-38
-2.652241 1.2766654 1.478115 2.350957e-38
-2.6515779 1.2511464 1.4791217 2.3509572e-38
-2.6512227 1.2363423 1.4801044 2.3509573e-38
-2.6505702 1.2060306 1.4831167 2.3509575e-38
-2.6495924 1.1653856 1.4857762 2.3509575e-38
-2.6497095 1.1467466 1.4946011 2.3509576e-38
-2.6491594 1.1204027 1.4974493 2.3509577e-38
-2.6480088 1.0619737 1.5047001 2.3509579e-38
-2.6477189 1.0490628 1.5058241 2.350958e-38
-2.6468124 1.0336258 1.4996362 2.350958e-38
-2.6463339 1.0233614 1.4971936 2.3509582e-38
-2.644731 0.99288231 1.4874961 2.3509583e-38
-2.6439514 0.96043664 1.4896307 2.3509584e-38
-2.643826 0.94137806 1.4953543 2.3509586e-38
-2.6430693 0.92911726 1.4899495 2.3509586e-38
-2.6416359 0.88712728 1.4870089 2.3509587e-38
-2.641588 0.87450737 1.4912715 2.3509589e-38
-2.6414502 0.85627317 1.496509 2.350959e-38
-2.6393025 0.79828161 1.4901845 2.3509591e-38
-2.639169 0.79153728 1.4910097 2.3509591e-38
-2.638782 0.77758527 1.4912335 2.3509593e-38
-2.6385331 0.76330549 1.493439 2.3509594e-38
-2.6380329 0.74929446 1.4921647 2.3509596e-38
-2.6364129 0.71432042 1.4839826 2.3509597e-38
-2.6358874 0.70200282 1.4817073 2.3509598e-38
-2.6346369 0.6604048 1.4810685 2.3509598e-38
-2.6343915 0.63578254 1.48735 2.35096e-38
-2.6336827 0.59723896 1.4928043 2.3509601e-38
-2.6329503 0.58563864 1.4874693 2.3509603e-38
-2.6318836 0.56736928 1.4802318 2.3509604e-38
-2.6313057 0.55243307 1.478272 2.3509604e-38
-2.6309519 0.53777766 1.4792104 2.3509605e-38
-2.630708 0.52275026 1.4817764 2.3509607e-38
-2.6303129 0.49717176 1.4864091 2.3509608e-38
-2.6301253 0.48465943 1.4887533 2.350961e-38
-2.6299658 0.47051698 1.4921074 2.350961e-38
-2.6289055 0.43731558 1.4907684 2.3509611e-38
-2.628238 0.3924315 1.4992445 2.3509612e-38
-2.6268489 0.35941035 1.4934089 2.3509614e-38
-2.6265604 0.33890086 1.4975035 2.3509615e-38
-2.6257946 0.29973632 1.5024408 2.3509615e-38
-2.6258619 0.27425402 1.5132507 2.3509617e-38
-2.6251905 0.26617917 1.5073647 2.3509618e-38
-2.6229947 0.23394509 1.4903789 2.3509619e-38
-2.6217241 0.19445154 1.4886504 2.3509621e-38
-2.6214998 0.17971975 1.4913652 2.3509621e-38
-2.6209691 0.13565645 1.5013632 2.3509622e-38
-2.6200993 0.11435447 1.4979526 2.3509624e-38
-2.6193228 0.087791897 1.4978408 2.3509625e-38
-2.6185541 0.05977615 1.4984015 2.3509626e-38
-2.6178031 0.033314541 1.4985926 2.3509628e-38
-2.6173811 0.015768982 1.4997439 2.3509628e-38
-2.6165903 -0.01253593 1.5001184 2.3509629e-38
-2.615478 -0.051276542 1.5002296 2.3509631e-38
-2.6149187 -0.062710717 1.4971539 2.3509632e-38
-2.6140726 -0.079216599 1.4921982 2.3509633e-38
-2.6137357 -0.086458378 1.4904823 2.3509633e-38
-2.6127455 -0.1320722 1.4949073 2.3509635e-38
-2.610029 -0.2096234 1.4885408 2.3509636e-38
-2.6097054 -0.22493774 1.4901484 2.3509638e-38
-2.6082647 -0.241193 1.4770963 2.3509639e-38
-2.6059556 -0.305094 1.4709009 2.3509639e-38
-2.604816 -0.37481064 1.4826903 2.350964e-38
-2.60116 -0.45537639 1.4648688 2.3509642e-38
-2.601053 -0.47544271 1.4712286 2.3509643e-38
-2.6007361 -0.48725086 1.4715639 2.3509645e-38
-2.6004469 -0.50327289 1.4739009 2.3509645e-38
-2.5991943 -0.58320594 1.4881445 2.3509646e-38
-2.5984535 -0.61625063 1.4910324 2.3509647e-38
-2.5960379 -0.68623281 1.4857688 2.3509649e-38
-2.5959649 -0.70187223 1.4908687 2.350965e-38
-2.596303 -0.77101213 1.5222992 2.350965e-38
-2.5921054 -0.84628856 1.4951364 2.3509652e-38
-2.5902257 -0.91629553 1.4970905 2.3509653e-38
-2.5893064 -0.94046807 1.4941263 2.3509654e-38
-2.5863695 -0.98895985 1.473497 2.3509656e-38
-2.5857697 -1.0671095 1.4958266 2.3509656e-38
-2.5830898 -1.1535722 1.4934161 2.3509657e-38
-2.5799797 -1.2155014 1.4756812 2.3509659e-38
-2.5795519 -1.2308539 1.4758999 2.350966e-38
-2.5786593 -1.2995903 1.4906273 2.3509661e-38
-2.5773699 -1.362636 1.4978081 2.3509663e-38
-2.5728936 -1.427215 1.4627362 2.3509663e-38
-2.5709097 -1.4593171 1.4485489 2.3509664e-38
-2.5694451 -1.4920341 1.4415841 2.3509666e-38
-2.5691383 -1.5295074 1.4520265 2.3509667e-38
-2.5687265 -1.5747337 1.4640769 2.3509668e-38
-2.5687988 -1.6058258 1.4771391 2.3509668e-38
-2.5684721 -1.6438694 1.4875392 2.350967e-38
-2.5679712 -1.6571846 1.4859864 2.3509671e-38
-2.5667644 -1.6791594 1.4783032 2.3509673e-38
-2.566308 -1.6912999 1.4768897 2.3509674e-38
-2.5656445 -1.7235072 1.480492 2.3509674e-38
-2.5654531 -1.7317016 1.4811031 2.3509675e-38
-2.5652847 -1.7386521 1.4815431 2.3509677e-38
-2.5651793 -1.7445794 1.4824309 2.3509678e-38
-2.5649962 -1.7538782 1.4835855 2.350968e-38
-2.563436 -1.7861749 1.4751664 2.350968e-38
-2.5617738 -1.8201336 1.4660261 2.3509681e-38
-2.5611353 -1.8522569 1.4699336 2.3509682e-38
-2.5627644 -1.8932123 1.507762 2.3509684e-38
-2.5624871 -1.9010854 1.5070934 2.3509685e-38
-2.5615408 -1.9252112 1.5037537 2.3509685e-38
-2.5585258 -1.9767982 1.4832777 2.3509687e-38
-2.5567577 -2.0172293 1.4752284 2.3509688e-38
-2.5563982 -2.0368509 1.4780229 2.3509689e-38
-2.5562885 -2.0438631 1.4792783 2.3509691e-38
-2.5561841 -2.0561721 1.4826591 2.3509692e-38
-2.5561829 -2.0626245 1.4851505 2.3509692e-38
-2.5546439 -2.0950875 1.4770851 2.3509694e-38
-2.5524664 -2.1396139 1.4651262 2.3509695e-38
-2.5520177 -2.1557927 1.4653796 2.3509696e-38
-2.551549 -2.1673818 1.4635841 2.3509698e-38
-2.5491223 -2.2061253 1.4460264 2.3509698e-38
-2.5484197 -2.2396085 1.4495981 2.3509699e-38
-2.5484188 -2.258446 1.4569111 2.3509701e-38
-2.5478444 -2.2910607 1.461871 2.3509702e-38
-2.546303 -2.3129475 1.4496598 2.3509703e-38
-2.5447702 -2.3407364 1.4398578 2.3509703e-38
-2.544332 -2.3529534 1.438717 2.3509705e-38
-2.5437632 -2.3862877 1.4440343 2.3509706e-38
-2.5437171 -2.4049454 1.4506657 2.3509708e-38
-2.5432084 -2.4193974 1.4494499 2.3509709e-38
-2.5417204 -2.4340727 1.435148 2.3509709e-38
-2.540668 -2.4363251 1.4218738 2.350971e-38
-2.5379162 -2.4506812 1.3904592 2.3509712e-38
-2.5371282 -2.4548938 1.3815037 2.3509713e-38
-2.5352633 -2.4519145 1.3552748 2.3509715e-38
-2.5343108 -2.4522238 1.3425848 2.3509715e-38
-2.5336671 -2.4528937 1.334192 2.3509716e-38
-2.5331445 -2.4527626 1.3271154 2.3509717e-38
-2.5327723 -2.4304171 1.3134223 2.3509719e-38
-2.5326257 -2.41416 1.3051276 2.350972e-38
-2.533186 -2.3816636 1.3000246 2.350972e-38
-2.5350268 -2.3156526 1.2991052 2.3509722e-38
-2.5335631 -2.2806504 1.2658131 2.3509723e-38
-2.540416 -2.186341 1.3212788 2.3509724e-38
-2.5418832 -2.1463766 1.3254637 2.3509726e-38
-2.5421917 -2.1399639 1.3271176 2.3509727e-38
-2.5430629 -2.0873055 1.3183516 2.3509727e-38
-2.5429473 -2.0678585 1.3092366 2.3509729e-38
-2.5435486 -2.0542412 1.3120255 2.350973e-38
-2.5447645 -2.0410142 1.3232294 2.3509731e-38
-2.5478981 -1.9894941 1.3453262 2.3509733e-38
-2.5489776 -1.9271154 1.3355854 2.3509733e-38
-2.5497911 -1.8928467 1.333195 2.3509734e-38
-2.5510836 -1.8780024 1.3447994 2.3509736e-38
-2.5520155 -1.8636374 1.3517426 2.3509737e-38
-2.55358 -1.8292202 1.3593956 2.3509738e-38
-2.5541389 -1.76693 1.3426869 2.3509738e-38
-2.5542691 -1.7342168 1.3317157 2.350974e-38
-2.5549552 -1.7139764 1.3330742 2.3509741e-38
-2.5540223 -1.6324029 1.2888052 2.3509743e-38
-2.5591342 -1.5871034 1.3399233 2.3509744e-38
-2.5599356 -1.575103 1.3460258 2.3509744e-38
-2.5626681 -1.4733864 1.3432103 2.3509745e-38
-2.5631497 -1.454055 1.3421714 2.3509747e-38
-2.5633736 -1.4396533 1.3395823 2.3509748e-38
-2.5649681 -1.4068986 1.3482795 2.350975e-38
-2.5657744 -1.3739455 1.3463093 2.350975e-38
-2.5671792 -1.3399004 1.3519557 2.3509751e-38
-2.5682418 -1.2941604 1.3484559 2.3509752e-38
-2.5698156 -1.2597687 1.3562405 2.3509754e-38
-2.5724442 -1.1984873 1.3677552 2.3509755e-38
-2.5729413 -1.1459963 1.3540246 2.3509757e-38
-2.574626 -1.0815296 1.3516043 2.3509757e-38
-2.5740974 -1.0637413 1.33758 2.3509758e-38
-2.5755229 -1.0463161 1.3499699 2.3509759e-38
-2.5780511 -0.99977213 1.3658615 2.3509761e-38
-2.5787716 -0.96709287 1.3628449 2.3509762e-38
-2.579844 -0.90249515 1.3521413 2.3509762e-38
-2.5806551 -0.89393735 1.3597226 2.3509764e-38
-2.5835948 -0.83894664 1.3778623 2.3509765e-38
-2.5838957 -0.77321476 1.3563443 2.3509767e-38
-2.5856447 -0.741871 1.3676709 2.3509768e-38
-2.5878446 -0.69194049 1.377831 2.3509768e-38
-2.5891871 -0.66040224 1.3836216 2.3509769e-38
-2.5895326 -0.65107447 1.3846374 2.3509771e-38
-2.5909753 -0.6119498 1.3888208 2.3509772e-38
-2.5913644 -0.57995415 1.3816072 2.3509774e-38
-2.592164 -0.57015646 1.3885483 2.3509774e-38
-2.5960827 -0.48283499 1.4072783 2.3509775e-38
-2.5957198 -0.46508598 1.3954957 2.3509776e-38
-2.5975113 -0.40605378 1.3966261 2.3509778e-38
-2.5969143 -0.35063821 1.3670527 2.3509779e-38
-2.5972948 -0.33614558 1.3665308 2.3509779e-38
-2.5980406 -0.28609928 1.3570995 2.3509781e-38
-2.6007543 -0.20354694 1.3614825 2.3509782e-38
-2.6011984 -0.17301764 1.3555822 2.3509783e-38
-2.6020441 -0.12123287 1.3468133 2.3509785e-38
-2.604008 -0.073439464 1.354633 2.3509785e-38
-2.6044743 -0.060404748 1.3558336 2.3509786e-38
-2.6048884 -0.040670924 1.3537302 2.3509788e-38
-2.6054664 -0.008286424 1.3489041 2.3509789e-38
-2.6026475 0.057992406 1.2852348 2.350979e-38
-2.6013114 0.058024853 1.2672611 2.3509792e-38
-2.5990241 0.061705418 1.2350715 2.3509792e-38
-2.5913763 0.03328862 1.1432985 2.3509793e-38
-2.5903156 0.031281054 1.1298206 2.3509795e-38
-2.5928991 0.11107378 1.1335276 2.3509796e-38
-2.5940444 0.11351346 1.1479768 2.3509797e-38
-2.5963261 0.11220334 1.1791623 2.3509797e-38
-2.5975387 0.1033073 1.1989236 2.3509799e-38
-2.598403 0.096795067 1.2130802 2.35098e-38
-2.6042309 0.08450634 1.2962103 2.3509802e-38
-2.6054599 0.093256719 1.3093315 2.3509803e-38
-2.61025 0.13865897 1.3560795 2.3509803e-38
-2.6111403 0.15280658 1.3625467 2.3509804e-38
-2.6125228 0.21848559 1.3555959 2.3509806e-38
-2.6138759 0.25202543 1.3607485 2.3509807e-38
-2.6144478 0.26485252 1.363449 2.3509809e-38
-2.615489 0.31110597 1.3594575 2.3509809e-38
-2.6157455 0.34648469 1.3491513 2.350981e-38
-2.6152973 0.38009667 1.3300533 2.3509811e-38
-2.6185617 0.42996383 1.3545547 2.3509813e-38
-2.6193991 0.44400209 1.3603516 2.3509814e-38
-2.6213837 0.5104785 1.3611817 2.3509814e-38
-2.622575 0.54329854 1.3644427 2.3509816e-38
-2.6231432 0.57350224 1.3603362 2.3509817e-38
-2.6251843 0.62437117 1.3679926 2.3509818e-38
-2.6262045 0.6575008 1.3688283 2.350982e-38
-2.6279745 0.72373343 1.3668694 2.3509821e-38
-2.6285198 0.75593734 1.3616782 2.3509821e-38
-2.6296935 0.82218111 1.3516974 2.3509823e-38
-2.6298289 0.8404963 1.3463987 2.3509824e-38
-2.6303155 0.85518241 1.3472326 2.3509825e-38
-2.6306348 0.86659324 1.347084 2.3509827e-38
-2.6313951 0.88655448 1.3495479 2.3509827e-38
-2.6322043 0.90232307 1.3542918 2.3509828e-38
-2.6333675 0.93412501 1.3575633 2.350983e-38
-2.6343515 0.96615666 1.3583375 2.3509831e-38
-2.6350257 1.0007477 1.3539511 2.3509832e-38
-2.6350725 1.0312204 1.3427287 2.3509832e-38
-2.6314697 1.0659676 1.2807813 2.3509834e-38
-2.6304526 1.0673087 1.2665823 2.3509835e-38
-2.6304793 1.0856389 1.2598145 2.3509837e-38
-2.6332445 1.0955905 1.293121 2.3509838e-38
-2.6391547 1.1802349 1.3396674 2.3509838e-38
-2.6392128 1.1957217 1.3344306 2.3509839e-38
-2.6398714 1.2068217 1.3389661 2.3509841e-38
-2.6429589 1.2592325 1.3600987 2.3509842e-38
-2.6435831 1.2901051 1.3564869 2.3509844e-38
-2.6442292 1.325436 1.3514308 2.3509844e-38
-2.6451333 1.357322 1.3511873 2.3509845e-38
-2.64518 1.3883038 1.3397679 2.3509846e-38
-2.6460979 1.415466 1.3415481 2.3509848e-38
-2.6462049 1.4219189 1.3404783 2.3509849e-38
-2.646493 1.4292232 1.3415096 2.3509849e-38
-2.6485741 1.4703074 1.3535146 2.3509851e-38
-2.6489882 1.4884484 1.3520284 2.3509852e-38
-2.64941 1.502986 1.3520458 2.3509853e-38
-2.6506934 1.5370612 1.3560493 2.3509855e-38
-2.6512935 1.5748385 1.3494271 2.3509856e-38
-2.6523852 1.6341299 1.3410493 2.3509856e-38
-2.6526651 1.6659012 1.3324587 2.3509858e-38
-2.6525021 1.6867285 1.3221676 2.3509859e-38
-2.6525252 1.715688 1.3112153 2.350986e-38
-2.6550682 1.7647352 1.3263344 2.3509862e-38
-2.6553712 1.7933438 1.3192836 2.3509862e-38
-2.6560059 1.8098824 1.3213857 2.3509863e-38
-2.6577725 1.8646888 1.3238245 2.3509865e-38
-2.657721 1.9135573 1.3041285 2.3509866e-38
-2.6581507 1.9267569 1.3047758 2.3509867e-38
-2.6600211 1.992821 1.3042324 2.3509867e-38
-2.6605911 2.0222995 1.3004298 2.3509869e-38
-2.6612306 2.0588052 1.2948335 2.350987e-38
-2.6622698 2.0912137 1.2962036 2.3509872e-38
-2.6619999 2.1586087 1.2663666 2.3509873e-38
-2.6613007 2.1704876 1.2523454 2.3509873e-38
-2.6615474 2.1898763 1.2481242 2.3509874e-38
-2.6622283 2.1934316 1.2558959 2.3509876e-38
-2.6676707 2.2706251 1.2990555 2.3509877e-38
-2.6683497 2.3032186 1.2955078 2.3509879e-38
-2.6686702 2.3161917 1.2947681 2.3509879e-38
-2.6691201 2.3390119 1.2919486 2.350988e-38
-2.6706457 2.3534958 1.3068256 2.3509881e-38
-2.6714239 2.3596869 1.3148787 2.3509883e-38
-2.6727617 2.3696985 1.3289733 2.3509884e-38
