# .PCD v0.7 - Point Cloud Data file format
VERSION 0.7
FIELDS x y z rgb
SIZE 4 4 4 4
TYPE F F F F
COUNT 1 1 1 1
WIDTH 460
HEIGHT 1
VIEWPOINT 0 0 0 1 0 0 0
POINTS 460
DATA ascii
-0.48790357 -2.3333249 0.4008978 2.3509528e-38
-0.49068713 -2.3318148 0.3665444 2.3509528e-38
-0.48680452 -2.3302634 0.33461139 2.350953e-38
-0.48336485 -2.3286428 0.30094212 2.350953e-38
-0.47899139 -2.3271077 0.26959369 2.3509531e-38
-0.47762066 -2.325578 0.23688191 2.3509531e-38
-0.48643577 -2.3245385 0.20980677 2.3509532e-38
-0.4805128 -2.3235259 0.19064423 2.3509532e-38
-0.48593891 -2.3208642 0.12983878 2.3509534e-38
-0.49402452 -2.3204961 0.11779324 2.3509534e-38
-0.49610218 -2.318995 0.083996825 2.3509535e-38
-0.49507144 -2.3183801 0.071082763 2.3509537e-38
-0.48780856 -2.3173423 0.052041501 2.3509537e-38
-0.4880023 -2.3157666 0.017528914 2.3509538e-38
-0.48730588 -2.3151727 0.0049135908 2.3509538e-38
-0.48961893 -2.3138056 -0.026070446 2.3509539e-38
-0.48183224 -2.312587 -0.048806615 2.3509539e-38
-0.48504069 -2.310672 -0.092207588 2.3509541e-38
-0.47894302 -2.3090522 -0.12453355 2.3509541e-38
-0.47839925 -2.3081448 -0.14407653 2.3509542e-38
-0.47960514 -2.307519 -0.1583454 2.3509544e-38
-0.48266903 -2.3070159 -0.17084557 2.3509544e-38
-0.49496058 -2.3046455 -0.22869849 2.3509545e-38
-0.50481158 -2.3035195 -0.25817826 2.3509545e-38
-0.50118989 -2.3025253 -0.27807957 2.3509547e-38
-0.48559189 -2.2998519 -0.3286989 2.3509547e-38
-0.47895017 -2.2981551 -0.36243364 2.3509548e-38
-0.47740582 -2.2972345 -0.38176259 2.3509548e-38
-0.47781524 -2.2966945 -0.39375556 2.3509549e-38
-0.47344717 -2.2950399 -0.42770937 2.3509551e-38
-0.47619987 -2.29368 -0.458772 2.3509551e-38
-0.47648123 -2.29335 -0.46610767 2.3509552e-38
-0.48331097 -2.2916825 -0.50590348 2.3509552e-38
-0.55038494 -2.2896461 -0.58368331 2.3509554e-38
-0.57823199 -2.2904828 -0.57923883 2.3509554e-38
-0.63707042 -2.291337 -0.58981693 2.3509555e-38
-0.66957152 -2.2922063 -0.58698785 2.3509555e-38
-0.70329064 -2.293097 -0.58429009 2.3509556e-38
-0.77217925 -2.2947054 -0.58338809 2.3509558e-38
-0.79180294 -2.2952602 -0.58102959 2.3509558e-38
-0.80554438 -2.2956061 -0.58029771 2.3509559e-38
-0.84193587 -2.2963088 -0.58303338 2.3509559e-38
-0.87611902 -2.29706 -0.58361518 2.3509561e-38
-0.91325855 -2.2976935 -0.5882414 2.3509561e-38
-0.95231235 -2.298362 -0.59303796 2.3509562e-38
-0.9904021 -2.2991335 -0.5951212 2.3509562e-38
-1.0095785 -2.2997577 -0.59100974 2.3509563e-38
-1.0406204 -2.3003664 -0.59315157 2.3509565e-38
-1.0760285 -2.3010743 -0.59527272 2.3509565e-38
-1.0948044 -2.3014176 -0.59710485 2.3509566e-38
-1.1280576 -2.3022559 -0.59532303 2.3509566e-38
-1.1465389 -2.3023798 -0.60180199 2.3509568e-38
-1.1804708 -2.3030736 -0.60350794 2.3509568e-38
-1.2004975 -2.303659 -0.60067487 2.3509569e-38
-1.2337403 -2.3042691 -0.60386461 2.3509569e-38
-1.246595 -2.3046787 -0.60130566 2.350957e-38
-1.267848 -2.3053627 -0.59693986 2.3509572e-38
-1.2819059 -2.3057005 -0.59654248 2.3509572e-38
-1.3152544 -2.3066263 -0.59289539 2.3509573e-38
-1.3656602 -2.3106897 -0.52922261 2.3509573e-38
-1.3686684 -2.3116016 -0.51080739 2.3509575e-38
-1.3725487 -2.31323 -0.47718653 2.3509575e-38
-1.3640888 -2.3143644 -0.44821393 2.3509576e-38
-1.3650957 -2.3151045 -0.43256342 2.3509576e-38
-1.3657923 -2.3158736 -0.41612056 2.3509577e-38
-1.3643659 -2.3165295 -0.40108556 2.3509579e-38
-1.3647158 -2.3171406 -0.38792777 2.3509579e-38
-1.3639508 -2.3179476 -0.36993325 2.350958e-38
-1.3647926 -2.3187392 -0.35305971 2.350958e-38
-1.3659844 -2.3194706 -0.33769315 2.3509582e-38
-1.3694965 -2.3210576 -0.30479601 2.3509582e-38
-1.3693757 -2.32177 -0.28918144 2.3509583e-38
-1.3659855 -2.3223772 -0.27423766 2.3509583e-38
-1.368063 -2.3231485 -0.25843149 2.3509584e-38
-1.3688143 -2.3239257 -0.24184084 2.3509586e-38
-1.3756828 -2.3263478 -0.1923691 2.3509586e-38
-1.3758305 -2.3270319 -0.17751426 2.3509587e-38
-1.3772933 -2.3286004 -0.14399485 2.3509587e-38
-1.3823436 -2.3302238 -0.11106811 2.3509589e-38
-1.3799335 -2.3308372 -0.096475884 2.3509589e-38
-1.3822372 -2.3317385 -0.07794486 2.350959e-38
-1.3867699 -2.3325679 -0.062096667 2.350959e-38
-1.3894869 -2.3332446 -0.04867509 2.3509591e-38
-1.3881453 -2.3348405 -0.01316493 2.3509593e-38
-1.3921081 -2.3363841 0.01856675 2.3509593e-38
-1.3897086 -2.3383749 0.063214265 2.3509594e-38
-1.3855439 -2.3389356 0.077527575 2.3509594e-38
-1.3866411 -2.3411736 0.12584451 2.3509596e-38
-1.3900309 -2.3427556 0.15868831 2.3509596e-38
-1.386856 -2.3433363 0.17293973 2.3509597e-38
-1.3844739 -2.3439507 0.18754447 2.3509597e-38
-1.3805504 -2.3446538 0.20484233 2.3509598e-38
-1.3865203 -2.3463471 0.23883118 2.35096e-38
-1.3842293 -2.3469656 0.25348178 2.35096e-38
-1.3856752 -2.3474693 0.26376024 2.3509601e-38
-1.3871408 -2.3492439 0.3017804 2.3509601e-38
-1.3896673 -2.3515065 0.34990796 2.3509603e-38
-1.3866246 -2.3528695 0.38118014 2.3509603e-38
-1.3864297 -2.3535199 0.39547062 2.3509604e-38
-1.3853811 -2.3541918 0.4106698 2.3509604e-38
-1.3869872 -2.3549471 0.42635453 2.3509605e-38
-1.387194 -2.3557053 0.44281065 2.3509605e-38
-1.3896755 -2.3563592 0.45584702 2.3509607e-38
-1.3941854 -2.3588781 0.50859272 2.3509608e-38
-1.3930697 -2.3596346 0.52566874 2.3509608e-38
-1.392323 -2.3616421 0.56986046 2.350961e-38
-1.3938222 -2.3632309 0.60379934 2.350961e-38
-1.3948659 -2.3639309 0.61856133 2.3509611e-38
-1.3945585 -2.364635 0.6340909 2.3509611e-38
-1.3932618 -2.3652971 0.64918768 2.3509612e-38
-1.3961519 -2.3661397 0.666134 2.3509612e-38
-1.3975604 -2.3668392 0.68071508 2.3509614e-38
-1.3990422 -2.3676991 0.69875526 2.3509615e-38
-1.3954939 -2.3689814 0.72850662 2.3509615e-38
-1.4004899 -2.3699927 0.74810374 2.3509617e-38
-1.4033443 -2.3715312 0.78027332 2.3509617e-38
-1.4023174 -2.3736064 0.82608646 2.3509618e-38
-1.4036684 -2.375793 0.87314826 2.3509618e-38
-1.4069321 -2.3767056 0.89145303 2.3509619e-38
-1.4152761 -2.3777716 0.91057968 2.3509619e-38
-1.4233294 -2.3795123 0.94457734 2.3509621e-38
-1.4254256 -2.3803644 0.96214354 2.3509622e-38
-1.423344 -2.38236 1.0067387 2.3509622e-38
-1.4183514 -2.382941 1.0218977 2.3509624e-38
-1.4285715 -2.3839955 1.0398467 2.3509624e-38
-1.4392869 -2.3846347 1.0484724 2.3509625e-38
-1.5004717 -2.3868611 1.0666906 2.3509625e-38
-1.5201168 -2.3912768 1.1533401 2.3509626e-38
-1.5163548 -2.3916728 1.1638473 2.3509626e-38
-1.5110189 -2.392225 1.178552 2.3509628e-38
-1.4974574 -2.3936293 1.2159419 2.3509629e-38
-1.4957758 -2.3942046 1.2293414 2.3509629e-38
-1.5011177 -2.3954771 1.2544647 2.3509631e-38
-1.4538053 -2.398067 1.3345039 2.3509631e-38
-1.4295695 -2.3979151 1.3432206 2.3509632e-38
-1.4285046 -2.3990903 1.3694112 2.3509632e-38
-1.4327551 -2.4000714 1.3887181 2.3509633e-38
-1.4341643 -2.4007914 1.4037343 2.3509633e-38
-1.4348077 -2.4016924 1.4230779 2.3509635e-38
-1.3921216 -2.4037764 1.4897802 2.3509636e-38
-1.3468125 -2.4031873 1.4994277 2.3509636e-38
-1.3612275 -2.4036238 1.5017916 2.3509638e-38
-1.3836766 -2.4039712 1.4982235 2.3509638e-38
-1.3979781 -2.4041798 1.4956712 2.3509639e-38
-1.4324235 -2.4052441 1.5018016 2.3509639e-38
-1.4384805 -2.4045973 1.4846743 2.350964e-38
-1.4447216 -2.4042385 1.4737424 2.350964e-38
-1.5652658 -2.4058337 1.4486976 2.3509642e-38
-1.5900419 -2.4069011 1.4596888 2.3509643e-38
-1.5885957 -2.4055481 1.4308717 2.3509643e-38
-1.5943137 -2.4035072 1.3834774 2.3509645e-38
-1.6021465 -2.4023085 1.3534126 2.3509645e-38
-1.5819775 -2.4007845 1.3301642 2.3509646e-38
-1.5735004 -2.3975697 1.2641904 2.3509646e-38
-1.5801289 -2.3965933 1.2395884 2.3509647e-38
-1.5748693 -2.3954628 1.2175206 2.3509647e-38
-1.566049 -2.3929372 1.1667665 2.3509649e-38
-1.5748692 -2.3918917 1.1395577 2.350965e-38
-1.5725427 -2.3903503 1.1070676 2.350965e-38
-1.5743834 -2.3898447 1.0951203 2.3509652e-38
-1.5725604 -2.38938 1.0858685 2.3509652e-38
-1.5660611 -2.3864851 1.0259084 2.3509653e-38
-1.5689943 -2.3857408 1.0081992 2.3509653e-38
-1.5729105 -2.3851118 0.99252725 2.3509654e-38
-1.557173 -2.3817983 0.92800617 2.3509654e-38
-1.5523511 -2.3810027 0.91302991 2.3509656e-38
-1.5452557 -2.3790011 0.87286562 2.3509657e-38
-1.5379828 -2.3779521 0.85357356 2.3509657e-38
-1.5281061 -2.3769877 0.83742571 2.3509659e-38
-1.5343283 -2.3728867 0.74480122 2.3509659e-38
-1.6228105 -2.3705337 0.64948493 2.350966e-38
-1.670754 -2.3717196 0.65156376 2.350966e-38
-1.7147768 -2.3718822 0.63324827 2.3509661e-38
-1.7223445 -2.371973 0.6314674 2.3509661e-38
-1.7771115 -2.3733635 0.63462985 2.3509663e-38
-1.8143054 -2.3739243 0.62839401 2.3509664e-38
-1.9177699 -2.3774052 0.65299404 2.3509664e-38
-1.9928629 -2.3796051 0.66372007 2.3509666e-38
-2.0027232 -2.3799539 0.66643465 2.3509666e-38
-2.026845 -2.3810725 0.67887586 2.3509667e-38
-2.0462174 -2.3818152 0.68546712 2.3509667e-38
-2.0546715 -2.3821993 0.68965495 2.3509668e-38
-2.0660019 -2.3827264 0.69553584 2.3509668e-38
-2.1097305 -2.3850379 0.72427469 2.350967e-38
-2.1165085 -2.3852081 0.72462291 2.3509671e-38
-2.1465251 -2.3863559 0.73477679 2.3509671e-38
-2.199662 -2.3904848 0.79851413 2.3509673e-38
-2.2016327 -2.3912094 0.81335294 2.3509673e-38
-2.1623619 -2.3949912 0.91541219 2.3509674e-38
-2.1452789 -2.3950617 0.92544377 2.3509674e-38
-2.1506236 -2.3960822 0.94506419 2.3509675e-38
-2.1432333 -2.3992071 1.0169532 2.3509675e-38
-2.1365132 -2.4017899 1.0766822 2.3509677e-38
-2.1405337 -2.4034684 1.1113267 2.3509677e-38
-2.1312063 -2.4058461 1.1678641 2.3509678e-38
-2.1350148 -2.4074795 1.2016361 2.350968e-38
-2.1287658 -2.4097264 1.2537878 2.350968e-38
-2.1490729 -2.4124486 1.3031303 2.3509681e-38
-2.1411786 -2.4141016 1.3431337 2.3509681e-38
-2.1355648 -2.4178309 1.4273347 2.3509682e-38
-2.1324234 -2.418263 1.4383267 2.3509682e-38
-2.1456997 -2.4189439 1.4465932 2.3509684e-38
-2.1598048 -2.4193444 1.4483329 2.3509684e-38
-2.1786141 -2.4199512 1.4522443 2.3509685e-38
-2.2089391 -2.4210992 1.4622387 2.3509687e-38
-2.2257605 -2.4210796 1.4534521 2.3509687e-38
-2.2503195 -2.4213684 1.4475616 2.3509688e-38
-2.3152103 -2.4225795 1.44177 2.3509688e-38
-2.4008658 -2.4235916 1.4213281 2.3509689e-38
-2.426178 -2.4249961 1.4394081 2.3509689e-38
-2.4416909 -2.4253652 1.4397631 2.3509691e-38
-2.429281 -2.4227405 1.3886243 2.3509691e-38
-2.4322441 -2.4220707 1.3725294 2.3509692e-38
-2.4375548 -2.4215679 1.3589194 2.3509694e-38
-2.4355838 -2.4200273 1.3262559 2.3509694e-38
-2.4356797 -2.4185252 1.2934266 2.3509695e-38
-2.4301517 -2.41752 1.2742327 2.3509695e-38
-2.4303777 -2.415417 1.2282083 2.3509696e-38
-2.4289668 -2.4138865 1.1954997 2.3509696e-38
-2.4285069 -2.4134192 1.1855267 2.3509698e-38
-2.4255812 -2.4123187 1.1629491 2.3509698e-38
-2.4216259 -2.4107401 1.1304442 2.3509699e-38
-2.4205554 -2.4086118 1.0845236 2.3509701e-38
-2.4212317 -2.4070895 1.0509489 2.3509701e-38
-2.4195864 -2.4062493 1.0334291 2.3509702e-38
-2.4171753 -2.4046967 1.0007303 2.3509702e-38
-2.4163237 -2.4025228 0.95369363 2.3509703e-38
-2.4087725 -2.4014916 0.93493593 2.3509703e-38
-2.4096591 -2.3993833 0.88846684 2.3509705e-38
-2.4123871 -2.3978622 0.8539151 2.3509705e-38
-2.4080553 -2.3964164 0.82449651 2.3509706e-38
-2.4099488 -2.3958452 0.81108737 2.3509708e-38
-2.4000547 -2.3940432 0.77666277 2.3509708e-38
-2.4009757 -2.3925996 0.74469107 2.3509709e-38
-2.4044785 -2.390559 0.69840437 2.3509709e-38
-2.4006863 -2.3896389 0.68019909 2.350971e-38
-2.3986564 -2.3874412 0.63322747 2.350971e-38
-2.3959255 -2.3858855 0.6006245 2.3509712e-38
-2.3934982 -2.3837399 0.55498892 2.3509712e-38
-2.3931985 -2.3822227 0.52201498 2.3509713e-38
-2.3902135 -2.3806622 0.48943239 2.3509715e-38
-2.3875964 -2.3791089 0.45682037 2.3509715e-38
-2.3865306 -2.3769808 0.41089559 2.3509716e-38
-2.3842154 -2.3752961 0.37526634 2.3509716e-38
-2.3775618 -2.3738029 0.3459743 2.3509717e-38
-2.3818653 -2.3718071 0.30026931 2.3509717e-38
-2.3787961 -2.3702157 0.26704663 2.3509719e-38
-2.377466 -2.3685918 0.2322602 2.3509719e-38
-2.3705451 -2.3661518 0.18242845 2.350972e-38
-2.3747821 -2.3656287 0.16890448 2.3509722e-38
-2.3654273 -2.3638539 0.13481158 2.3509722e-38
-2.3670197 -2.3624594 0.10357196 2.3509723e-38
-2.3652213 -2.3609354 0.071205303 2.3509723e-38
-2.3657551 -2.3594825 0.03921368 2.3509724e-38
-2.3649039 -2.3580065 0.0074187517 2.3509724e-38
-2.3590078 -2.356307 -0.026761808 2.3509726e-38
-2.3567879 -2.355587 -0.04137855 2.3509726e-38
-2.3570509 -2.3548224 -0.05819786 2.3509727e-38
-2.3556225 -2.3538392 -0.07894896 2.3509729e-38
-2.3537524 -2.351614 -0.12659454 2.3509729e-38
-2.3546309 -2.3504465 -0.15252855 2.350973e-38
-2.3548458 -2.3489575 -0.18513413 2.350973e-38
-2.3514533 -2.3473954 -0.21755219 2.3509731e-38
-2.3482044 -2.3457246 -0.25240946 2.3509731e-38
-2.3492079 -2.344646 -0.27645698 2.3509733e-38
-2.3450232 -2.3432851 -0.30408084 2.3509733e-38
-2.3470113 -2.3419139 -0.33500564 2.3509734e-38
-2.3376412 -2.3402405 -0.36689013 2.3509736e-38
-2.3353932 -2.3388746 -0.39558768 2.3509736e-38
-2.3355825 -2.3387177 -0.39910793 2.3509737e-38
-2.3381529 -2.3375351 -0.42619902 2.3509737e-38
-2.3353181 -2.3363943 -0.44970074 2.3509738e-38
-2.3350873 -2.3350976 -0.47789612 2.3509738e-38
-2.3353589 -2.3344119 -0.49299613 2.350974e-38
-2.3374915 -2.3324316 -0.53728127 2.350974e-38
-2.3323848 -2.33144 -0.55640167 2.3509741e-38
-2.3315604 -2.3308132 -0.56966871 2.3509743e-38
-2.3284321 -2.3292258 -0.60277814 2.3509743e-38
-2.3276894 -2.3283308 -0.62194347 2.3509744e-38
-2.3258302 -2.3276927 -0.63495344 2.3509744e-38
-2.3253121 -2.3269136 -0.65170372 2.3509745e-38
-2.3277431 -2.3254714 -0.68438852 2.3509745e-38
-2.3222077 -2.3231192 -0.73298937 2.3509747e-38
-2.3171859 -2.3215203 -0.76540643 2.3509747e-38
-2.3217475 -2.3201039 -0.79859132 2.3509748e-38
-2.3082166 -2.3182409 -0.83254069 2.3509748e-38
-2.3109245 -2.3154163 -0.89554876 2.350975e-38
-2.3124728 -2.3148124 -0.9095006 2.3509751e-38
-2.3074245 -2.3132131 -0.94191569 2.3509751e-38
-2.3065424 -2.3116922 -0.97466886 2.3509752e-38
-2.3108099 -2.3095605 -1.023327 2.3509752e-38
-2.2976944 -2.3090122 -1.0287874 2.3509754e-38
-2.2671444 -2.3079722 -1.0363079 2.3509754e-38
-2.2493885 -2.3074241 -1.0394579 2.3509755e-38
-2.1981988 -2.3060522 -1.0439829 2.3509755e-38
-2.1509783 -2.3049827 -1.0438861 2.3509757e-38
-2.0857115 -2.3039436 -1.0341331 2.3509758e-38
-2.0716734 -2.3033805 -1.0394627 2.3509758e-38
-2.0580728 -2.302825 -1.0448279 2.3509759e-38
-1.9861865 -2.3014669 -1.0387751 2.3509759e-38
-1.9709418 -2.3009038 -1.0434885 2.3509761e-38
-1.933313 -2.3001873 -1.0404512 2.3509761e-38
-1.9013999 -2.2996047 -1.0373145 2.3509762e-38
-1.8819926 -2.2989128 -1.0427864 2.3509762e-38
-1.8478818 -2.298346 -1.0382041 2.3509764e-38
-1.7812731 -2.297941 -1.0139732 2.3509765e-38
-1.7758455 -2.2984412 -1.000355 2.3509765e-38
-1.6427635 -2.294745 -1.0149498 2.3509767e-38
-1.5835989 -2.2924378 -1.0359234 2.3509767e-38
-1.5674396 -2.2918296 -1.0411812 2.3509768e-38
-1.5326517 -2.2911193 -1.0394064 2.3509768e-38
-1.476233 -2.2898188 -1.0397764 2.3509769e-38
-1.4430084 -2.2891977 -1.0368311 2.3509769e-38
-1.3938407 -2.2879765 -1.0390695 2.3509771e-38
-1.3515632 -2.2862828 -1.0550411 2.3509772e-38
-1.3161666 -2.2862241 -1.0387422 2.3509772e-38
-1.284037 -2.2856085 -1.0362216 2.3509774e-38
-1.242304 -2.2848001 -1.0331408 2.3509774e-38
-1.1801035 -2.2824707 -1.0530987 2.3509775e-38
-1.137208 -2.2822106 -1.0374639 2.3509775e-38
-1.0880036 -2.2810471 -1.0384332 2.3509776e-38
-1.0527053 -2.280386 -1.0353272 2.3509776e-38
-1.0009902 -2.2791097 -1.037508 2.3509778e-38
-0.95580876 -2.2782674 -1.0334628 2.3509779e-38
-0.90421772 -2.2770014 -1.0354617 2.3509779e-38
-0.8686946 -2.2763319 -1.0324391 2.3509781e-38
-0.83227926 -2.2756348 -1.0295695 2.3509781e-38
-0.81651187 -2.2750559 -1.0343755 2.3509782e-38
-0.78043038 -2.27438 -1.0312068 2.3509782e-38
-0.69178545 -2.2724183 -1.0300026 2.3509783e-38
-0.67317533 -2.2721162 -1.0273577 2.3509783e-38
-0.6411829 -2.2711699 -1.0321239 2.3509785e-38
-0.59827697 -2.2700949 -1.034283 2.3509786e-38
-0.5640105 -2.2694271 -1.0318375 2.3509786e-38
-0.52853143 -2.2688069 -1.0277555 2.3509788e-38
-0.50771523 -2.2680843 -1.0331929 2.3509788e-38
-0.47277322 -2.2674153 -1.0304331 2.3509789e-38
-0.45732278 -2.2675169 -1.0205578 2.3509789e-38
-0.44974369 -2.2679281 -1.0078113 2.350979e-38
-0.45632404 -2.2689514 -0.98874551 2.350979e-38
-0.45820689 -2.2704928 -0.95602691 2.3509792e-38
-0.46562141 -2.2720983 -0.9246558 2.3509793e-38
-0.46523622 -2.2736163 -0.89132124 2.3509793e-38
-0.46345779 -2.2756329 -0.84641385 2.3509795e-38
-0.46745762 -2.2772474 -0.81315362 2.3509795e-38
-0.46931803 -2.2788827 -0.77838922 2.3509796e-38
-0.47244424 -2.2803195 -0.74857432 2.3509796e-38
-0.47274426 -2.2818587 -0.71511209 2.3509797e-38
-0.47202966 -2.2833388 -0.6824494 2.3509797e-38
-0.47188425 -2.2839501 -0.66903698 2.3509799e-38
-0.46789229 -2.2859812 -0.62271142 2.35098e-38
-0.45173305 -2.2874775 -0.58201867 2.35098e-38
-0.45605966 -2.2884102 -0.56379825 2.3509802e-38
-0.45623508 -2.2890384 -0.55016959 2.3509802e-38
-0.45978454 -2.290041 -0.53004998 2.3509803e-38
-0.46245593 -2.2922251 -0.48370159 2.3509803e-38
-0.46295905 -2.2924454 -0.47914183 2.3509804e-38
-0.46035948 -2.293663 -0.45126835 2.3509804e-38
-0.46186122 -2.2951951 -0.41856709 2.3509806e-38
-0.45821467 -2.2957294 -0.40509042 2.3509807e-38
-0.46655625 -2.296844 -0.38490421 2.3509807e-38
-0.47138694 -2.2985241 -0.35061395 2.3509809e-38
-0.46322528 -2.3003283 -0.30718464 2.3509809e-38
-0.48046479 -2.3030667 -0.25596288 2.350981e-38
-0.47467962 -2.3050644 -0.2094793 2.350981e-38
-0.47083792 -2.3056469 -0.19485509 2.3509811e-38
-0.46563035 -2.3060999 -0.18238544 2.3509811e-38
-0.46261394 -2.308193 -0.13519336 2.3509813e-38
-0.46798366 -2.3091578 -0.11680159 2.3509814e-38
-0.47105882 -2.310684 -0.085001841 2.3509814e-38
-0.47251654 -2.3122621 -0.051277399 2.3509816e-38
-0.46870264 -2.3142202 -0.0066258311 2.3509816e-38
-0.46783561 -2.3149107 0.0088671222 2.3509817e-38
-0.4719488 -2.3164432 0.040282048 2.3509817e-38
-0.46922171 -2.3179004 0.073446937 2.3509818e-38
-0.46781313 -2.3199234 0.11830928 2.3509818e-38
-0.4675726 -2.3214643 0.15207297 2.350982e-38
-0.46480247 -2.3220308 0.16581318 2.350982e-38
-0.45592472 -2.3245664 0.22557941 2.3509821e-38
-0.46447822 -2.3271723 0.27821755 2.3509823e-38
-0.46552718 -2.3292804 0.32371628 2.3509823e-38
-0.47112498 -2.3317084 0.37394589 2.3509824e-38
-0.46968791 -2.3330252 0.40341049 2.3509824e-38
-0.47045341 -2.3345139 0.43553066 2.3509825e-38
-0.47395483 -2.3360929 0.46825469 2.3509825e-38
-0.47416076 -2.3375528 0.50002396 2.3509827e-38
-0.4742803 -2.3391278 0.53433931 2.3509827e-38
-0.47785327 -2.3406296 0.56535923 2.3509828e-38
-0.47540691 -2.3426905 0.61156124 2.350983e-38
-0.47748277 -2.3441701 0.64283127 2.350983e-38
-0.47601101 -2.3463128 0.6903407 2.3509831e-38
-0.47828114 -2.3478599 0.7229805 2.3509831e-38
-0.47612637 -2.349926 0.76915926 2.3509832e-38
-0.47897905 -2.351532 0.80279768 2.3509832e-38
-0.47514659 -2.3535342 0.84841436 2.3509834e-38
-0.47270039 -2.3541329 0.86270219 2.3509834e-38
-0.46929729 -2.355514 0.89453954 2.3509835e-38
-0.46580169 -2.356051 0.90800428 2.3509837e-38
-0.45621613 -2.3585792 0.96796238 2.3509837e-38
-0.46104029 -2.3602414 1.0018498 2.3509838e-38
-0.4635365 -2.3617964 1.0345476 2.3509838e-38
-0.44704241 -2.3641517 1.094159 2.3509839e-38
-0.44100714 -2.3646901 1.1089109 2.3509839e-38
-0.43101299 -2.3658965 1.1402154 2.3509841e-38
-0.43144679 -2.367218 1.1688439 2.3509841e-38
-0.42891961 -2.3697848 1.2261375 2.3509842e-38
-0.42330241 -2.3703001 1.2401822 2.3509844e-38
-0.41325587 -2.3707361 1.2546829 2.3509844e-38
-0.41931641 -2.3723316 1.2865075 2.3509845e-38
-0.41470295 -2.3743577 1.3330277 2.3509845e-38
-0.40753669 -2.3750904 1.3525747 2.3509846e-38
-0.41865969 -2.3774586 1.3987584 2.3509846e-38
-0.41786 -2.3795106 1.4439461 2.3509848e-38
-0.41308868 -2.3800597 1.4583061 2.3509848e-38
-0.42546332 -2.3820372 1.4953386 2.3509849e-38
-0.42606026 -2.3825638 1.5065324 2.3509851e-38
-0.43398067 -2.384728 1.5498538 2.3509851e-38
-0.4531056 -2.3831873 1.5067167 2.3509852e-38
-0.47488478 -2.3827016 1.4852941 2.3509852e-38
-0.4677743 -2.3816237 1.4652946 2.3509853e-38
-0.42921162 -2.377991 1.4051363 2.3509853e-38
-0.42987722 -2.3773906 1.3916991 2.3509855e-38
-0.4276008 -2.3757896 1.3578846 2.3509855e-38
-0.42439917 -2.3742723 1.3263534 2.3509856e-38
-0.47666982 -2.371897 1.2485336 2.3509858e-38
-0.48381865 -2.3714609 1.2354575 2.3509858e-38
-0.48332906 -2.3707073 1.2192508 2.3509859e-38
-0.47900045 -2.3700011 1.2059851 2.3509859e-38
-0.47182244 -2.3672662 1.149841 2.350986e-38
-0.48211196 -2.3662822 1.1232642 2.350986e-38
-0.48412797 -2.3647301 1.0883715 2.3509862e-38
-0.4843792 -2.3642185 1.0770764 2.3509862e-38
-0.48573279 -2.3621371 1.0309618 2.3509863e-38
-0.48362726 -2.3605933 0.99830878 2.3509865e-38
-0.48116824 -2.3590429 0.96568418 2.3509865e-38
-0.48403811 -2.3576446 0.93373013 2.3509866e-38
-0.48607385 -2.3570275 0.91924167 2.3509866e-38
-0.48772463 -2.3549185 0.87239552 2.3509867e-38
-0.4937014 -2.3544853 0.85995859 2.3509867e-38
-0.48773083 -2.3534498 0.84032506 2.3509869e-38
-0.4856059 -2.3524647 0.81986934 2.3509869e-38
-0.49002331 -2.3513863 0.79413539 2.350987e-38
-0.49383619 -2.3508549 0.78064531 2.3509872e-38
-0.49137178 -2.3493044 0.74802107 2.3509872e-38
-0.49333414 -2.3472345 0.70185781 2.3509873e-38
-0.49312222 -2.3457065 0.66859841 2.3509873e-38
-0.48948014 -2.3448083 0.65080512 2.3509874e-38
-0.48793235 -2.3441741 0.63773292 2.3509874e-38
-0.48603436 -2.3432288 0.61804253 2.3509876e-38
-0.48726058 -2.3426931 0.60572964 2.3509876e-38
-0.48825392 -2.3405197 0.55779368 2.3509877e-38
-0.4929955 -2.3385837 0.5131678 2.3509879e-38
-0.4947353 -2.3380013 0.49958801 2.3509879e-38
-0.49629053 -2.3364582 0.46513802 2.350988e-38
-0.4853842 -2.3338695 0.41403919 2.350988e-38
-1.3287426 -2.4025939 1.4954457 2.3509881e-38
-1.2925204 -2.4019902 1.5002593 2.3509881e-38
-1.3043123 -2.4024174 1.5037285 2.3509883e-38
-1.3113716 -2.4025502 1.5031178 2.3509883e-38
-1.3338596 -2.4028714 1.4989663 2.3509884e-38
