# .PCD v0.7 - Point Cloud Data file format
VERSION 0.7
FIELDS x y z rgb
SIZE 4 4 4 4
TYPE F F F F
COUNT 1 1 1 1
WIDTH 124
HEIGHT 1
VIEWPOINT 0 0 0 1 0 0 0
POINTS 124
DATA ascii
-0.19438457 2.5680037 0.087003604 2.3509528e-38
-0.16667295 2.5505526 0.073728934 2.3509531e-38
-0.1548624 2.5436592 0.074515298 2.3509534e-38
-0.14848721 2.5412111 0.090008572 2.3509537e-38
-0.14341605 2.5406296 0.11850365 2.3509539e-38
-0.14035642 2.540684 0.14049359 2.3509542e-38
-0.12258482 2.533633 0.18100096 2.3509545e-38
-0.11435413 2.5300913 0.19649251 2.3509548e-38
-0.102597 2.5256114 0.22547549 2.3509551e-38
-0.098886609 2.5245185 0.23842658 2.3509554e-38
-0.096247077 2.5241413 0.25237763 2.3509556e-38
-0.094117403 2.5240312 0.26593143 2.3509559e-38
-0.084817767 2.5208812 0.2935116 2.3509562e-38
-0.081540823 2.5201254 0.30742866 2.3509565e-38
-0.076336145 2.5209434 0.35342693 2.3509568e-38
-0.078680634 2.5250566 0.38576734 2.350957e-38
-0.082517624 2.5288644 0.40408233 2.3509573e-38
-0.084039569 2.533602 0.44955242 2.3509576e-38
-0.080113411 2.5326123 0.46522784 2.350958e-38
-0.080178022 2.5352869 0.49644089 2.3509583e-38
-0.084693193 2.5407014 0.52904087 2.3509586e-38
-0.080239773 2.5404389 0.55700254 2.3509589e-38
-0.083723664 2.5467563 0.60749435 2.3509591e-38
-0.082088709 2.546977 0.6215111 2.3509594e-38
-0.085618258 2.5519009 0.65518987 2.3509597e-38
-0.088899374 2.5552011 0.67136496 2.35096e-38
-0.087298989 2.5567055 0.70033956 2.3509603e-38
-0.089700341 2.55966 0.71856761 2.3509605e-38
-0.090713859 2.5629821 0.75082731 2.3509608e-38
-0.089782476 2.5636203 0.76488662 2.3509611e-38
-0.088302135 2.5639334 0.77891278 2.3509614e-38
-0.082711697 2.562995 0.80680537 2.3509617e-38
-0.081929088 2.565249 0.838956 2.3509619e-38
-0.077898979 2.56708 0.8887471 2.3509622e-38
-0.14233696 2.6060138 0.90013695 2.3509625e-38
-0.16224384 2.6190066 0.91507721 2.3509628e-38
-0.17753041 2.6292305 0.92947173 2.3509632e-38
-0.19880247 2.643168 0.94607306 2.3509635e-38
-0.19216371 2.6360254 0.90783024 2.3509638e-38
-0.19956243 2.6377034 0.87607718 2.350964e-38
-0.20331228 2.6360207 0.82999051 2.3509643e-38
-0.20858049 2.6381309 0.81822163 2.3509646e-38
-0.20797276 2.6348786 0.78395939 2.3509649e-38
-0.21153152 2.6346097 0.75594348 2.3509652e-38
-0.21912587 2.6351533 0.70939845 2.3509654e-38
-0.21695817 2.632731 0.69584268 2.3509657e-38
-0.21695387 2.6311307 0.67692518 2.350966e-38
-0.21938813 2.6311972 0.66073024 2.3509663e-38
-0.21978939 2.6289093 0.630844 2.3509666e-38
-0.21908319 2.6259415 0.60063362 2.3509668e-38
-0.22243178 2.6265702 0.58471376 2.3509671e-38
-0.22079146 2.6229386 0.55316687 2.3509674e-38
-0.22325838 2.6232128 0.53920054 2.3509677e-38
-0.22008717 2.6186085 0.50680995 2.350968e-38
-0.22601306 2.6170266 0.44673955 2.3509684e-38
-0.2254492 2.6139719 0.41450721 2.3509687e-38
-0.22781336 2.6141846 0.40053472 2.3509689e-38
-0.22916067 2.6135395 0.3834905 2.3509692e-38
-0.23133838 2.6135609 0.36855054 2.3509695e-38
-0.23886168 2.615598 0.34018135 2.3509698e-38
-0.23369646 2.6119881 0.33348262 2.3509701e-38
-0.28535688 2.6320319 0.21037002 2.3509703e-38
-0.29612696 2.6371806 0.19618662 2.3509706e-38
-0.32126224 2.6503198 0.17638518 2.3509709e-38
-0.33541918 2.6563501 0.1490124 2.3509712e-38
-0.33860004 2.6570487 0.13508959 2.3509715e-38
-0.32281339 2.6461484 0.11617668 2.3509717e-38
-0.31504428 2.6403608 0.10185964 2.350972e-38
-0.30567539 2.6343288 0.095806733 2.3509723e-38
-0.29621077 2.6292577 0.10179944 2.3509726e-38
-0.20361507 2.5747662 0.10266645 2.3509729e-38
-0.12509882 2.4408066 -0.93554145 2.3509733e-38
-0.11838007 2.4367371 -0.93685085 2.3509736e-38
-0.10690057 2.4295983 -0.94127691 2.3509738e-38
-0.098787665 2.4244204 -0.94597256 2.3509741e-38
-0.093433619 2.4224305 -0.93218142 2.3509744e-38
-0.088568687 2.4207311 -0.91836077 2.3509747e-38
-0.082326889 2.42085 -0.87340212 2.350975e-38
-0.079208612 2.4241836 -0.81218463 2.3509752e-38
-0.070460796 2.4240041 -0.75327754 2.3509755e-38
-0.070550323 2.4268014 -0.72078818 2.3509758e-38
-0.067331195 2.4261055 -0.70656496 2.3509761e-38
-0.067573309 2.4289281 -0.67484069 2.3509764e-38
-0.064549446 2.4295902 -0.64590013 2.3509767e-38
-0.069851279 2.434269 -0.62749612 2.3509769e-38
-0.072082639 2.4395666 -0.58033931 2.3509772e-38
-0.072588682 2.4424443 -0.54980356 2.3509775e-38
-0.069988608 2.4421501 -0.53514564 2.3509778e-38
-0.077121615 2.4479413 -0.51634431 2.3509781e-38
-0.08050108 2.4526696 -0.48394105 2.3509785e-38
-0.079350591 2.4531784 -0.46989483 2.3509788e-38
-0.090367436 2.461544 -0.44771498 2.350979e-38
-0.10681224 2.4743428 -0.41091478 2.3509793e-38
-0.10914838 2.4773672 -0.39140719 2.3509796e-38
-0.12733293 2.4912326 -0.35411325 2.3509799e-38
-0.14695966 2.5048096 -0.33030361 2.3509802e-38
-0.1570164 2.5122321 -0.3125909 2.3509804e-38
-0.17532551 2.5207305 -0.33971143 2.3509807e-38
-0.20393312 2.5345545 -0.37562943 2.350981e-38
-0.20481169 2.534714 -0.37987101 2.3509813e-38
-0.20374703 2.5330424 -0.39223289 2.3509816e-38
-0.19361711 2.525321 -0.41297674 2.3509818e-38
-0.18185508 2.5155594 -0.44648713 2.3509821e-38
-0.17740262 2.5105455 -0.47478551 2.3509824e-38
-0.16360021 2.4996512 -0.50746763 2.3509827e-38
-0.15298975 2.4904451 -0.54244 2.350983e-38
-0.15034246 2.4873149 -0.5610289 2.3509832e-38
-0.14442492 2.4814053 -0.58971292 2.3509837e-38
-0.14459491 2.4801602 -0.60563409 2.3509839e-38
-0.13467741 2.471597 -0.63782918 2.3509842e-38
-0.13357639 2.4696753 -0.65289569 2.3509845e-38
-0.13747334 2.469348 -0.68396258 2.3509848e-38
-0.12825739 2.4598851 -0.7317 2.3509851e-38
-0.13066947 2.4600964 -0.74602246 2.3509853e-38
-0.13074148 2.4590983 -0.75834417 2.3509856e-38
-0.13100779 2.4572904 -0.78160793 2.3509859e-38
-0.12999296 2.4555924 -0.79463196 2.3509862e-38
-0.13085902 2.4545014 -0.81359053 2.3509865e-38
-0.14522517 2.4594779 -0.85490119 2.3509867e-38
-0.144418 2.4577789 -0.86938369 2.350987e-38
-0.1447674 2.4564705 -0.88731241 2.3509873e-38
-0.14671099 2.4561148 -0.90508032 2.3509876e-38
-0.14623272 2.4547122 -0.91835225 2.3509879e-38
-0.13681924 2.4478307 -0.93414557 2.3509881e-38
