# .PCD v0.7 - Point Cloud Data file format
VERSION 0.7
FIELDS x y z rgb
SIZE 4 4 4 4
TYPE F F F F
COUNT 1 1 1 1
WIDTH 111
HEIGHT 1
VIEWPOINT 0 0 0 1 0 0 0
POINTS 111
DATA ascii
-1.7641822 2.7170391 0.10277782 2.3509528e-38
-1.7599571 2.728853 0.0867607 2.3509531e-38
-1.7587878 2.7269573 0.069851905 2.3509534e-38
-1.7568088 2.7165122 0.023758516 2.3509537e-38
-1.7565964 2.7044649 -0.0075783283 2.3509541e-38
-1.7554744 2.7034886 -0.021766916 2.3509544e-38
-1.751995 2.7049234 -0.054989144 2.3509547e-38
-1.7504724 2.7050133 -0.070824549 2.3509551e-38
-1.7497613 2.7023911 -0.084658802 2.3509554e-38
-1.7442136 2.7011476 -0.14615941 2.3509556e-38
-1.7408812 2.7016368 -0.1801116 2.3509559e-38
-1.7333717 2.7202303 -0.21438019 2.3509563e-38
-1.7320071 2.7200561 -0.22919142 2.3509566e-38
-1.7270646 2.7264123 -0.26594985 2.3509569e-38
-1.7251791 2.724025 -0.29160014 2.3509573e-38
-1.7242645 2.72119 -0.30808914 2.3509576e-38
-1.7230606 2.7198238 -0.3240822 2.3509579e-38
-1.7212272 2.7206044 -0.3415325 2.3509583e-38
-1.7200606 2.7198904 -0.35555643 2.3509586e-38
-1.7170396 2.7173388 -0.39357227 2.3509589e-38
-1.7157888 2.7114289 -0.42103255 2.3509591e-38
-1.7150699 2.7025559 -0.45004785 2.3509596e-38
-1.7151771 2.6723268 -0.52193308 2.3509598e-38
-1.7145193 2.6699414 -0.53462803 2.3509601e-38
-1.7132068 2.6512587 -0.59359539 2.3509605e-38
-1.7129076 2.6220601 -0.66727614 2.3509608e-38
-1.7113622 2.6220014 -0.68371189 2.3509611e-38
-1.7113459 2.6093581 -0.71442199 2.3509615e-38
-1.707938 2.6111889 -0.74593437 2.3509618e-38
-1.7075193 2.6067877 -0.76098132 2.3509621e-38
-1.7016029 2.6124682 -0.80964255 2.3509624e-38
-1.6967224 2.6133001 -0.85909075 2.3509628e-38
-1.6992351 2.5966339 -0.8728565 2.3509631e-38
-1.7008655 2.5788164 -0.8986994 2.3509633e-38
-1.7067857 2.5435896 -0.92136115 2.3509638e-38
-1.7149214 2.4986572 -0.94410807 2.350964e-38
-1.7224941 2.456327 -0.9665072 2.3509643e-38
-1.7240015 2.4385748 -0.99348927 2.3509647e-38
-1.7256123 2.420465 -1.0202507 2.350965e-38
-1.7327325 2.388819 -1.0216098 2.3509653e-38
-1.7352991 2.3791196 -1.0179753 2.3509656e-38
-1.7456274 2.3401113 -1.003297 2.350966e-38
-1.7495635 2.3248379 -0.99868858 2.3509663e-38
-1.7631663 2.2702131 -0.9871974 2.3509666e-38
-1.7639453 2.2804189 -0.95433319 2.350967e-38
-1.7672989 2.2791059 -0.92214054 2.3509673e-38
-1.7674332 2.2895834 -0.89541918 2.3509675e-38
-1.7761357 2.2920985 -0.79758477 2.3509678e-38
-1.7766474 2.2953401 -0.78436184 2.3509682e-38
-1.7807517 2.2921562 -0.74877548 2.3509685e-38
-1.7822332 2.2927098 -0.73181498 2.3509688e-38
-1.7834337 2.292815 -0.7189033 2.3509692e-38
-1.7849708 2.3051319 -0.67294693 2.3509695e-38
-1.7812502 2.3339798 -0.64249337 2.3509698e-38
-1.7811493 2.3418715 -0.62449944 2.3509702e-38
-1.7817743 2.3453889 -0.60941505 2.3509705e-38
-1.7851638 2.3440118 -0.57700181 2.3509708e-38
-1.7860364 2.3462315 -0.56243885 2.350971e-38
-1.7865252 2.3704581 -0.49877074 2.3509715e-38
-1.7939316 2.3618171 -0.44154376 2.3509717e-38
-1.7907737 2.3852043 -0.41835415 2.350972e-38
-1.7922971 2.397886 -0.37166053 2.3509724e-38
-1.795236 2.3933892 -0.35153493 2.3509727e-38
-1.7964913 2.3937564 -0.33740991 2.350973e-38
-1.8064454 2.3771861 -0.27248022 2.3509734e-38
-1.8015393 2.4131882 -0.23724473 2.3509737e-38
-1.801912 2.4244745 -0.20606002 2.350974e-38
-1.805202 2.4241786 -0.17208149 2.3509743e-38
-1.8065162 2.4245825 -0.15725024 2.3509747e-38
-1.8131335 2.4268937 -0.081897348 2.350975e-38
-1.8138586 2.4271951 -0.07352367 2.3509752e-38
-1.8175538 2.4276595 -0.033437207 2.3509757e-38
-1.8205487 2.4268298 -0.0038662553 2.3509759e-38
-1.827456 2.4152746 0.041056857 2.3509762e-38
-1.8320781 2.4153779 0.090039402 2.3509767e-38
-1.8321049 2.4276428 0.11995223 2.3509769e-38
-1.8331478 2.4289408 0.13408019 2.3509772e-38
-1.8360521 2.4290988 0.16508551 2.3509775e-38
-1.8376939 2.4416161 0.21262966 2.3509779e-38
-1.8262987 2.5192854 0.28008097 2.3509782e-38
-1.8290352 2.5189059 0.30801767 2.3509785e-38
-1.8302021 2.5211966 0.32585174 2.3509789e-38
-1.8312128 2.52281 0.34040892 2.3509792e-38
-1.8339783 2.5196414 0.36191517 2.3509795e-38
-1.8350756 2.5196242 0.37344307 2.3509797e-38
-1.8365122 2.5328541 0.42054588 2.3509802e-38
-1.8374093 2.5351124 0.43545955 2.3509804e-38
-1.8384837 2.5362511 0.44953835 2.3509807e-38
-1.8419925 2.5423102 0.50117058 2.3509811e-38
-1.8476396 2.5305076 0.53220576 2.3509814e-38
-1.8388369 2.5657454 0.52450562 2.3509817e-38
-1.8365591 2.5762143 0.52577132 2.3509821e-38
-1.8346846 2.5750816 0.50327432 2.3509824e-38
-1.833614 2.5760946 0.49443036 2.3509827e-38
-1.832782 2.5738788 0.4803049 2.350983e-38
-1.8311069 2.5739927 0.46291572 2.3509834e-38
-1.829815 2.573833 0.44891113 2.3509837e-38
-1.8286026 2.5728979 0.43386751 2.3509839e-38
-1.8272762 2.57198 0.41766626 2.3509844e-38
-1.8257072 2.5726113 0.40264636 2.3509846e-38
-1.8235723 2.5747957 0.38541281 2.3509849e-38
-1.8180077 2.5866091 0.35527313 2.3509853e-38
-1.8173673 2.5838771 0.34192032 2.3509856e-38
-1.8159575 2.583149 0.3252961 2.3509859e-38
-1.8126905 2.5582318 0.23066923 2.3509862e-38
-1.8059433 2.5737743 0.19706474 2.3509866e-38
-1.7909614 2.6199296 0.15057722 2.3509869e-38
-1.7872013 2.6351361 0.14766265 2.3509872e-38
-1.7839115 2.6492622 0.14709397 2.3509876e-38
-1.7812852 2.6609037 0.14751929 2.3509879e-38
-1.7721634 2.6921196 0.12674047 2.3509881e-38
