# .PCD v0.7 - Point Cloud Data file format
VERSION 0.7
FIELDS x y z rgb
SIZE 4 4 4 4
TYPE F F F F
COUNT 1 1 1 1
WIDTH 294
HEIGHT 1
VIEWPOINT 0 0 0 1 0 0 0
POINTS 294
DATA ascii
-2.238735 2.2327664 -1.0687281 2.3509528e-38
-2.2241929 2.2335722 -1.0748641 2.3509528e-38
-2.1916859 2.2364802 -1.0697131 2.350953e-38
-2.1431284 2.2402468 -1.0718732 2.3509531e-38
-2.0926425 2.2441905 -1.0736365 2.3509532e-38
-2.054502 2.2473783 -1.0714238 2.3509534e-38
-2.0172265 2.2505355 -1.0685428 2.3509535e-38
-2.001796 2.2516224 -1.071105 2.3509537e-38
-1.9651165 2.2546177 -1.0701721 2.3509537e-38
-1.9174122 2.2583032 -1.0725436 2.3509538e-38
-1.8728263 2.2619805 -1.070786 2.3509539e-38
-1.8580177 2.2637117 -1.0615128 2.3509541e-38
-1.7465214 2.27316 -1.0528196 2.3509542e-38
-1.7300829 2.2741575 -1.0582855 2.3509544e-38
-1.7218268 2.2745838 -1.062301 2.3509545e-38
-1.7076385 2.276217 -1.0538446 2.3509547e-38
-1.7007737 2.2775974 -1.0396919 2.3509547e-38
-1.7028874 2.2793016 -1.007749 2.3509548e-38
-1.7038206 2.2801845 -0.99141228 2.3509549e-38
-1.7007965 2.2822092 -0.96102035 2.3509551e-38
-1.7019868 2.2838707 -0.9310571 2.3509552e-38
-1.6994504 2.2849989 -0.91529578 2.3509554e-38
-1.7028626 2.2855115 -0.90188336 2.3509555e-38
-1.7005591 2.2877715 -0.8664968 2.3509555e-38
-1.702896 2.2893202 -0.83689022 2.3509556e-38
-1.7035232 2.289819 -0.82753038 2.3509558e-38
-1.7096105 2.2907889 -0.80266881 2.3509559e-38
-1.7100842 2.2934361 -0.75687981 2.3509561e-38
-1.7151568 2.2949774 -0.72366285 2.3509562e-38
-1.7173762 2.2975104 -0.67743456 2.3509563e-38
-1.7180531 2.2993338 -0.64540762 2.3509565e-38
-1.7161281 2.3013463 -0.61372429 2.3509565e-38
-1.7212991 2.3036959 -0.56658858 2.3509566e-38
-1.7170221 2.3048501 -0.55275691 2.3509568e-38
-1.7181058 2.305476 -0.54060483 2.3509569e-38
-1.7167708 2.3066478 -0.52244681 2.350957e-38
-1.7194355 2.3073883 -0.50617594 2.3509572e-38
-1.7214574 2.3100371 -0.458242 2.3509573e-38
-1.7204909 2.3109744 -0.44358313 2.3509573e-38
-1.722037 2.3117197 -0.42876238 2.3509575e-38
-1.7229885 2.3154564 -0.36374378 2.3509576e-38
-1.7199523 2.3166502 -0.34753522 2.3509577e-38
-1.719192 2.3174198 -0.33545068 2.3509579e-38
-1.7173595 2.3202677 -0.28938463 2.350958e-38
-1.7149477 2.3213675 -0.27393609 2.3509582e-38
-1.7180455 2.3220465 -0.25812012 2.3509583e-38
-1.7210438 2.3225996 -0.24458817 2.3509583e-38
-1.7268752 2.3234217 -0.22259885 2.3509584e-38
-1.7299494 2.3250818 -0.19008578 2.3509586e-38
-1.729031 2.3259397 -0.17671624 2.3509587e-38
-1.7315881 2.3276021 -0.14486811 2.3509589e-38
-1.7359499 2.3291767 -0.1120527 2.350959e-38
-1.7345459 2.3300505 -0.099074811 2.3509591e-38
-1.7358332 2.3319159 -0.065509766 2.3509591e-38
-1.7315661 2.3330736 -0.051594809 2.3509593e-38
-1.7264034 2.3342643 -0.038351677 2.3509594e-38
-1.7268512 2.3361082 -0.0062984973 2.3509596e-38
-1.7243201 2.3371677 0.0083133131 2.3509597e-38
-1.722546 2.3400333 0.054753587 2.3509598e-38
-1.7334174 2.3402565 0.073421523 2.35096e-38
-1.735988 2.34272 0.11894344 2.3509601e-38
-1.7495685 2.3447227 0.17165723 2.3509601e-38
-1.7510078 2.3464918 0.20379649 2.3509603e-38
-1.7577935 2.3479686 0.23825552 2.3509604e-38
-1.7809823 2.3483109 0.27579698 2.3509605e-38
-1.7954919 2.3520079 0.35867316 2.3509607e-38
-1.7951751 2.3547523 0.40503135 2.3509608e-38
-1.8005688 2.3562403 0.43777815 2.350961e-38
-1.819185 2.3569593 0.47549689 2.350961e-38
-1.8172539 2.3598185 0.52160704 2.3509611e-38
-1.8120855 2.3610358 0.5353018 2.3509612e-38
-1.8012239 2.363508 0.56261063 2.3509614e-38
-1.8021177 2.3661661 0.60915482 2.3509615e-38
-1.7977093 2.3673291 0.62296641 2.3509617e-38
-1.7922195 2.3685694 0.6366117 2.3509618e-38
-1.7951299 2.3702345 0.66897702 2.3509619e-38
-1.8186461 2.3697555 0.69295967 2.3509619e-38
-1.8310727 2.3718719 0.74603951 2.3509621e-38
-1.8342648 2.3742592 0.79111367 2.3509622e-38
-1.8365525 2.3759682 0.82338327 2.3509624e-38
-1.8519634 2.3777285 0.87446725 2.3509625e-38
-1.8430514 2.3801003 0.90272784 2.3509626e-38
-1.8370647 2.3815589 0.91941631 2.3509628e-38
-1.6998956 2.3922815 0.91474491 2.3509628e-38
-1.6966978 2.390728 0.8838774 2.3509629e-38
-1.6727252 2.3910868 0.85722053 2.3509631e-38
-1.6560872 2.392184 0.8531847 2.3509632e-38
-1.6388562 2.3932223 0.84733331 2.3509633e-38
-1.6280496 2.3938231 0.84280562 2.3509635e-38
-1.5923084 2.3966951 0.84291887 2.3509636e-38
-1.5756159 2.3978977 0.8406074 2.3509638e-38
-1.4988899 2.4024794 0.81384069 2.3509638e-38
-1.4870783 2.4030807 0.80795503 2.3509639e-38
-1.44919 2.4044669 0.77978873 2.350964e-38
-1.4226942 2.4051702 0.7555635 2.3509642e-38
-1.4010431 2.4065518 0.74952269 2.3509643e-38
-1.3862733 2.4074049 0.74387836 2.3509645e-38
-1.3792053 2.4077864 0.74072242 2.3509646e-38
-1.3692859 2.4093482 0.75379193 2.3509647e-38
-1.3709395 2.4103074 0.77241087 2.3509647e-38
-1.4027932 2.4092295 0.79757762 2.3509649e-38
-1.4307702 2.4091935 0.83521348 2.350965e-38
-1.4591578 2.4084487 0.86131752 2.3509652e-38
-1.4693269 2.4081893 0.87079561 2.3509653e-38
-1.4929199 2.408268 0.90438962 2.3509654e-38
-1.5268382 2.4080892 0.94770586 2.3509656e-38
-1.5336111 2.4087062 0.96749377 2.3509656e-38
-1.5508176 2.4104059 1.0199984 2.3509657e-38
-1.5523696 2.4121397 1.0516901 2.3509659e-38
-1.5428251 2.4146426 1.0813133 2.350966e-38
-1.5763175 2.4106052 1.058259 2.3509661e-38
-1.6663613 2.401226 1.0214194 2.3509663e-38
-1.6980642 2.3991625 1.0295738 2.3509664e-38
-1.7123995 2.3981478 1.031864 2.3509666e-38
-1.7279177 2.3971212 1.035573 2.3509666e-38
-1.7695721 2.3955028 1.0649215 2.3509667e-38
-1.8024659 2.3930738 1.0684674 2.3509668e-38
-1.8158932 2.3921406 1.070914 2.350967e-38
-1.8626212 2.38994 1.0972776 2.3509671e-38
-1.8834836 2.3888412 1.1070549 2.3509673e-38
-1.9075625 2.3882051 1.1291275 2.3509674e-38
-1.9334981 2.387392 1.1507109 2.3509674e-38
-1.9582707 2.3859103 1.1593167 2.3509675e-38
-1.9640135 2.3856428 1.1626095 2.3509677e-38
-1.9751667 2.3850796 1.1682518 2.3509678e-38
-1.9917119 2.3904741 1.2828547 2.350968e-38
-1.9762559 2.3930907 1.3063469 2.3509681e-38
-1.9679713 2.3945332 1.3196189 2.3509682e-38
-1.9652314 2.3956511 1.3349371 2.3509684e-38
-1.9627483 2.3967299 1.3499364 2.3509684e-38
-1.9698215 2.3971126 1.3661332 2.3509685e-38
-1.9369543 2.4054604 1.4635509 2.3509687e-38
-1.9798348 2.4019034 1.4615144 2.3509688e-38
-1.9860096 2.4013739 1.4609289 2.3509689e-38
-2.0103099 2.3995142 1.4624342 2.3509691e-38
-2.0570915 2.3957481 1.4621718 2.3509692e-38
-2.0952291 2.3930643 1.4685429 2.3509692e-38
-2.1002913 2.3928134 1.4711846 2.3509694e-38
-2.1205304 2.391587 1.4779406 2.3509695e-38
-2.1427824 2.3895392 1.4734395 2.3509696e-38
-2.1772437 2.3867166 1.4724209 2.3509698e-38
-2.2218153 2.3820102 1.4531007 2.3509699e-38
-2.2293754 2.381392 1.4528931 2.3509701e-38
-2.2346036 2.3809853 1.4531046 2.3509702e-38
-2.2542844 2.379554 1.4556053 2.3509702e-38
-2.3093097 2.3746231 1.4467463 2.3509703e-38
-2.3256304 2.3723629 1.4305192 2.3509705e-38
-2.3365486 2.3710635 1.4232816 2.3509706e-38
-2.3438981 2.369859 1.4127903 2.3509708e-38
-2.3558841 2.368027 1.3979311 2.3509709e-38
-2.3972764 2.3619337 1.3506209 2.350971e-38
-2.4312141 2.3584933 1.3383496 2.350971e-38
-2.505204 2.3553269 1.3855026 2.3509712e-38
-2.5112102 2.3560538 1.40611 2.3509713e-38
-2.5190604 2.3564715 1.4239666 2.3509715e-38
-2.5399787 2.3547726 1.4235939 2.3509716e-38
-2.556226 2.3531203 1.4176307 2.3509717e-38
-2.5704367 2.3513045 1.4060893 2.3509719e-38
-2.5693018 2.3505945 1.3924279 2.350972e-38
-2.5645175 2.3496864 1.3704083 2.350972e-38
-2.5636375 2.3489509 1.3566638 2.3509722e-38
-2.5593662 2.3475049 1.3261653 2.3509723e-38
-2.5610712 2.3464682 1.3108165 2.3509724e-38
-2.567529 2.3443098 1.2828383 2.3509726e-38
-2.5636542 2.3427129 1.2503176 2.3509727e-38
-2.5599287 2.3421602 1.2357963 2.3509729e-38
-2.5475249 2.3409662 1.198476 2.3509729e-38
-2.5466075 2.3390613 1.1647437 2.350973e-38
-2.5467188 2.3383501 1.1527689 2.3509731e-38
-2.5553665 2.3349662 1.106883 2.3509733e-38
-2.5538254 2.3330438 1.0719957 2.3509734e-38
-2.5465837 2.3309979 1.0272087 2.3509736e-38
-2.5413823 2.3303852 1.009643 2.3509737e-38
-2.5385845 2.3286865 0.97685719 2.3509738e-38
-2.5420363 2.3275557 0.96228719 2.3509738e-38
-2.5412097 2.324805 0.91425657 2.350974e-38
-2.5454981 2.3237605 0.90231001 2.3509741e-38
-2.5394168 2.3231711 0.88394642 2.3509743e-38
-2.5378995 2.3214073 0.85179508 2.3509744e-38
-2.5356467 2.3196812 0.81928295 2.3509745e-38
-2.5349417 2.3188899 0.80482066 2.3509747e-38
-2.5321021 2.3153546 0.74066132 2.3509747e-38
-2.5165396 2.3136852 0.69091046 2.3509748e-38
-2.5061426 2.3122256 0.65180576 2.350975e-38
-2.5118756 2.3081291 0.58978999 2.3509751e-38
-2.5091472 2.3065505 0.55914199 2.3509752e-38
-2.5095263 2.3056622 0.54451609 2.3509754e-38
-2.5092084 2.304903 0.53113365 2.3509755e-38
-2.4919691 2.3021121 0.45997503 2.3509757e-38
-2.4907193 2.3002584 0.42665851 2.3509757e-38
-2.472626 2.2987471 0.37615353 2.3509758e-38
-2.4756663 2.296761 0.34644133 2.3509759e-38
-2.4779959 2.2947891 0.31599668 2.3509761e-38
-2.4932275 2.2901716 0.25807589 2.3509762e-38
-2.4985771 2.2872567 0.21569063 2.3509764e-38
-2.5039079 2.2860427 0.20227663 2.3509765e-38
-2.4995065 2.2852893 0.18340978 2.3509767e-38
-2.4929509 2.2838542 0.14997578 2.3509767e-38
-2.4811451 2.2799358 0.067020103 2.3509768e-38
-2.4915059 2.2768202 0.028055683 2.3509769e-38
-2.4890924 2.2749796 -0.0066378862 2.3509771e-38
-2.4870377 2.2742734 -0.021478377 2.3509772e-38
-2.4892709 2.2722533 -0.052876748 2.3509774e-38
-2.4888449 2.2714734 -0.066762052 2.3509775e-38
-2.4868882 2.2695787 -0.10174243 2.3509775e-38
-2.4861584 2.2678847 -0.13162319 2.3509776e-38
-2.4768152 2.267518 -0.15065199 2.3509778e-38
-2.4746454 2.2649801 -0.19689746 2.3509779e-38
-2.4806762 2.2636571 -0.21121264 2.3509781e-38
-2.4780591 2.2620049 -0.24296628 2.3509782e-38
-2.4767706 2.2602549 -0.27456897 2.3509783e-38
-2.476114 2.2575464 -0.32165134 2.3509785e-38
-2.4706495 2.2560265 -0.35503876 2.3509785e-38
-2.4650869 2.2545679 -0.38751873 2.3509786e-38
-2.4676702 2.2525086 -0.41909894 2.3509788e-38
-2.4615746 2.2509828 -0.45345268 2.3509789e-38
-2.4636574 2.2473938 -0.51180637 2.350979e-38
-2.4568734 2.2460203 -0.54449821 2.3509792e-38
-2.4532137 2.2443695 -0.57765728 2.3509793e-38
-2.4572806 2.2422307 -0.60856307 2.3509793e-38
-2.4528563 2.2406416 -0.64171243 2.3509795e-38
-2.453552 2.2378762 -0.68792427 2.3509796e-38
-2.4487405 2.2344544 -0.75284624 2.3509797e-38
-2.4449458 2.2320085 -0.79974329 2.3509799e-38
-2.4470322 2.2299776 -0.83151889 2.35098e-38
-2.4402032 2.2284577 -0.86677361 2.3509802e-38
-2.4423573 2.2268059 -0.89199978 2.3509803e-38
-2.4360249 2.2244108 -0.94149554 2.3509803e-38
-2.4320521 2.2238123 -0.95713723 2.3509804e-38
-2.4341302 2.2217283 -0.98983097 2.3509806e-38
-2.4292819 2.2186012 -1.0497794 2.3509807e-38
-2.4253726 2.2178733 -1.0675422 2.3509809e-38
-2.416805 2.2182186 -1.0733632 2.350981e-38
-2.3746789 2.2217534 -1.0706779 2.3509811e-38
-2.3179116 2.2261746 -1.0728936 2.3509811e-38
-2.2941747 2.2285552 -1.0647423 2.3509813e-38
-2.2524292 2.231935 -1.0641824 2.3509814e-38
-1.982779 2.2881932 -0.47348601 2.3509816e-38
-2.0121644 2.2891681 -0.41668338 2.3509817e-38
-2.0162489 2.2907495 -0.38413781 2.3509818e-38
-1.9847035 2.2979984 -0.30365059 2.350982e-38
-1.9645407 2.3002043 -0.29360104 2.3509821e-38
-1.9196432 2.3056033 -0.2629137 2.3509821e-38
-1.8714753 2.3093629 -0.26464683 2.3509823e-38
-1.8616213 2.3099821 -0.26756692 2.3509824e-38
-1.7790298 2.3121855 -0.34289992 2.3509825e-38
-1.7747229 2.3106203 -0.37547973 2.3509827e-38
-1.770283 2.3090768 -0.40786979 2.3509828e-38
-1.7925566 2.304081 -0.46261308 2.350983e-38
-1.7992663 2.3027537 -0.47607103 2.350983e-38
-1.8066082 2.3014212 -0.48875681 2.3509831e-38
-1.8078613 2.3004427 -0.50372809 2.3509832e-38
-1.7976356 2.3001485 -0.52272856 2.3509834e-38
-1.7939011 2.298558 -0.55495191 2.3509835e-38
-1.7839856 2.2981927 -0.57473779 2.3509837e-38
-1.7718405 2.2961962 -0.62538648 2.3509838e-38
-1.7752211 2.2951059 -0.63935578 2.3509839e-38
-1.7803712 2.29389 -0.6530534 2.3509839e-38
-1.7821797 2.290154 -0.71428812 2.3509841e-38
-1.774027 2.2897077 -0.73304176 2.3509842e-38
-1.7463953 2.2886481 -0.78888619 2.3509844e-38
-1.7362022 2.2883513 -0.80788171 2.3509845e-38
-1.7272794 2.2879641 -0.82668173 2.3509846e-38
-1.7319121 2.2841597 -0.88522339 2.3509848e-38
-1.7402318 2.2826216 -0.90007627 2.3509848e-38
-1.7446836 2.281455 -0.91388106 2.3509849e-38
-1.7498651 2.2802367 -0.92757392 2.3509851e-38
-1.7376266 2.2755189 -1.0247614 2.3509852e-38
-1.8613204 2.2645035 -1.0434889 2.3509853e-38
-1.8750422 2.2664161 -0.99212027 2.3509855e-38
-1.8735734 2.2672307 -0.98023689 2.3509856e-38
-1.8892443 2.2683065 -0.94046855 2.3509858e-38
-1.9180622 2.2693837 -0.88270569 2.3509858e-38
-1.9314481 2.2693682 -0.86466801 2.3509859e-38
-1.9387829 2.2699335 -0.84500134 2.350986e-38
-1.9389584 2.275315 -0.75299263 2.3509862e-38
-1.9253197 2.2779541 -0.72663784 2.3509863e-38
-1.9207875 2.2791848 -0.7118479 2.3509865e-38
-1.9474109 2.2784889 -0.68731678 2.3509866e-38
-1.9584624 2.2805388 -0.6372478 2.3509866e-38
-1.9758295 2.2820983 -0.58691096 2.3509867e-38
-1.9854032 2.2825634 -0.56589663 2.3509869e-38
-1.9770076 2.2866988 -0.50685799 2.350987e-38
-2.4214995 2.3560615 1.2835944 2.3509872e-38
-2.3607304 2.3605742 1.2774733 2.3509873e-38
-2.3289683 2.3580363 1.1907759 2.3509874e-38
-2.3344002 2.3566873 1.1752015 2.3509876e-38
-2.3411396 2.3553488 1.1615888 2.3509876e-38
-2.3461435 2.3541481 1.1479512 2.3509877e-38
-2.351907 2.3528881 1.1343517 2.3509879e-38
-2.3640683 2.3502493 1.1059735 2.350988e-38
-2.4930007 2.3425562 1.151053 2.3509881e-38
-2.497381 2.3441114 1.1835651 2.3509883e-38
-2.5006022 2.3456466 1.2141402 2.3509884e-38
