# .PCD v0.7 - Point Cloud Data file format
VERSION 0.7
FIELDS x y z rgb
SIZE 4 4 4 4
TYPE F F F F
COUNT 1 1 1 1
WIDTH 64
HEIGHT 1
VIEWPOINT 0 0 0 1 0 0 0
POINTS 64
DATA ascii
-2.6027293 0.56410754 0.55213666 2.3509528e-38
-2.6234736 0.63913763 0.53707498 2.3509532e-38
-2.6843576 0.59029722 0.53357124 2.3509538e-38
-2.7619925 0.65690547 0.50960529 2.3509544e-38
-2.7739966 0.66618794 0.50605357 2.3509549e-38
-2.7913649 0.67208236 0.50205457 2.3509555e-38
-2.7926307 0.64775991 0.50550765 2.3509561e-38
-2.7805543 0.64679557 0.50781405 2.3509566e-38
-2.7620158 0.64366794 0.51160383 2.3509572e-38
-2.730515 0.52433479 0.53529239 2.3509577e-38
-2.7599974 0.50783354 0.53251415 2.3509583e-38
-2.7574072 0.47466454 0.53799534 2.3509589e-38
-2.8196707 0.4107244 0.5365293 2.3509594e-38
-2.8811426 0.42848596 0.52284479 2.35096e-38
-2.8779964 0.39542812 0.52840853 2.3509605e-38
-2.9364727 0.33375809 0.5272764 2.3509611e-38
-2.9077415 0.31634048 0.53505182 2.3509617e-38
-2.8907142 0.30955213 0.53912491 2.3509622e-38
-2.8544819 0.31272745 0.54512644 2.3509628e-38
-2.8155763 0.29788989 0.55433154 2.3509633e-38
-2.7702599 0.30702284 0.56105745 2.3509639e-38
-2.6859665 0.25370568 0.58420366 2.3509645e-38
-2.6883802 0.20822619 0.59065211 2.350965e-38
-2.7165608 0.16093037 0.59276539 2.3509656e-38
-2.7372303 0.12442221 0.59459072 2.3509661e-38
-2.767648 0.086153537 0.59493816 2.3509667e-38
-2.7814023 0.078584462 0.59362245 2.3509673e-38
-2.800329 0.069800436 0.59156525 2.3509678e-38
-2.83969 0.047073305 0.58796167 2.3509684e-38
-2.8720191 0.046604544 0.58224905 2.3509689e-38
-2.8997898 0.050339326 0.57671559 2.3509695e-38
-2.9355192 0.047412783 0.57076633 2.3509701e-38
-2.9665542 0.040033102 0.56633043 2.3509706e-38
-2.9527555 0.021660045 0.5715785 2.3509712e-38
-2.9358902 0.016356304 0.57539809 2.3509717e-38
-2.8737495 -0.055689842 0.59741455 2.3509723e-38
-2.8609295 -0.067093551 0.60143328 2.3509729e-38
-2.8298495 -0.073145315 0.60790914 2.3509734e-38
-2.7860317 -0.09651491 0.6192838 2.350974e-38
-2.7780292 -0.10529026 0.62204295 2.3509745e-38
-2.7505784 -0.12084094 0.62930655 2.3509751e-38
-2.7224376 -0.12121245 0.63439727 2.3509757e-38
-2.6919217 -0.11790183 0.6393559 2.3509762e-38
-2.6459539 -0.13729757 0.65051395 2.3509768e-38
-2.6319327 -0.12921816 0.65180016 2.3509774e-38
-2.6155958 -0.10742582 0.65142596 2.3509779e-38
-2.5946305 -0.044549346 0.64566469 2.3509785e-38
-2.5889916 -0.024711803 0.64367253 2.350979e-38
-2.5968382 -0.0005903393 0.63861936 2.3509796e-38
-2.6039815 0.029503584 0.6327889 2.3509802e-38
-2.6167951 0.071312129 0.62417185 2.3509807e-38
-2.6127384 0.1415031 0.61427867 2.3509813e-38
-2.6073711 0.17493722 0.61018097 2.3509818e-38
-2.6053162 0.20747027 0.60562688 2.3509824e-38
-2.6103003 0.21857956 0.60305458 2.350983e-38
-2.61501 0.27895963 0.59307754 2.3509835e-38
-2.613596 0.28468949 0.59246367 2.3509841e-38
-2.5881786 0.32205963 0.59135759 2.3509846e-38
-2.6109087 0.36720911 0.58046067 2.3509852e-38
-2.6081719 0.39673942 0.57648295 2.3509858e-38
-2.6127601 0.42714101 0.5710628 2.3509863e-38
-2.607367 0.44984144 0.56859362 2.3509869e-38
-2.5961878 0.48550642 0.565198 2.3509874e-38
-2.5917788 0.50654233 0.56280458 2.350988e-38
