# .PCD v0.7 - Point Cloud Data file format
VERSION 0.7
FIELDS x y z rgb
SIZE 4 4 4 4
TYPE F F F F
COUNT 1 1 1 1
WIDTH 91
HEIGHT 1
VIEWPOINT 0 0 0 1 0 0 0
POINTS 91
DATA ascii
-2.7228615 -1.7150401 0.11657447 2.3509528e-38
-2.6406441 -1.7134984 0.036435723 2.3509531e-38
-2.6303322 -1.7121626 0.018900186 2.3509535e-38
-2.6217782 -1.7103853 -3.066659e-05 2.3509539e-38
-2.6113811 -1.7089055 -0.018583447 2.3509544e-38
-2.5217042 -1.7136827 -0.063676715 2.3509548e-38
-2.5196464 -1.7040008 -0.12886123 2.3509551e-38
-2.5050883 -1.7000349 -0.16724604 2.3509555e-38
-2.4422083 -1.702897 -0.20205985 2.3509559e-38
-2.4368062 -1.7007763 -0.22055529 2.3509563e-38
-2.4288719 -1.6989485 -0.23928933 2.3509568e-38
-2.4287729 -1.6939486 -0.27213079 2.350957e-38
-2.4303985 -1.6868262 -0.3174091 2.3509575e-38
-2.4215207 -1.6841217 -0.3426922 2.3509579e-38
-2.419328 -1.6783249 -0.38253844 2.3509583e-38
-2.4210896 -1.67135 -0.42673543 2.3509587e-38
-2.4141443 -1.6693795 -0.44555983 2.350959e-38
-2.4135094 -1.6623299 -0.4922868 2.3509594e-38
-2.4110696 -1.6580597 -0.52234179 2.3509598e-38
-2.4103403 -1.655708 -0.53837115 2.3509603e-38
-2.4088843 -1.6535503 -0.5537473 2.3509607e-38
-2.4125724 -1.6508929 -0.56801629 2.350961e-38
-2.4109409 -1.646193 -0.60019863 2.3509614e-38
-2.4048431 -1.644362 -0.61738956 2.3509618e-38
-2.4052277 -1.6422187 -0.63110423 2.3509622e-38
-2.3989303 -1.6376727 -0.66625273 2.3509626e-38
-2.3998737 -1.6353108 -0.68092155 2.3509629e-38
-2.3995171 -1.633008 -0.69631255 2.3509633e-38
-2.3956037 -1.6308663 -0.71367896 2.3509638e-38
-2.3959439 -1.6294913 -0.72239769 2.3509642e-38
-2.3959146 -1.6264517 -0.74233532 2.3509646e-38
-2.3935919 -1.6216811 -0.7755686 2.3509649e-38
-2.3918076 -1.6192776 -0.7928375 2.3509653e-38
-2.3925018 -1.6159663 -0.81393993 2.3509657e-38
-2.3916583 -1.6092407 -0.85872126 2.3509661e-38
-2.3993635 -1.6129446 -0.82789165 2.3509666e-38
-2.4010077 -1.6171079 -0.7992143 2.3509668e-38
-2.4015603 -1.6232305 -0.75863206 2.3509673e-38
-2.4027712 -1.6239849 -0.75265586 2.3509677e-38
-2.4042444 -1.6252778 -0.74293017 2.3509681e-38
-2.4060099 -1.627472 -0.72705066 2.3509685e-38
-2.4910226 -1.6275721 -0.6539768 2.3509688e-38
-2.5144842 -1.6236033 -0.65999335 2.3509692e-38
-2.5426219 -1.6198241 -0.66078281 2.3509696e-38
-2.6121674 -1.6092219 -0.67100096 2.3509701e-38
-2.6451597 -1.604592 -0.67322969 2.3509705e-38
-2.6623797 -1.6014787 -0.67895985 2.3509708e-38
-2.6785011 -1.5987141 -0.68333739 2.3509712e-38
-2.728822 -1.5921211 -0.6836673 2.3509716e-38
-2.7399688 -1.5913711 -0.67908585 2.350972e-38
-2.7786031 -1.5868112 -0.67604953 2.3509724e-38
-2.7968087 -1.5843221 -0.67684668 2.3509727e-38
-2.8604572 -1.5749696 -0.68390042 2.3509731e-38
-2.8306284 -1.5819892 -0.66332138 2.3509736e-38
-2.8529425 -1.5980994 -0.53876573 2.350974e-38
-2.9073243 -1.5983579 -0.49074724 2.3509744e-38
-2.9392226 -1.6005929 -0.44893071 2.3509747e-38
-2.9427679 -1.6036936 -0.42559499 2.3509751e-38
-2.9400916 -1.6102333 -0.3850297 2.3509755e-38
-2.9388216 -1.615463 -0.35185021 2.3509759e-38
-2.950001 -1.6221559 -0.29847792 2.3509764e-38
-2.9509854 -1.6336107 -0.22259146 2.3509767e-38
-2.9502177 -1.6402606 -0.1796765 2.3509771e-38
-2.9522831 -1.6413431 -0.17082417 2.3509775e-38
-2.9524255 -1.6452839 -0.14488615 2.3509779e-38
-2.9519136 -1.6502472 -0.11280295 2.3509783e-38
-2.955534 -1.6546719 -0.080730349 2.3509786e-38
-2.9673281 -1.6596897 -0.037808895 2.350979e-38
-2.9623516 -1.6663964 0.0018912554 2.3509795e-38
-2.9631364 -1.6724296 0.042085469 2.3509799e-38
-2.9630044 -1.673373 0.048154086 2.3509803e-38
-2.9645 -1.6764177 0.069377452 2.3509806e-38
-2.9885166 -1.6884022 0.1683535 2.350981e-38
-2.9933012 -1.6895452 0.17991817 2.3509814e-38
-2.9893494 -1.6920429 0.1929163 2.3509818e-38
-2.9975493 -1.6999803 0.25190222 2.3509823e-38
-3.0058246 -1.7075305 0.30841804 2.3509825e-38
-3.0290325 -1.7089893 0.33774626 2.350983e-38
-3.0489755 -1.7086278 0.35236692 2.3509834e-38
-3.0621357 -1.7078106 0.3582235 2.3509838e-38
-3.0571146 -1.7104721 0.37138307 2.3509842e-38
-3.0381086 -1.7151768 0.38601679 2.3509845e-38
-3.0124772 -1.7165052 0.37288493 2.3509849e-38
-3.0032563 -1.7170386 0.36852497 2.3509853e-38
-2.8961713 -1.7302299 0.36372757 2.3509858e-38
-2.8724298 -1.724597 0.30659711 2.3509862e-38
-2.8749061 -1.7123287 0.22832918 2.3509865e-38
-2.8580678 -1.7087302 0.19041193 2.3509869e-38
-2.8521652 -1.7068479 0.17305091 2.3509873e-38
-2.7711196 -1.7109528 0.13090444 2.3509877e-38
-2.7618878 -1.7113245 0.12547386 2.3509881e-38
