# .PCD v0.7 - Point Cloud Data file format
VERSION 0.7
FIELDS x y z rgb
SIZE 4 4 4 4
TYPE F F F F
COUNT 1 1 1 1
WIDTH 40
HEIGHT 1
VIEWPOINT 0 0 0 1 0 0 0
POINTS 40
DATA ascii
-1.0496475 2.1137044 0.54445946 2.3509528e-38
-1.0435202 2.1007426 0.54628837 2.3509537e-38
-1.0360926 2.0893636 0.54798222 2.3509545e-38
-1.0027884 2.0581565 0.55318511 2.3509555e-38
-0.97753036 2.0385327 0.55664277 2.3509563e-38
-0.95469785 2.0342498 0.55814409 2.3509572e-38
-0.93105805 2.0301723 0.55965531 2.3509582e-38
-0.89997137 2.0302172 0.56098998 2.350959e-38
-0.88643575 2.0367746 0.56078196 2.35096e-38
-0.87130606 2.0446978 0.56047761 2.3509608e-38
-0.83903944 2.0491199 0.56133473 2.3509617e-38
-0.79645157 2.0454235 0.56361675 2.3509626e-38
-0.73800474 2.0641282 0.5638783 2.3509635e-38
-0.72390854 2.0695822 0.56382751 2.3509643e-38
-0.6905877 2.0727818 0.56487763 2.3509653e-38
-0.67941922 2.0786457 0.56465113 2.3509661e-38
-0.66330379 2.08708 0.5643276 2.3509671e-38
-0.64883238 2.0940881 0.56410563 2.350968e-38
-0.633412 2.1017222 0.56384873 2.3509688e-38
-0.59365767 2.1334553 0.5617317 2.3509698e-38
-0.58991289 2.1441381 0.56060338 2.3509706e-38
-0.60602695 2.1730232 0.55642188 2.3509715e-38
-0.61001652 2.1905162 0.55413818 2.3509724e-38
-0.63138634 2.2303808 0.54840457 2.3509733e-38
-0.63414198 2.2454202 0.54647028 2.3509743e-38
-0.64172971 2.2721713 0.54291397 2.3509751e-38
-0.64920551 2.2711866 0.54271054 2.3509759e-38
-0.67513007 2.255419 0.54349649 2.3509769e-38
-0.69084966 2.2496443 0.54351598 2.3509778e-38
-0.72117555 2.2354248 0.54392517 2.3509786e-38
-0.75238216 2.2337158 0.54278624 2.3509796e-38
-0.75847417 2.2339253 0.54249835 2.3509804e-38
-0.80671304 2.2373965 0.53999984 2.3509814e-38
-0.91814649 2.2301571 0.53607029 2.3509823e-38
-0.9443785 2.2315066 0.53477657 2.3509831e-38
-1.0224704 2.2402575 0.5303539 2.3509841e-38
-1.0440518 2.2113154 0.53291738 2.3509849e-38
-1.0486449 2.1929765 0.53493321 2.3509858e-38
-1.0529789 2.175595 0.53684461 2.3509867e-38
-1.0588039 2.1409669 0.54077369 2.3509876e-38
