# .PCD v0.7 - Point Cloud Data file format
VERSION 0.7
FIELDS x y z rgb
SIZE 4 4 4 4
TYPE F F F F
COUNT 1 1 1 1
WIDTH 478
HEIGHT 1
VIEWPOINT 0 0 0 1 0 0 0
POINTS 478
DATA ascii
-0.43435812 -2.2659435 -1.0197263 2.3509528e-38
-0.44091818 -2.2663081 -1.0151169 2.3509528e-38
-0.44285211 -2.2668457 -1.0017787 2.350953e-38
-0.44955876 -2.2677507 -0.98223066 2.350953e-38
-0.45179775 -2.2689786 -0.94992799 2.3509531e-38
-0.45387217 -2.2702329 -0.91675335 2.3509531e-38
-0.4574348 -2.2727077 -0.85083431 2.3509532e-38
-0.45463201 -2.274282 -0.8046118 2.3509532e-38
-0.45769385 -2.2755446 -0.77203667 2.3509534e-38
-0.4604927 -2.2767997 -0.739434 2.3509534e-38
-0.45822391 -2.2783484 -0.69438565 2.3509535e-38
-0.46009859 -2.2796195 -0.66056794 2.3509535e-38
-0.46781492 -2.2805381 -0.64151335 2.3509537e-38
-0.46396032 -2.2809033 -0.62807655 2.3509537e-38
-0.45556515 -2.2822795 -0.58265269 2.3509538e-38
-0.45118365 -2.2826803 -0.56777638 2.3509539e-38
-0.44856426 -2.2830884 -0.55419052 2.3509539e-38
-0.45140627 -2.284349 -0.52148753 2.3509541e-38
-0.45977375 -2.285244 -0.5036298 2.3509541e-38
-0.46380177 -2.28653 -0.47122133 2.3509542e-38
-0.45931914 -2.2869339 -0.45617083 2.3509542e-38
-0.45965177 -2.289279 -0.39115107 2.3509544e-38
-0.46442661 -2.2905867 -0.35875529 2.3509544e-38
-0.4615927 -2.2909575 -0.3460311 2.3509545e-38
-0.47266361 -2.2931719 -0.29371774 2.3509545e-38
-0.49561462 -2.2947471 -0.26924211 2.3509547e-38
-0.47665444 -2.295625 -0.22876209 2.3509547e-38
-0.46565762 -2.2973776 -0.17063949 2.3509548e-38
-0.47013998 -2.2983212 -0.14816074 2.3509548e-38
-0.46828291 -2.2987311 -0.13516808 2.3509549e-38
-0.46667865 -2.2998087 -0.10379276 2.3509551e-38
-0.46538267 -2.3002772 -0.089649506 2.3509551e-38
-0.46438923 -2.3013771 -0.058166236 2.3509552e-38
-0.46792433 -2.3027129 -0.02395983 2.3509552e-38
-0.46536145 -2.3042936 0.022237517 2.3509554e-38
-0.46345016 -2.3059289 0.069406457 2.3509554e-38
-0.46569642 -2.306669 0.088120021 2.3509555e-38
-0.46792638 -2.3071921 0.10079353 2.3509555e-38
-0.46516079 -2.3082831 0.13352025 2.3509556e-38
-0.46579346 -2.3099532 0.17950916 2.3509556e-38
-0.46744052 -2.3111868 0.21248001 2.3509558e-38
-0.46743152 -2.3123708 0.24546197 2.3509558e-38
-0.46426055 -2.313935 0.29172298 2.3509559e-38
-0.46503612 -2.3144 0.30400839 2.3509559e-38
-0.4640899 -2.3155797 0.3376697 2.3509561e-38
-0.47118309 -2.3164816 0.35678959 2.3509562e-38
-0.46604058 -2.3168128 0.37036127 2.3509562e-38
-0.46369681 -2.3172181 0.38363972 2.3509563e-38
-0.46280292 -2.3183756 0.41662931 2.3509563e-38
-0.46644494 -2.3196535 0.44914359 2.3509565e-38
-0.4690434 -2.3209035 0.48176736 2.3509565e-38
-0.47017953 -2.3222001 0.51692694 2.3509566e-38
-0.47354135 -2.3233364 0.54572362 2.3509566e-38
-0.47497442 -2.3246021 0.57977211 2.3509568e-38
-0.47475046 -2.3262014 0.62449801 2.3509568e-38
-0.47392455 -2.3273723 0.65782064 2.3509569e-38
-0.4744772 -2.3290894 0.70517802 2.3509569e-38
-0.47532693 -2.3302739 0.73744625 2.350957e-38
-0.47196051 -2.3318329 0.78372771 2.350957e-38
-0.47613755 -2.3331254 0.81618601 2.3509572e-38
-0.46932492 -2.3334119 0.82993275 2.3509573e-38
-0.46879503 -2.3351057 0.8775562 2.3509573e-38
-0.46495879 -2.3364956 0.91950476 2.3509575e-38
-0.4590129 -2.3368318 0.93390584 2.3509575e-38
-0.45329157 -2.3384004 0.98243201 2.3509576e-38
-0.45570222 -2.3396451 1.0150752 2.3509576e-38
-0.46879023 -2.341888 1.0664628 2.3509577e-38
-0.46660393 -2.3434789 1.1126208 2.3509577e-38
-0.46104586 -2.3437989 1.126236 2.3509579e-38
-0.45616332 -2.3453326 1.1730915 2.3509579e-38
-0.45590425 -2.3464389 1.204116 2.350958e-38
-0.4536241 -2.3468051 1.2162597 2.350958e-38
-0.41395515 -2.3478882 1.2799726 2.3509582e-38
-0.41590261 -2.3487029 1.3010206 2.3509582e-38
-0.35415548 -2.3487473 1.3544749 2.3509583e-38
-0.34543639 -2.3493958 1.3799082 2.3509584e-38
-0.34853277 -2.3506529 1.4123096 2.3509584e-38
-0.35529158 -2.3516109 1.4332684 2.3509586e-38
-0.35942215 -2.3527064 1.4602938 2.3509586e-38
-0.35701713 -2.3541751 1.5032307 2.3509587e-38
-0.35838482 -2.3549311 1.5231338 2.3509587e-38
-0.34011799 -2.354188 1.5178859 2.3509589e-38
-0.31110507 -2.3533709 1.5196553 2.3509589e-38
-0.29716051 -2.3528748 1.5176442 2.350959e-38
-0.22839071 -2.3503518 1.5055126 2.350959e-38
-0.21523799 -2.3498383 1.502332 2.3509591e-38
-0.16119377 -2.3486285 1.514345 2.3509591e-38
-0.13903424 -2.3482337 1.5220865 2.3509593e-38
-0.071198478 -2.3459859 1.5168605 2.3509593e-38
0.004042089 -2.3438704 1.5215585 2.3509594e-38
0.056343749 -2.3422508 1.5206875 2.3509596e-38
0.092294618 -2.3413179 1.5250982 2.3509596e-38
0.087541685 -2.3404098 1.4957821 2.3509597e-38
0.072419047 -2.3398905 1.4685342 2.3509597e-38
0.070846602 -2.3387511 1.4354573 2.3509598e-38
0.066614553 -2.3383482 1.4206716 2.3509598e-38
0.067339092 -2.3372998 1.3920774 2.35096e-38
0.10951304 -2.3332264 1.3142833 2.35096e-38
0.13847959 -2.3315914 1.2932389 2.3509601e-38
0.14403874 -2.3313532 1.2913107 2.3509601e-38
0.1839743 -2.3300178 1.2878867 2.3509603e-38
0.24850698 -2.3279634 1.2852465 2.3509603e-38
0.25945699 -2.3277171 1.2876401 2.3509604e-38
0.27298033 -2.3273926 1.2900289 2.3509604e-38
0.29659522 -2.3269863 1.2986876 2.3509605e-38
0.32612038 -2.326833 1.3193851 2.3509607e-38
0.32918814 -2.326777 1.3204244 2.3509607e-38
0.37745339 -2.3278823 1.3920275 2.3509608e-38
0.389658 -2.3287783 1.4273075 2.3509608e-38
0.399068 -2.3295836 1.4576955 2.350961e-38
0.383569 -2.3319039 1.5092218 2.350961e-38
0.38954937 -2.3322132 1.5228803 2.3509611e-38
0.40134516 -2.3316808 1.5180364 2.3509611e-38
0.42687392 -2.3297689 1.4863725 2.3509612e-38
0.44706476 -2.3285298 1.4689392 2.3509612e-38
0.46958607 -2.3275108 1.4595861 2.3509614e-38
0.51600319 -2.3259585 1.4556166 2.3509614e-38
0.5556035 -2.3248513 1.4582675 2.3509615e-38
0.59141922 -2.3238759 1.4613925 2.3509615e-38
0.62834531 -2.3228714 1.4646384 2.3509617e-38
0.64092958 -2.3223424 1.4605542 2.3509618e-38
0.6579808 -2.3199441 1.4081703 2.3509618e-38
0.66229314 -2.3174675 1.3428289 2.3509619e-38
0.67017484 -2.3165443 1.3237886 2.3509619e-38
0.67472422 -2.3152425 1.2913785 2.3509621e-38
0.68281126 -2.3143125 1.2723093 2.3509621e-38
0.67771727 -2.3139825 1.258799 2.3509622e-38
0.67308444 -2.3125336 1.2145257 2.3509622e-38
0.62897509 -2.3139014 1.2153265 2.3509624e-38
0.55525732 -2.3152564 1.1907322 2.3509624e-38
0.54284096 -2.3157654 1.1944088 2.3509625e-38
0.50016356 -2.317836 1.2159901 2.3509625e-38
0.49131885 -2.3181343 1.2168194 2.3509626e-38
0.47643185 -2.3187597 1.2216334 2.3509626e-38
0.45373565 -2.3197622 1.2303714 2.3509628e-38
0.41975671 -2.3208556 1.2320871 2.3509629e-38
0.39991871 -2.3214543 1.2319894 2.3509629e-38
0.37590322 -2.3219903 1.2266147 2.3509631e-38
0.34188342 -2.3228605 1.2220727 2.3509631e-38
0.31738991 -2.3233669 1.2154571 2.3509632e-38
0.27613008 -2.3244805 1.2115929 2.3509632e-38
0.26295775 -2.3250883 1.2173721 2.3509633e-38
0.25234467 -2.3255689 1.2217815 2.3509633e-38
0.20302154 -2.327148 1.2240684 2.3509635e-38
0.13321617 -2.3288648 1.2128451 2.3509635e-38
0.097575217 -2.3297739 1.2080293 2.3509636e-38
0.085004613 -2.3303537 1.2135516 2.3509636e-38
0.072377548 -2.3309355 1.2190678 2.3509638e-38
0.058899488 -2.331522 1.2240026 2.3509638e-38
0.025289342 -2.3325601 1.2244959 2.3509639e-38
0.0038737282 -2.3332722 1.2262149 2.350964e-38
-0.072311632 -2.3348796 1.2065648 2.350964e-38
-0.10147951 -2.3361406 1.2170193 2.3509642e-38
-0.13952877 -2.3371899 1.2140635 2.3509642e-38
-0.18393812 -2.3377352 1.1917081 2.3509643e-38
-0.25197807 -2.3395498 1.1847078 2.3509643e-38
-0.29482877 -2.3407431 1.1817038 2.3509645e-38
-0.42161813 -2.3441644 1.1697679 2.3509645e-38
-0.42856914 -2.3429122 1.1290113 2.3509646e-38
-0.42248976 -2.340384 1.0637369 2.3509646e-38
-0.4174546 -2.3390737 1.0314881 2.3509647e-38
-0.41022918 -2.3381681 1.0123819 2.3509647e-38
-0.39598876 -2.336616 0.98118758 2.3509649e-38
-0.4040865 -2.3344593 0.91427499 2.3509649e-38
-0.33788347 -2.3305349 0.86095005 2.350965e-38
-0.32590169 -2.3295028 0.84234333 2.3509652e-38
-0.27577949 -2.3265209 0.80167031 2.3509652e-38
-0.25994274 -2.3256538 0.79091054 2.3509653e-38
-0.25391603 -2.3253102 0.78643602 2.3509653e-38
-0.15849964 -2.322278 0.78268379 2.3509654e-38
-0.14737424 -2.3218248 0.77945977 2.3509654e-38
-0.13253823 -2.3211842 0.7741636 2.3509656e-38
-0.11441998 -2.3204541 0.76914692 2.3509656e-38
-0.10883254 -2.3197567 0.75445849 2.3509657e-38
-0.037635304 -2.3152807 0.68999577 2.3509657e-38
-0.02031111 -2.3148208 0.69183236 2.3509659e-38
0.015558355 -2.3138456 0.69500488 2.3509659e-38
0.036418863 -2.313458 0.70184207 2.350966e-38
0.05112863 -2.3128788 0.69815922 2.350966e-38
0.089904413 -2.3119042 0.70380592 2.3509661e-38
0.13833937 -2.310225 0.69799799 2.3509663e-38
0.20558107 -2.3078701 0.68927234 2.3509663e-38
0.23898515 -2.3068538 0.68921041 2.3509664e-38
0.27017933 -2.3055542 0.67940074 2.3509664e-38
0.28482381 -2.3050137 0.67672557 2.3509666e-38
0.30367738 -2.3044224 0.67620361 2.3509666e-38
0.34265333 -2.3037865 0.6914525 2.3509667e-38
0.40444717 -2.3004467 0.65069288 2.3509667e-38
0.46629354 -2.2994742 0.67590433 2.3509668e-38
0.54104573 -2.2989976 0.72584122 2.3509668e-38
0.54924363 -2.3003137 0.76943368 2.350967e-38
0.57355779 -2.3008046 0.80367482 2.350967e-38
0.58290356 -2.3003597 0.79918265 2.3509671e-38
0.63441521 -2.2986429 0.79492861 2.3509671e-38
0.7329601 -2.2966793 0.82357544 2.3509673e-38
0.73999441 -2.2970622 0.84018725 2.3509674e-38
0.78207725 -2.2970002 0.87405002 2.3509674e-38
0.78901434 -2.2972047 0.88561749 2.3509675e-38
0.83269191 -2.2965696 0.90486461 2.3509675e-38
0.86069524 -2.2965608 0.92830026 2.3509677e-38
0.87525612 -2.2963438 0.93456233 2.3509677e-38
0.91377878 -2.2965431 0.97269201 2.3509678e-38
0.92182982 -2.2967389 0.9849658 2.3509678e-38
0.92093724 -2.299129 1.050778 2.350968e-38
0.92444175 -2.2994483 1.062632 2.350968e-38
0.9342764 -2.2997108 1.0782655 2.3509681e-38
0.94001091 -2.3000143 1.0915604 2.3509681e-38
0.94524282 -2.3010256 1.1241561 2.3509682e-38
0.94947082 -2.3011572 1.1314045 2.3509682e-38
0.96440637 -2.3028698 1.1917313 2.3509684e-38
0.96025974 -2.3037241 1.21202 2.3509685e-38
0.9524616 -2.3046434 1.2310352 2.3509685e-38
0.94244933 -2.3056183 1.2497271 2.3509687e-38
0.94826448 -2.3070905 1.2956536 2.3509687e-38
0.95097101 -2.3084941 1.3370371 2.3509688e-38
0.94963682 -2.3087213 1.3422239 2.3509688e-38
0.93738842 -2.3113904 1.4062073 2.3509689e-38
0.95028925 -2.311995 1.4339615 2.3509689e-38
0.94971812 -2.3132164 1.4674922 2.3509691e-38
0.96448362 -2.313015 1.474386 2.3509691e-38
1.019492 -2.3129334 1.5186285 2.3509692e-38
1.0700308 -2.3113151 1.5162905 2.3509692e-38
1.1249193 -2.3096135 1.5153193 2.3509694e-38
1.1604167 -2.3086083 1.5173357 2.3509694e-38
1.1964757 -2.3075817 1.5192308 2.3509695e-38
1.2488421 -2.3059914 1.5192318 2.3509696e-38
1.3096771 -2.3045697 1.5310726 2.3509696e-38
1.3240297 -2.3041406 1.5312631 2.3509698e-38
1.368241 -2.3023212 1.5179785 2.3509698e-38
1.3957138 -2.3008976 1.5015535 2.3509699e-38
1.4120078 -2.3001385 1.4941919 2.3509699e-38
1.4991701 -2.2975707 1.49639 2.3509701e-38
1.5702913 -2.2955911 1.5013928 2.3509701e-38
1.5998763 -2.2943504 1.4918551 2.3509702e-38
1.6278758 -2.2926302 1.4676163 2.3509702e-38
1.639339 -2.2920427 1.4609523 2.3509703e-38
1.6727033 -2.2894938 1.418174 2.3509703e-38
1.7119107 -2.2872653 1.3892595 2.3509705e-38
1.6832916 -2.2852895 1.3100247 2.3509705e-38
1.6722085 -2.2850482 1.2939347 2.3509706e-38
1.6456743 -2.2851775 1.2750908 2.3509708e-38
1.6244848 -2.2854705 1.2653259 2.3509708e-38
1.6026859 -2.2853017 1.2421912 2.3509709e-38
1.568482 -2.2855124 1.2191408 2.3509709e-38
1.5512022 -2.2844713 1.1755352 2.350971e-38
1.5390795 -2.2844794 1.1655003 2.350971e-38
1.5155084 -2.2841372 1.1360285 2.3509712e-38
1.5129688 -2.2839656 1.1291013 2.3509712e-38
1.5082432 -2.283565 1.1139498 2.3509713e-38
1.5066612 -2.2829974 1.0968041 2.3509713e-38
1.5034517 -2.2824686 1.0793611 2.3509715e-38
1.5000036 -2.2822008 1.0689974 2.3509715e-38
1.4963167 -2.2806618 1.0230088 2.3509716e-38
1.5067036 -2.2782831 0.96553576 2.3509716e-38
1.6083897 -2.2739267 0.93019032 2.3509717e-38
1.6731082 -2.2727826 0.95304716 2.3509719e-38
1.6848609 -2.2722301 0.94760203 2.3509719e-38
1.7015061 -2.2715399 0.94245577 2.350972e-38
1.7285982 -2.2700942 0.92509842 2.350972e-38
1.7129591 -2.2702265 0.9155668 2.3509722e-38
1.697137 -2.2702119 0.90177548 2.3509722e-38
1.6814431 -2.2702575 0.88977838 2.3509723e-38
1.6624914 -2.2704713 0.87969828 2.3509723e-38
1.642228 -2.2702913 0.85754675 2.3509724e-38
1.6137719 -2.268703 0.78923458 2.3509724e-38
1.6111279 -2.2681592 0.77186304 2.3509726e-38
1.6133101 -2.2673354 0.75076318 2.3509726e-38
1.6123599 -2.2669051 0.73796993 2.3509727e-38
1.6137645 -2.2663772 0.72444528 2.3509727e-38
1.6133064 -2.2662685 0.72103918 2.3509729e-38
1.6119843 -2.2658577 0.70848596 2.350973e-38
1.6129167 -2.2652555 0.69249374 2.350973e-38
1.6133457 -2.265141 0.68966585 2.3509731e-38
1.6131755 -2.2642605 0.66500574 2.3509731e-38
1.605462 -2.2637186 0.64338028 2.3509733e-38
1.6050423 -2.2614675 0.58032638 2.3509733e-38
1.6074022 -2.2602229 0.54765797 2.3509734e-38
1.6815505 -2.255446 0.47730291 2.3509734e-38
1.7060137 -2.2549043 0.48290074 2.3509736e-38
1.7416407 -2.2538784 0.48446155 2.3509736e-38
1.7602493 -2.2532384 0.48237753 2.3509737e-38
1.7748032 -2.2527716 0.48168141 2.3509737e-38
1.7944535 -2.2520964 0.47949594 2.3509738e-38
1.8083379 -2.2516336 0.47835535 2.3509738e-38
1.8251836 -2.2511194 0.47827011 2.350974e-38
1.8459179 -2.2505007 0.47857475 2.3509741e-38
1.8776817 -2.2495494 0.47893572 2.3509741e-38
1.9107051 -2.2483678 0.47395241 2.3509743e-38
1.9361587 -2.2477636 0.47866184 2.3509743e-38
1.9484588 -2.2475605 0.48339534 2.3509744e-38
1.982766 -2.2463441 0.47852629 2.3509744e-38
2.0179198 -2.2454338 0.48290676 2.3509745e-38
2.0536163 -2.2445443 0.48831803 2.3509745e-38
2.1243591 -2.2426138 0.49437428 2.3509747e-38
2.148952 -2.2420502 0.49947214 2.3509747e-38
2.1880555 -2.2415235 0.51787162 2.3509748e-38
2.2147989 -2.2443216 0.61842561 2.3509748e-38
2.2376335 -2.2451198 0.65997052 2.350975e-38
2.239774 -2.2468243 0.70925349 2.350975e-38
2.2429826 -2.2471588 0.72128832 2.3509751e-38
2.2466874 -2.2475641 0.7357015 2.3509752e-38
2.2606199 -2.2475505 0.74711108 2.3509752e-38
2.2755291 -2.2475231 0.75896567 2.3509754e-38
2.304074 -2.2473145 0.77728665 2.3509754e-38
2.3670895 -2.2463641 0.80411214 2.3509755e-38
2.39957 -2.2450347 0.79454738 2.3509755e-38
2.4061215 -2.2441232 0.77469981 2.3509757e-38
2.4917188 -2.2383039 0.68500197 2.3509757e-38
2.5110822 -2.2377665 0.686409 2.3509758e-38
2.5330858 -2.2371037 0.68656713 2.3509758e-38
2.5676174 -2.235728 0.67744821 2.3509759e-38
2.6105525 -2.2340567 0.66720724 2.3509759e-38
2.6383798 -2.2330992 0.6640774 2.3509761e-38
2.6575789 -2.2325735 0.66566217 2.3509761e-38
2.6764164 -2.2317929 0.65984774 2.3509762e-38
2.7171755 -2.2303066 0.65292102 2.3509764e-38
2.7381198 -2.2296007 0.65096998 2.3509764e-38
2.7528987 -2.2292116 0.65263152 2.3509765e-38
2.7716351 -2.2285779 0.65082645 2.3509765e-38
2.8093369 -2.2273457 0.64839453 2.3509767e-38
2.8262494 -2.2268736 0.64954358 2.3509767e-38
2.8434286 -2.2265105 0.65395927 2.3509768e-38
2.8788381 -2.2256331 0.65946788 2.3509768e-38
2.8978114 -2.2250206 0.65845495 2.3509769e-38
2.9166956 -2.2243526 0.65581048 2.3509769e-38
2.9316995 -2.2237344 0.65128404 2.3509771e-38
2.9670241 -2.2227352 0.65332967 2.3509771e-38
2.9988289 -2.2221618 0.66425574 2.3509772e-38
3.0292997 -2.2213058 0.6661815 2.3509772e-38
3.0456417 -2.2207642 0.66490775 2.3509774e-38
3.0502369 -2.2199123 0.64507067 2.3509775e-38
3.0963006 -2.2168138 0.59773058 2.3509775e-38
3.0989385 -2.2163045 0.5857715 2.3509776e-38
3.0973363 -2.2156098 0.56507611 2.3509776e-38
3.0983217 -2.213908 0.51849949 2.3509778e-38
3.0970109 -2.213527 0.50678134 2.3509778e-38
3.0849631 -2.2121966 0.45953113 2.3509779e-38
3.0845211 -2.2118523 0.44957072 2.3509779e-38
3.0855289 -2.2093837 0.38166359 2.3509781e-38
3.0886927 -2.2087567 0.36687833 2.3509781e-38
3.0954726 -2.2079697 0.35069066 2.3509782e-38
3.0947931 -2.2077734 0.34464639 2.3509782e-38
3.0845962 -2.2065213 0.30114532 2.3509783e-38
3.0823364 -2.2049317 0.25496137 2.3509783e-38
3.0818336 -2.2037513 0.22165695 2.3509785e-38
3.0805564 -2.2034781 0.21296567 2.3509786e-38
3.0839517 -2.2020793 0.17687988 2.3509786e-38
3.0828524 -2.2016833 0.16492288 2.3509788e-38
3.0811 -2.2009542 0.14312813 2.3509788e-38
3.0780945 -2.200572 0.12994808 2.3509789e-38
3.0853872 -2.1984785 0.077790245 2.3509789e-38
3.0621462 -2.1968961 0.01406379 2.350979e-38
3.0622561 -2.1963248 -0.0017532781 2.350979e-38
3.0540442 -2.1955912 -0.029136281 2.3509792e-38
3.0328403 -2.1935899 -0.10280626 2.3509792e-38
3.0532348 -2.1912982 -0.14938894 2.3509793e-38
3.0571239 -2.1900539 -0.18076216 2.3509793e-38
3.0464547 -2.1880007 -0.24697348 2.3509795e-38
3.0532167 -2.1859603 -0.29808122 2.3509795e-38
3.0401361 -2.1835082 -0.37744957 2.3509796e-38
3.0363922 -2.1832819 -0.38691068 2.3509797e-38
3.0320792 -2.1828573 -0.4023855 2.3509797e-38
3.0246232 -2.182049 -0.43120587 2.3509799e-38
3.0142498 -2.1808615 -0.47305399 2.3509799e-38
3.0231576 -2.1792212 -0.51121598 2.35098e-38
3.02231 -2.1775455 -0.55859923 2.35098e-38
3.014504 -2.1773186 -0.57152414 2.3509802e-38
3.0086088 -2.1753523 -0.63127708 2.3509802e-38
3.0026329 -2.1750786 -0.64395487 2.3509803e-38
3.0107977 -2.172462 -0.7099244 2.3509803e-38
3.0193925 -2.1715364 -0.72844094 2.3509804e-38
3.0180047 -2.1711068 -0.74158216 2.3509804e-38
3.0178809 -2.171015 -0.74424011 2.3509806e-38
3.0241046 -2.1690173 -0.79462564 2.3509806e-38
3.0269957 -2.1684675 -0.80749291 2.3509807e-38
3.025986 -2.1683898 -0.81051362 2.3509809e-38
3.0120494 -2.1667814 -0.86710197 2.3509809e-38
3.0137086 -2.1660213 -0.8868615 2.350981e-38
3.016984 -2.1647508 -0.91948217 2.350981e-38
3.020752 -2.1634617 -0.95219982 2.3509811e-38
3.0203896 -2.1629961 -0.965482 2.3509811e-38
3.0137806 -2.1627612 -0.97760898 2.3509813e-38
3.0022922 -2.1626143 -0.99141586 2.3509813e-38
2.9923699 -2.1625237 -1.0023248 2.3509814e-38
2.9543104 -2.1638 -0.99896848 2.3509814e-38
2.9184132 -2.1648307 -1.0006179 2.3509816e-38
2.8832257 -2.1658463 -1.0020869 2.3509816e-38
2.8684773 -2.1662655 -1.0028855 2.3509817e-38
2.833257 -2.1673956 -1.0011932 2.3509817e-38
2.8203199 -2.1677861 -1.0012604 2.3509818e-38
2.7918396 -2.1684957 -1.0055828 2.350982e-38
2.7774086 -2.1690481 -1.0023978 2.350982e-38
2.7389393 -2.1701117 -1.0053104 2.3509821e-38
2.6806271 -2.1720459 -1.0007434 2.3509821e-38
2.6499696 -2.172823 -1.0050318 2.3509823e-38
2.5999615 -2.1744065 -1.0032105 2.3509823e-38
2.5624411 -2.1753979 -1.0073301 2.3509824e-38
2.5195479 -2.1761343 -1.0230956 2.3509824e-38
2.4756637 -2.178035 -1.0072608 2.3509825e-38
2.4236598 -2.1796856 -1.0052683 2.3509825e-38
2.3918922 -2.1805599 -1.0077856 2.3509827e-38
2.3418975 -2.1821082 -1.0069435 2.3509827e-38
2.295815 -2.1829038 -1.023752 2.3509828e-38
2.2460353 -2.1850438 -1.0062535 2.3509828e-38
2.1974607 -2.1864727 -1.0075238 2.350983e-38
2.1642232 -2.187449 -1.0084407 2.3509831e-38
2.1509523 -2.1879871 -1.0046732 2.3509831e-38
2.1140616 -2.1890681 -1.0057622 2.3509832e-38
2.0794461 -2.1899869 -1.0094464 2.3509832e-38
2.0691285 -2.1902366 -1.0112088 2.3509834e-38
2.0216217 -2.1918001 -1.0078474 2.3509834e-38
1.9684713 -2.1934583 -1.0066099 2.3509835e-38
1.9379512 -2.1936047 -1.0283241 2.3509835e-38
1.8929994 -2.1955357 -1.012575 2.3509837e-38
1.8428723 -2.1970925 -1.0115974 2.3509837e-38
1.7909791 -2.1988034 -1.0078316 2.3509838e-38
1.7518291 -2.1998041 -1.0130711 2.3509838e-38
1.7159082 -2.2008739 -1.0136538 2.3509839e-38
1.6646816 -2.2024565 -1.0128921 2.3509839e-38
1.6267576 -2.203012 -1.0294935 2.3509841e-38
1.5711497 -2.2052927 -1.0129914 2.3509842e-38
1.5591136 -2.2056947 -1.0119762 2.3509842e-38
1.5262444 -2.2066927 -1.0119672 2.3509844e-38
1.4892391 -2.2076361 -1.016995 2.3509844e-38
1.4406368 -2.2092543 -1.0130273 2.3509845e-38
1.4047654 -2.2102296 -1.0161923 2.3509845e-38
1.3512474 -2.2119224 -1.0143082 2.3509846e-38
1.3167415 -2.2128277 -1.018276 2.3509846e-38
1.2637583 -2.2145395 -1.0154012 2.3509848e-38
1.2288336 -2.215488 -1.0185161 2.3509848e-38
1.1782761 -2.2170978 -1.016443 2.3509849e-38
1.1635526 -2.2177093 -1.0118535 2.3509849e-38
1.1239324 -2.2188792 -1.0127723 2.3509851e-38
1.083751 -2.2199118 -1.0179971 2.3509851e-38
1.0436393 -2.2205286 -1.0347363 2.3509852e-38
1.003873 -2.2223704 -1.0170707 2.3509853e-38
0.96840549 -2.223316 -1.0207285 2.3509853e-38
0.92161882 -2.2247386 -1.0206614 2.3509855e-38
0.86315018 -2.2266135 -1.017891 2.3509855e-38
0.82445157 -2.2276685 -1.0212365 2.3509856e-38
0.77662534 -2.2292049 -1.0188886 2.3509856e-38
0.76004338 -2.2298903 -1.0138263 2.3509858e-38
0.71040702 -2.2314258 -1.0130255 2.3509858e-38
0.68501115 -2.2319336 -1.0203612 2.3509859e-38
0.64141774 -2.2331774 -1.0225801 2.3509859e-38
0.59435624 -2.2346213 -1.0221676 2.350986e-38
0.54106069 -2.2362833 -1.0209453 2.350986e-38
0.50676566 -2.2372558 -1.022861 2.3509862e-38
0.4568342 -2.2388418 -1.0209198 2.3509862e-38
0.41876477 -2.2398858 -1.0240366 2.3509863e-38
0.36826524 -2.2414622 -1.0228307 2.3509865e-38
0.33740342 -2.2423284 -1.0248063 2.3509865e-38
0.31813845 -2.2431133 -1.0192319 2.3509866e-38
0.2843821 -2.2440357 -1.0220906 2.3509866e-38
0.24242151 -2.2451544 -1.0264087 2.3509867e-38
0.1949608 -2.2466397 -1.025183 2.3509867e-38
0.15482536 -2.2477727 -1.0275594 2.3509869e-38
0.10655788 -2.2493188 -1.0253263 2.3509869e-38
0.073192395 -2.2502234 -1.0283458 2.350987e-38
0.015184592 -2.2520435 -1.0267081 2.350987e-38
-0.019674554 -2.25299 -1.0298188 2.3509872e-38
-0.062615812 -2.2544339 -1.0259259 2.3509872e-38
-0.1057917 -2.2555854 -1.0303572 2.3509873e-38
-0.12439924 -2.2563124 -1.0258529 2.3509873e-38
-0.15656319 -2.2571831 -1.0287991 2.3509874e-38
-0.20698062 -2.2587399 -1.0280731 2.3509876e-38
-0.24356481 -2.259835 -1.0285082 2.3509876e-38
-0.2614845 -2.2605107 -1.0248452 2.3509877e-38
-0.29967713 -2.2615104 -1.0293031 2.3509877e-38
-0.34405184 -2.2626991 -1.0337083 2.3509879e-38
-0.35296902 -2.2630706 -1.0309134 2.3509879e-38
-0.37209669 -2.2637391 -1.0284661 2.350988e-38
-0.41259784 -2.264874 -1.0311068 2.350988e-38
-0.42392945 -2.2654204 -1.0254638 2.3509881e-38
1.0952845 -2.2842464 0.78369403 2.3509881e-38
1.049271 -2.2833765 0.7205497 2.3509883e-38
0.95393264 -2.2897427 0.81724745 2.3509883e-38
1.0605618 -2.2880213 0.85947585 2.3509884e-38
