# .PCD v0.7 - Point Cloud Data file format
VERSION 0.7
FIELDS x y z rgb
SIZE 4 4 4 4
TYPE F F F F
COUNT 1 1 1 1
WIDTH 170
HEIGHT 1
VIEWPOINT 0 0 0 1 0 0 0
POINTS 170
DATA ascii
-2.4034383 -1.6581885 -0.73411906 2.3509528e-38
-2.4037631 -1.6578784 -0.74090493 2.350953e-38
-2.4009192 -1.6575015 -0.75822717 2.3509532e-38
-2.3979399 -1.6569865 -0.77936339 2.3509534e-38
-2.3972282 -1.6569365 -0.78259718 2.3509537e-38
-2.391175 -1.6572742 -0.79117805 2.3509538e-38
-2.3914709 -1.6579404 -0.77381623 2.3509541e-38
-2.3944132 -1.6581891 -0.75939602 2.3509542e-38
-2.3948696 -1.6595432 -0.7245096 2.3509545e-38
-2.4027507 -1.6596874 -0.69883877 2.3509547e-38
-2.4028788 -1.660306 -0.68312788 2.3509549e-38
-2.4075384 -1.6618183 -0.63253522 2.3509551e-38
-2.4069569 -1.6624459 -0.61858863 2.3509554e-38
-2.4053528 -1.6639366 -0.58608258 2.3509555e-38
-2.4101217 -1.6646882 -0.55406094 2.3509558e-38
-2.4113367 -1.6651876 -0.5382638 2.3509559e-38
-2.4118223 -1.6657937 -0.52185929 2.3509562e-38
-2.4137952 -1.6668134 -0.4910191 2.3509563e-38
-2.4138279 -1.6687062 -0.44395074 2.3509566e-38
-2.4161842 -1.6697695 -0.41095391 2.3509568e-38
-2.4180448 -1.6708319 -0.37936562 2.350957e-38
-2.428761 -1.6717343 -0.32693824 2.3509572e-38
-2.4281986 -1.6723548 -0.3131088 2.3509575e-38
-2.4258969 -1.6744769 -0.26689637 2.3509576e-38
-2.4256051 -1.6758333 -0.23404337 2.3509579e-38
-2.4270923 -1.6769786 -0.20145032 2.350958e-38
-2.4356852 -1.6773107 -0.16912264 2.3509583e-38
-2.4334922 -1.6789088 -0.13560688 2.3509584e-38
-2.4339085 -1.6794635 -0.12067335 2.3509587e-38
-2.4368579 -1.679773 -0.10472309 2.3509589e-38
-2.437258 -1.680411 -0.087766044 2.3509591e-38
-2.4347289 -1.6818864 -0.058233596 2.3509593e-38
-2.4428101 -1.6823081 -0.025118507 2.3509596e-38
-2.4433873 -1.6835614 0.0076056048 2.3509597e-38
-2.448436 -1.6843008 0.04010842 2.35096e-38
-2.4403517 -1.6865636 0.073609434 2.3509601e-38
-2.4471912 -1.6870227 0.1041747 2.3509604e-38
-2.4466105 -1.6876875 0.11905005 2.3509605e-38
-2.4475648 -1.6888928 0.15164062 2.3509608e-38
-2.4521732 -1.6897446 0.18569869 2.350961e-38
-2.4507182 -1.6904966 0.2002807 2.3509612e-38
-2.4549851 -1.6920204 0.25006559 2.3509614e-38
-2.4615552 -1.6933501 0.30148053 2.3509617e-38
-2.4617651 -1.6938834 0.31530476 2.3509618e-38
-2.4584048 -1.6960683 0.36011377 2.3509621e-38
-2.4620659 -1.6970155 0.3938885 2.3509622e-38
-2.4643469 -1.6980907 0.42696849 2.3509625e-38
-2.4659419 -1.6991999 0.45896602 2.3509626e-38
-2.4658251 -1.7005329 0.49172446 2.3509629e-38
-2.4691722 -1.7020181 0.53796923 2.3509631e-38
-2.4847722 -1.7010727 0.55822504 2.3509633e-38
-2.4896846 -1.7007705 0.56449676 2.3509635e-38
-2.5224872 -1.6970638 0.56443304 2.3509638e-38
-2.5449266 -1.6945128 0.56401515 2.3509639e-38
-2.5697968 -1.691916 0.56926405 2.3509642e-38
-2.6040273 -1.6889925 0.5926491 2.3509643e-38
-2.6342487 -1.6857213 0.59616113 2.3509646e-38
-2.6543548 -1.6836193 0.6003418 2.3509647e-38
-2.6911588 -1.6794113 0.59905863 2.350965e-38
-2.7272618 -1.6741042 0.56852674 2.3509652e-38
-2.7518127 -1.670941 0.55882847 2.3509654e-38
-2.7753053 -1.6682372 0.55756521 2.3509656e-38
-2.8105252 -1.6646688 0.567716 2.3509659e-38
-2.8386068 -1.6605924 0.54524511 2.350966e-38
-2.8786261 -1.6557716 0.5377593 2.3509663e-38
-2.913764 -1.6519347 0.5410133 2.3509664e-38
-2.9231112 -1.650996 0.54391444 2.3509667e-38
-2.942301 -1.6491437 0.5517233 2.3509668e-38
-2.9548354 -1.6473992 0.54356164 2.3509671e-38
-2.9581084 -1.6457138 0.51090366 2.3509673e-38
-2.9328737 -1.6460567 0.44868544 2.3509675e-38
-2.9414887 -1.6424727 0.38387752 2.3509677e-38
-2.9385753 -1.6424794 0.37587801 2.350968e-38
-2.9319174 -1.6400242 0.29627666 2.3509681e-38
-2.9481382 -1.6373644 0.27572492 2.3509684e-38
-2.9590321 -1.6355393 0.2609584 2.3509685e-38
-2.9577961 -1.634415 0.22959328 2.3509688e-38
-2.9425547 -1.6352847 0.20845532 2.3509689e-38
-2.8466246 -1.6434538 0.14234152 2.3509692e-38
-2.8434303 -1.6394353 0.033646457 2.3509694e-38
-2.8454783 -1.6386983 0.021096356 2.3509696e-38
-2.8374991 -1.639303 0.01374156 2.3509698e-38
-2.8187921 -1.6407088 -0.0037994161 2.3509701e-38
-2.790432 -1.6409402 -0.077544488 2.3509702e-38
-2.7959754 -1.6391205 -0.10717154 2.3509705e-38
-2.7875872 -1.6393293 -0.12550268 2.3509706e-38
-2.7703664 -1.6378678 -0.2100417 2.3509709e-38
-2.7765236 -1.6347651 -0.26979068 2.350971e-38
-2.7849119 -1.6332693 -0.28340852 2.3509713e-38
-2.7930739 -1.6317878 -0.29730111 2.3509715e-38
-2.7990134 -1.6305676 -0.3109408 2.3509717e-38
-2.8057957 -1.6292459 -0.32473281 2.3509719e-38
-2.812058 -1.6261557 -0.38388091 2.3509722e-38
-2.8170269 -1.6237073 -0.43072072 2.3509723e-38
-2.8222501 -1.6225693 -0.44432509 2.3509726e-38
-2.829926 -1.6211693 -0.45755985 2.3509727e-38
-2.9539359 -1.6080593 -0.43537116 2.350973e-38
-2.9623697 -1.6085466 -0.39963755 2.3509731e-38
-2.9635746 -1.6096944 -0.36777383 2.3509734e-38
-2.9664822 -1.6100518 -0.35075548 2.3509736e-38
-2.9853566 -1.6095281 -0.31085172 2.3509738e-38
-2.9968519 -1.6095643 -0.2777341 2.350974e-38
-2.9982171 -1.6100699 -0.26135752 2.3509743e-38
-2.9981554 -1.6107028 -0.24582246 2.3509744e-38
-3.0063624 -1.6115415 -0.20200285 2.3509747e-38
-3.002897 -1.6128851 -0.17836431 2.3509748e-38
-3.0037119 -1.6129068 -0.17554492 2.3509751e-38
-3.0068684 -1.6133302 -0.15618709 2.3509752e-38
-3.006521 -1.6139417 -0.14199105 2.3509755e-38
-3.0068223 -1.6145973 -0.124869 2.3509757e-38
-3.0074904 -1.6148773 -0.11604742 2.3509759e-38
-3.0086358 -1.6161304 -0.081739463 2.3509761e-38
-2.982569 -1.6211572 -0.030029058 2.3509764e-38
-2.9867244 -1.623111 0.030111514 2.3509765e-38
-2.985666 -1.6234875 0.03648714 2.3509768e-38
-3.0093112 -1.6217941 0.06073191 2.3509769e-38
-3.0135736 -1.6215276 0.066062786 2.3509772e-38
-3.0215588 -1.6208751 0.072247304 2.3509774e-38
-3.0467341 -1.6176884 0.063717075 2.3509776e-38
-3.0833366 -1.6121042 0.027704321 2.3509778e-38
-3.0807152 -1.6121716 0.022032209 2.3509781e-38
-3.0441098 -1.6121855 -0.080219962 2.3509782e-38
-3.0572217 -1.6072415 -0.16617805 2.3509785e-38
-3.0620742 -1.6060903 -0.18115214 2.3509786e-38
-3.0651207 -1.6047137 -0.20677984 2.3509789e-38
-3.0641117 -1.6043336 -0.21904033 2.350979e-38
-3.0572286 -1.6029928 -0.2716133 2.3509793e-38
-3.0534825 -1.6027734 -0.28755298 2.3509795e-38
-3.0463367 -1.6034521 -0.29074118 2.3509797e-38
-2.9941356 -1.6064922 -0.36159697 2.3509799e-38
-2.9944212 -1.6059796 -0.37351754 2.3509802e-38
-2.9910798 -1.6054301 -0.39652029 2.3509803e-38
-2.9875326 -1.6049286 -0.41890928 2.3509806e-38
-2.9878888 -1.6040752 -0.43909678 2.3509807e-38
-2.991518 -1.6026056 -0.46539831 2.350981e-38
-2.9963701 -1.6015226 -0.47867572 2.3509811e-38
-2.9970977 -1.6008902 -0.49233428 2.3509814e-38
-2.9890964 -1.6003649 -0.5277968 2.3509816e-38
-2.9887486 -1.6000602 -0.53633368 2.3509818e-38
-2.9890254 -1.5994917 -0.54966837 2.350982e-38
-2.993979 -1.598148 -0.56913435 2.3509823e-38
-2.9879498 -1.5978976 -0.59224439 2.3509824e-38
-2.9863427 -1.5976675 -0.60246074 2.3509827e-38
-3.0293298 -1.5892726 -0.69033921 2.3509828e-38
-3.0290668 -1.5886698 -0.7060405 2.3509831e-38
-2.9890752 -1.5935245 -0.69763494 2.3509832e-38
-2.97733 -1.5947754 -0.699507 2.3509835e-38
-2.935575 -1.6001563 -0.68298519 2.3509837e-38
-2.9268599 -1.6011721 -0.68220127 2.3509839e-38
-2.8325596 -1.6115273 -0.68949211 2.3509841e-38
-2.7584901 -1.6196306 -0.6959756 2.3509844e-38
-2.740005 -1.6218067 -0.69376874 2.3509845e-38
-2.6820602 -1.6286755 -0.68569946 2.3509848e-38
-2.6657171 -1.6307361 -0.68035996 2.3509849e-38
-2.6487601 -1.6327822 -0.67710412 2.3509852e-38
-2.6338482 -1.6345332 -0.67544055 2.3509853e-38
-2.6155581 -1.6366556 -0.67402959 2.3509856e-38
-2.5719504 -1.6418545 -0.66721332 2.3509858e-38
-2.5458958 -1.6448981 -0.66470015 2.350986e-38
-2.5174286 -1.6482189 -0.66206765 2.3509862e-38
-2.485034 -1.6522955 -0.65168297 2.3509865e-38
-2.4087422 -1.6592677 -0.69246113 2.3509866e-38
-2.9535925 -1.6016728 -0.5948503 2.3509869e-38
-2.843632 -1.6121335 -0.64341199 2.350987e-38
-2.8136046 -1.6164272 -0.62100649 2.3509873e-38
-2.8232224 -1.6192263 -0.52457219 2.3509874e-38
-2.8333557 -1.6188982 -0.50431889 2.3509877e-38
-2.9574661 -1.6064839 -0.46457845 2.3509879e-38
-2.9784558 -1.6024597 -0.50562817 2.3509881e-38
-2.98122 -1.6014242 -0.52358097 2.3509883e-38
