# .PCD v0.7 - Point Cloud Data file format
VERSION 0.7
FIELDS x y z rgb
SIZE 4 4 4 4
TYPE F F F F
COUNT 1 1 1 1
WIDTH 158
HEIGHT 1
VIEWPOINT 0 0 0 1 0 0 0
POINTS 158
DATA ascii
-2.3145006 0.34959528 -1.1184373 2.3509528e-38
-2.3140261 0.31648734 -1.1164732 2.350953e-38
-2.308038 0.27130759 -1.115975 2.3509532e-38
-2.2933156 0.24678203 -1.120393 2.3509534e-38
-2.289407 0.23257616 -1.1210644 2.3509537e-38
-2.289268 0.19895142 -1.1189294 2.3509539e-38
-2.2896614 0.16453651 -1.1165252 2.3509541e-38
-2.2820339 0.11932997 -1.1166959 2.3509544e-38
-2.2754023 0.073038228 -1.1163884 2.3509545e-38
-2.2748127 0.039731614 -1.1144578 2.3509548e-38
-2.2713213 0.024861559 -1.1149157 2.3509551e-38
-2.2678237 -0.0071782842 -1.1142564 2.3509552e-38
-2.2687147 -0.024938203 -1.1127346 2.3509555e-38
-2.2685359 -0.040618904 -1.1117854 2.3509556e-38
-2.2608736 -0.086308792 -1.1119387 2.3509559e-38
-2.2562008 -0.13432364 -1.1107184 2.3509562e-38
-2.2597582 -0.15281281 -1.108059 2.3509563e-38
-2.258606 -0.18645373 -1.1063373 2.3509566e-38
-2.2580295 -0.2203766 -1.1043615 2.3509569e-38
-2.261441 -0.23880893 -1.1017655 2.350957e-38
-2.2634683 -0.27301061 -1.0987076 2.3509573e-38
-2.267554 -0.29282704 -1.0957459 2.3509575e-38
-2.2842305 -0.26858765 -1.0905106 2.3509577e-38
-2.2876954 -0.22096926 -1.0921986 2.350958e-38
-2.3058913 -0.17809623 -1.0875571 2.3509582e-38
-2.3129134 -0.16721492 -1.0853965 2.3509584e-38
-2.318768 -0.1226993 -1.0859056 2.3509586e-38
-2.3260252 -0.10718063 -1.0839512 2.3509589e-38
-2.3293025 -0.092862971 -1.0835452 2.3509591e-38
-2.3322721 -0.078293391 -1.0832813 2.3509593e-38
-2.3332741 -0.061345793 -1.0839766 2.3509596e-38
-2.3386521 -0.015696235 -1.0847545 2.3509598e-38
-2.3426585 -0.00053427368 -1.0841055 2.35096e-38
-2.3397357 0.018464305 -1.0865388 2.3509603e-38
-2.338932 0.048744455 -1.088841 2.3509604e-38
-2.3407664 0.084822617 -1.0904429 2.3509607e-38
-2.3417842 0.11871036 -1.0922359 2.350961e-38
-2.3482885 0.16494125 -1.0925914 2.3509611e-38
-2.3498814 0.19731712 -1.094051 2.3509614e-38
-2.3550539 0.21146396 -1.0928593 2.3509615e-38
-2.3579814 0.22299883 -1.0924147 2.3509618e-38
-2.3668089 0.26915294 -1.0918157 2.3509621e-38
-2.3713906 0.28360057 -1.0908849 2.3509622e-38
-2.3739297 0.31684142 -1.0920142 2.3509625e-38
-2.3777299 0.32732466 -1.0911442 2.3509628e-38
-2.3839104 0.34040624 -1.0894715 2.3509629e-38
-2.3836157 0.37311095 -1.0917239 2.3509632e-38
-2.387367 0.40541458 -1.0922965 2.3509633e-38
-2.3913827 0.41865849 -1.0915186 2.3509636e-38
-2.3919563 0.48422563 -1.0955584 2.3509639e-38
-2.379266 0.52403688 -1.1033399 2.350964e-38
-2.3802676 0.55623066 -1.1050293 2.3509643e-38
-2.3908861 0.61037505 -1.104219 2.3509645e-38
-2.3902783 0.63409895 -1.1060138 2.3509647e-38
-2.392956 0.64700532 -1.1057608 2.350965e-38
-2.3880365 0.66863668 -1.1091814 2.3509652e-38
-2.3884325 0.70160973 -1.1111691 2.3509654e-38
-2.3885436 0.73409015 -1.113241 2.3509656e-38
-2.3841085 0.76992857 -1.1173898 2.3509659e-38
-2.3891311 0.79968047 -1.1172765 2.3509661e-38
-2.3897567 0.83305025 -1.1191962 2.3509663e-38
-2.3841002 0.85502446 -1.1229403 2.3509666e-38
-2.3908107 0.89944804 -1.1230938 2.3509668e-38
-2.3910253 0.93210733 -1.1251349 2.350967e-38
-2.3909574 0.96427763 -1.12726 2.3509673e-38
-2.3913085 0.99717307 -1.1292608 2.3509674e-38
-2.3892574 1.0316794 -1.1323481 2.3509677e-38
-2.391613 1.0623429 -1.1333847 2.350968e-38
-2.3975599 1.1087437 -1.1339788 2.3509681e-38
-2.3932559 1.1296903 -1.1371034 2.3509684e-38
-2.3992672 1.1749107 -1.1375943 2.3509685e-38
-2.4052711 1.1878299 -1.1359826 2.3509688e-38
-2.4058399 1.2211004 -1.1379191 2.3509691e-38
-2.4063396 1.2542517 -1.1398757 2.3509692e-38
-2.4124191 1.2995901 -1.1403468 2.3509695e-38
-2.4066362 1.3193411 -1.1439977 2.3509698e-38
-2.4075799 1.3532598 -1.145823 2.3509699e-38
-2.4017811 1.3739926 -1.1495447 2.3509702e-38
-2.4019473 1.4055082 -1.151531 2.3509703e-38
-2.4029346 1.4395131 -1.1533442 2.3509706e-38
-2.4079523 1.4548228 -1.1522915 2.3509709e-38
-2.4088252 1.4845645 -1.1538734 2.350971e-38
-2.4097886 1.518518 -1.1556933 2.3509713e-38
-2.4158101 1.5637558 -1.1561813 2.3509715e-38
-2.4223773 1.592649 -1.1553805 2.3509717e-38
-2.4196422 1.6042528 -1.1572548 2.350972e-38
-2.4144933 1.6315397 -1.1611379 2.3509722e-38
-2.4119427 1.6484895 -1.1632851 2.3509724e-38
-2.4120524 1.6838704 -1.1655468 2.3509727e-38
-2.4126976 1.7172738 -1.1674604 2.3509729e-38
-2.4078975 1.7391869 -1.1708508 2.3509731e-38
-2.4134994 1.7832357 -1.171433 2.3509733e-38
-2.419646 1.8286891 -1.1718837 2.3509736e-38
-2.4196293 1.8609486 -1.1739933 2.3509738e-38
-2.4200392 1.8939446 -1.1759768 2.350974e-38
-2.4230776 1.90813 -1.17566 2.3509743e-38
-2.4261012 1.9366161 -1.1762811 2.3509744e-38
-2.4259715 1.938727 -1.1764716 2.3509747e-38
-2.422507 1.9711381 -1.1800005 2.350975e-38
-2.4272363 2.0057902 -1.1803266 2.3509751e-38
-2.4224586 2.0259225 -1.1835912 2.3509754e-38
-2.4223089 2.0593085 -1.1858289 2.3509757e-38
-2.4245391 2.0919592 -1.1870461 2.3509758e-38
-2.4104552 2.1306002 -1.1953207 2.3509761e-38
-2.3852768 2.1123414 -1.2044204 2.3509762e-38
-2.3629744 2.0927758 -1.2122598 2.3509765e-38
-2.3564456 2.0466616 -1.2119219 2.3509768e-38
-2.3506908 2.0341735 -1.2134594 2.3509769e-38
-2.3558567 2.013356 -1.2099915 2.3509772e-38
-2.355516 1.9804794 -1.2079873 2.3509774e-38
-2.3552935 1.9478065 -1.2059488 2.3509776e-38
-2.3525987 1.9155737 -1.2049487 2.3509779e-38
-2.3482137 1.868452 -1.2036692 2.3509781e-38
-2.347791 1.8354325 -1.2016895 2.3509783e-38
-2.3451726 1.8034328 -1.2006736 2.3509785e-38
-2.3415492 1.7575268 -1.199162 2.3509788e-38
-2.3358946 1.7132965 -1.1985899 2.350979e-38
-2.3410025 1.689469 -1.1949492 2.3509792e-38
-2.3356276 1.6472796 -1.1943953 2.3509795e-38
-2.3402765 1.6261749 -1.1911196 2.3509797e-38
-2.3421834 1.5916072 -1.1880872 2.3509799e-38
-2.3448215 1.5397085 -1.1836256 2.3509802e-38
-2.3457928 1.5096117 -1.1812668 2.3509803e-38
-2.3441534 1.473978 -1.1796136 2.3509806e-38
-2.3368096 1.4273605 -1.1795766 2.3509809e-38
-2.3367646 1.3940887 -1.1774261 2.350981e-38
-2.3299949 1.3494356 -1.1772819 2.3509813e-38
-2.3362479 1.32862 -1.1733693 2.3509814e-38
-2.333853 1.2963461 -1.1722443 2.3509817e-38
-2.3351982 1.2622297 -1.1694705 2.350982e-38
-2.3329844 1.2298707 -1.1682658 2.3509821e-38
-2.3299737 1.2189242 -1.1687827 2.3509824e-38
-2.3288746 1.1852182 -1.1670349 2.3509827e-38
-2.3341112 1.163486 -1.1634779 2.3509828e-38
-2.3336587 1.1304175 -1.1615072 2.3509831e-38
-2.3358638 1.0989326 -1.1585538 2.3509832e-38
-2.3325832 1.0639813 -1.1576159 2.3509835e-38
-2.3346798 1.0367026 -1.1549808 2.3509838e-38
-2.3321521 0.99843419 -1.1535194 2.3509839e-38
-2.3311114 0.96623242 -1.1518456 2.3509842e-38
-2.3374515 0.9457854 -1.1479218 2.3509844e-38
-2.3301291 0.89769471 -1.1477791 2.3509846e-38
-2.3312368 0.86792636 -1.1453859 2.3509849e-38
-2.3297987 0.83402073 -1.1437635 2.3509851e-38
-2.3342032 0.81585944 -1.1407795 2.3509853e-38
-2.3273664 0.76852357 -1.1404879 2.3509856e-38
-2.3245585 0.75697768 -1.1408827 2.3509858e-38
-2.3296363 0.73600817 -1.1374409 2.350986e-38
-2.3364708 0.71632618 -1.1333644 2.3509862e-38
-2.3365769 0.68390316 -1.1312077 2.3509865e-38
-2.3310907 0.63680971 -1.1303797 2.3509867e-38
-2.3307984 0.60627168 -1.1285084 2.3509869e-38
-2.3276525 0.57196653 -1.127558 2.3509872e-38
-2.3232682 0.55922639 -1.1285192 2.3509873e-38
-2.3164086 0.51166201 -1.128222 2.3509876e-38
-2.318301 0.46179479 -1.124198 2.3509879e-38
-2.31621 0.41761672 -1.1221728 2.350988e-38
-2.3146715 0.3821786 -1.1204913 2.3509883e-38
