# .PCD v0.7 - Point Cloud Data file format
VERSION 0.7
FIELDS x y z rgb
SIZE 4 4 4 4
TYPE F F F F
COUNT 1 1 1 1
WIDTH 86
HEIGHT 1
VIEWPOINT 0 0 0 1 0 0 0
POINTS 86
DATA ascii
0.18623966 1.3403639 0.88361448 2.3509528e-38
0.22422121 1.335979 0.88399076 2.3509531e-38
0.2403729 1.3367989 0.88385469 2.3509535e-38
0.27798191 1.3331261 0.88415354 2.3509539e-38
0.31410885 1.3358479 0.88375163 2.3509544e-38
0.32983828 1.3354908 0.88374662 2.3509548e-38
0.36145785 1.3434286 0.88278234 2.3509552e-38
0.37390688 1.3503426 0.88198483 2.3509556e-38
0.4052738 1.360862 0.88073671 2.3509561e-38
0.41897514 1.3647374 0.88027078 2.3509565e-38
0.44950479 1.3761269 0.8789289 2.3509569e-38
0.46207577 1.380036 0.87846255 2.3509573e-38
0.48941192 1.3996141 0.87622696 2.3509577e-38
0.53197438 1.4180521 0.8740741 2.3509582e-38
0.5416103 1.4296582 0.87276727 2.3509586e-38
0.57169372 1.4530259 0.8701061 2.350959e-38
0.588144 1.476371 0.86748606 2.3509594e-38
0.60673672 1.5045637 0.8643254 2.3509598e-38
0.62476385 1.5307134 0.86139154 2.3509603e-38
0.64294517 1.559087 0.85821199 2.3509607e-38
0.6460622 1.5743364 0.85652208 2.3509611e-38
0.65821105 1.597656 0.85391676 2.3509615e-38
0.66142398 1.6160254 0.85188246 2.3509619e-38
0.66954595 1.6368908 0.84955931 2.3509624e-38
0.6769082 1.6568923 0.84733325 2.3509628e-38
0.68138063 1.6779255 0.84500188 2.3509632e-38
0.68007946 1.6914116 0.84351867 2.3509636e-38
0.67790657 1.721108 0.84025073 2.350964e-38
0.67574483 1.7537616 0.83665687 2.3509645e-38
0.67433161 1.7873766 0.83295488 2.3509647e-38
0.68021458 1.8071202 0.83076143 2.3509652e-38
0.67352879 1.8199701 0.8293637 2.3509656e-38
0.66684616 1.8328203 0.82796574 2.350966e-38
0.66001052 1.8456441 0.82657117 2.3509664e-38
0.65100616 1.8469421 0.82645345 2.3509668e-38
0.64195567 1.8375008 0.82751989 2.3509673e-38
0.63020456 1.8286811 0.82852554 2.3509677e-38
0.60572469 1.8043826 0.8312735 2.3509681e-38
0.59324545 1.7978227 0.83203179 2.3509685e-38
0.58812404 1.7930205 0.83257568 2.3509689e-38
0.52669644 1.757318 0.83668512 2.3509694e-38
0.48823789 1.7581221 0.83670509 2.3509698e-38
0.47083366 1.7660875 0.83587599 2.3509702e-38
0.44533679 1.7668689 0.8358618 2.3509706e-38
0.42685747 1.773617 0.83516997 2.350971e-38
0.37798184 1.8328754 0.82877463 2.3509715e-38
0.37489811 1.8467067 0.82725847 2.3509719e-38
0.35704502 1.8551532 0.82637757 2.3509723e-38
0.33307675 1.8581679 0.82611275 2.3509727e-38
0.31417507 1.8641856 0.82550257 2.3509731e-38
0.30217087 1.8433743 0.82783103 2.3509736e-38
0.16636059 1.8401917 0.828565 2.350974e-38
0.14857993 1.8443511 0.82815647 2.3509744e-38
0.10609134 1.8883023 0.82343084 2.3509748e-38
0.075913131 1.9057719 0.82158989 2.3509752e-38
0.064254791 1.8996342 0.82229942 2.3509757e-38
0.050677262 1.8925643 0.8231172 2.3509761e-38
0.016265854 1.8584417 0.82697624 2.3509765e-38
-0.032183021 1.8499026 0.82805431 2.3509768e-38
-0.050897691 1.8526103 0.82780862 2.3509772e-38
-0.086377539 1.8543774 0.82771385 2.3509776e-38
-0.12032068 1.8203366 0.83156258 2.3509781e-38
-0.12792489 1.8010894 0.83370614 2.3509785e-38
-0.13329446 1.7793394 0.83611923 2.3509789e-38
-0.13775517 1.7622061 0.83802062 2.3509793e-38
-0.13408662 1.7141336 0.84331036 2.3509797e-38
-0.1246161 1.6694653 0.84820813 2.3509802e-38
-0.12296331 1.6371751 0.85176355 2.3509806e-38
-0.11619795 1.6242151 0.8531732 2.350981e-38
-0.10942335 1.5782577 0.85822093 2.3509814e-38
-0.093350828 1.5544993 0.86079484 2.3509818e-38
-0.086117961 1.5409002 0.86227369 2.3509823e-38
-0.07842733 1.5284301 0.86362684 2.3509827e-38
-0.070522085 1.5157931 0.86499786 2.3509831e-38
-0.057138577 1.4900955 0.86779326 2.3509835e-38
-0.03126619 1.4712777 0.86979491 2.3509839e-38
-0.021731235 1.4592223 0.87109697 2.3509844e-38
0.0045333952 1.4401755 0.87312293 2.3509848e-38
0.021553732 1.4150442 0.87584561 2.3509852e-38
0.048072286 1.3974956 0.87770551 2.3509856e-38
0.067379013 1.3891357 0.87857258 2.350986e-38
0.07847932 1.3817008 0.87936115 2.3509865e-38
0.095941544 1.3698032 0.88062352 2.3509869e-38
0.11457247 1.3641949 0.88118917 2.3509873e-38
0.1385299 1.3584446 0.88175559 2.3509877e-38
0.16978176 1.3451284 0.8831355 2.3509881e-38
