# .PCD v0.7 - Point Cloud Data file format
VERSION 0.7
FIELDS x y z rgb
SIZE 4 4 4 4
TYPE F F F F
COUNT 1 1 1 1
WIDTH 364
HEIGHT 1
VIEWPOINT 0 0 0 1 0 0 0
POINTS 364
DATA ascii
-1.7092153 2.741322 -1.0680172 2.3509528e-38
-1.7244329 2.740608 -1.0649893 2.3509528e-38
-1.7871085 2.7352407 -1.0246687 2.350953e-38
-1.8000405 2.7332735 -1.0064892 2.3509531e-38
-1.7890203 2.732281 -0.99138057 2.3509531e-38
-1.7611517 2.7305431 -0.96202266 2.3509532e-38
-1.7591563 2.7255151 -0.90369952 2.3509534e-38
-1.7614527 2.7248402 -0.89673519 2.3509534e-38
-1.7569133 2.7240403 -0.88603294 2.3509535e-38
-1.7541236 2.7211661 -0.85213482 2.3509537e-38
-1.7673773 2.7178826 -0.81897604 2.3509538e-38
-1.7974781 2.7142966 -0.78805411 2.3509538e-38
-1.7816122 2.7084019 -0.71509457 2.3509539e-38
-1.7729464 2.7034168 -0.65500933 2.3509541e-38
-1.778357 2.701704 -0.6372031 2.3509541e-38
-1.7791055 2.6959231 -0.57117617 2.3509542e-38
-1.7699759 2.6937876 -0.54360455 2.3509544e-38
-1.7655755 2.6915312 -0.51624084 2.3509544e-38
-1.7670506 2.6899297 -0.4983837 2.3509545e-38
-1.7733271 2.6875196 -0.47287595 2.3509547e-38
-1.7662117 2.6846788 -0.43789548 2.3509548e-38
-1.7666575 2.6815059 -0.40166739 2.3509548e-38
-1.767396 2.6801271 -0.38611269 2.3509549e-38
-1.7670499 2.6787913 -0.37067643 2.3509551e-38
-1.7683322 2.6767473 -0.3476786 2.3509551e-38
-1.7701721 2.6758189 -0.33766001 2.3509552e-38
-1.7685459 2.6751175 -0.32906753 2.3509554e-38
-1.7683585 2.6731927 -0.30693418 2.3509554e-38
-1.7679347 2.6716957 -0.2896266 2.3509555e-38
-1.7673352 2.6710615 -0.28215516 2.3509556e-38
-1.768048 2.6692846 -0.26201919 2.3509558e-38
-1.779972 2.6644316 -0.21041742 2.3509558e-38
-1.7750691 2.6611447 -0.1710726 2.3509559e-38
-1.7756876 2.6583226 -0.13893016 2.3509561e-38
-1.7758471 2.6580873 -0.13628504 2.3509561e-38
-1.794017 2.652714 -0.080831647 2.3509562e-38
-1.7843406 2.6500199 -0.046665758 2.3509563e-38
-1.7835208 2.6487551 -0.031893551 2.3509563e-38
-1.7887465 2.6456075 0.0024300367 2.3509565e-38
-1.7812119 2.6433063 0.031364813 2.3509566e-38
-1.7842664 2.6405118 0.062367141 2.3509568e-38
-1.7883389 2.6358259 0.1147148 2.3509568e-38
-1.7933007 2.6340921 0.13291416 2.3509569e-38
-1.786345 2.630487 0.17659751 2.350957e-38
-1.7895647 2.6287045 0.19594519 2.350957e-38
-1.7956531 2.6258254 0.2268929 2.3509572e-38
-1.8000201 2.623848 0.24808738 2.3509573e-38
-1.8009539 2.6226907 0.26104227 2.3509573e-38
-1.8057549 2.6209404 0.27948141 2.3509575e-38
-1.8123282 2.6179683 0.31133458 2.3509576e-38
-1.8114603 2.6164672 0.32883587 2.3509577e-38
-1.8114024 2.6150212 0.34543267 2.3509577e-38
-1.8038081 2.6127808 0.37368932 2.3509579e-38
-1.8059231 2.6102335 0.40217811 2.350958e-38
-1.8110231 2.6081979 0.42379245 2.350958e-38
-1.80925 2.6061027 0.44841212 2.3509582e-38
-1.8101329 2.6043081 0.4686901 2.3509583e-38
-1.8118258 2.6031728 0.48113376 2.3509583e-38
-1.8086394 2.600364 0.5144155 2.3509584e-38
-1.8091135 2.5999589 0.51889908 2.3509586e-38
-1.8100178 2.5981357 0.53949589 2.3509587e-38
-1.8092821 2.5979235 0.54218006 2.3509587e-38
-1.8054626 2.5951889 0.57482451 2.3509589e-38
-1.8056381 2.5906863 0.62638915 2.350959e-38
-1.8091555 2.5896392 0.63720202 2.350959e-38
-1.8163898 2.5866003 0.66959357 2.3509591e-38
-1.8143742 2.5859022 0.67828006 2.3509593e-38
-1.8067739 2.5845609 0.69623184 2.3509593e-38
-1.7878649 2.5825751 0.72539949 2.3509594e-38
-1.7857871 2.5821946 0.73046559 2.3509596e-38
-1.7728281 2.581893 0.73831058 2.3509597e-38
-1.7674042 2.5817003 0.74235362 2.3509597e-38
-1.7470622 2.5824308 0.74085987 2.3509598e-38
-1.6934348 2.5845773 0.73441005 2.35096e-38
-1.686249 2.5848272 0.73397785 2.35096e-38
-1.6645045 2.5851903 0.73717463 2.3509601e-38
-1.6117599 2.5857992 0.74805075 2.3509603e-38
-1.5718966 2.5862217 0.75669688 2.3509603e-38
-1.5630857 2.5861282 0.76075238 2.3509604e-38
-1.5535604 2.5864842 0.75989872 2.3509605e-38
-1.4997811 2.5873032 0.76871216 2.3509607e-38
-1.4141425 2.5868504 0.80289161 2.3509607e-38
-1.4087318 2.5873172 0.79937243 2.3509608e-38
-1.4017961 2.5879643 0.79430097 2.350961e-38
-1.3647256 2.5908651 0.77359223 2.350961e-38
-1.3518964 2.592732 0.75653183 2.3509611e-38
-1.3485432 2.5932357 0.75189006 2.3509612e-38
-1.3208635 2.5961974 0.72730345 2.3509612e-38
-1.3017627 2.5981994 0.71081787 2.3509614e-38
-1.2649047 2.6010876 0.69018292 2.3509615e-38
-1.1881212 2.6026497 0.6982621 2.3509617e-38
-1.1780775 2.6030679 0.69687063 2.3509617e-38
-1.1456144 2.6046684 0.6895119 2.3509618e-38
-1.0983033 2.6051698 0.69977999 2.3509619e-38
-1.0712575 2.6064105 0.69470698 2.3509619e-38
-1.0063913 2.6094942 0.68131006 2.3509621e-38
-0.98397768 2.6099129 0.68409777 2.3509622e-38
-0.95173514 2.6122828 0.66784495 2.3509622e-38
-0.91204071 2.6131818 0.67097127 2.3509624e-38
-0.86245692 2.6144664 0.67302442 2.3509625e-38
-0.84868348 2.6150799 0.67065775 2.3509626e-38
-0.83351243 2.6159577 0.66572881 2.3509626e-38
-0.75551814 2.6161592 0.68982005 2.3509628e-38
-0.7262674 2.615082 0.71207398 2.3509629e-38
-0.6989888 2.6132464 0.74235451 2.3509629e-38
-0.68313372 2.6131651 0.7486465 2.3509631e-38
-0.62958848 2.6138315 0.75913554 2.3509632e-38
-0.5833534 2.6097631 0.82143116 2.3509632e-38
-0.57863325 2.6085038 0.83747208 2.3509633e-38
-0.52678227 2.6063735 0.87944508 2.3509635e-38
-0.51998413 2.604903 0.89860404 2.3509636e-38
-0.50889492 2.6032002 0.92187977 2.3509636e-38
-0.48258257 2.6032758 0.92992413 2.3509638e-38
-0.44036177 2.6043835 0.93151516 2.3509639e-38
-0.40684813 2.603704 0.95064968 2.3509639e-38
-0.35809046 2.6054566 0.94706368 2.350964e-38
-0.31628564 2.6080086 0.93195564 2.3509642e-38
-0.26701126 2.6093018 0.9338116 2.3509642e-38
-0.25715184 2.6098192 0.93121547 2.3509643e-38
-0.23853822 2.6107728 0.92658311 2.3509645e-38
-0.21087855 2.6115892 0.9265852 2.3509646e-38
-0.19641459 2.6123276 0.92301637 2.3509646e-38
-0.18328379 2.6129465 0.92036068 2.3509647e-38
-0.17511404 2.6133063 0.91900754 2.3509649e-38
-0.16104329 2.6138415 0.91763335 2.3509649e-38
-0.15666167 2.6143606 0.9131614 2.350965e-38
-0.14613008 2.6156497 0.90195096 2.3509652e-38
-0.14800724 2.6179602 0.87482399 2.3509652e-38
-0.1473248 2.6192987 0.85970932 2.3509653e-38
-0.15141633 2.6214952 0.83314025 2.3509654e-38
-0.15114322 2.6231134 0.81468475 2.3509656e-38
-0.14926857 2.6244621 0.7998541 2.3509656e-38
-0.1499285 2.6259186 0.78293151 2.3509657e-38
-0.15801954 2.6297832 0.73588562 2.3509659e-38
-0.15720943 2.6313143 0.71860319 2.3509659e-38
-0.15563579 2.6326702 0.70359254 2.350966e-38
-0.15680522 2.6339488 0.68853652 2.3509661e-38
-0.15771058 2.6351998 0.6738888 2.3509661e-38
-0.1584509 2.6365547 0.65810448 2.3509663e-38
-0.15656301 2.6382358 0.63946265 2.3509664e-38
-0.15744126 2.6393459 0.62644619 2.3509666e-38
-0.16481425 2.6419837 0.59370482 2.3509666e-38
-0.16464782 2.6432719 0.57899159 2.3509667e-38
-0.16362861 2.6447034 0.56292486 2.3509668e-38
-0.16382033 2.6458189 0.55006719 2.3509668e-38
-0.16228555 2.6476479 0.5296225 2.350967e-38
-0.16104701 2.6486886 0.5181073 2.3509671e-38
-0.16314474 2.6501782 0.50031728 2.3509671e-38
-0.16156062 2.6527572 0.47129136 2.3509673e-38
-0.16284682 2.6542802 0.45339149 2.3509674e-38
-0.16626057 2.6556847 0.43613249 2.3509675e-38
-0.16356806 2.6584918 0.40485471 2.3509675e-38
-0.16512415 2.6599107 0.38806444 2.3509677e-38
-0.16176206 2.6652939 0.32748044 2.3509678e-38
-0.16323513 2.6668444 0.30921173 2.3509678e-38
-0.16214302 2.6683636 0.29216352 2.350968e-38
-0.16503671 2.6707995 0.26325566 2.3509681e-38
-0.17854469 2.6715901 0.24961758 2.3509681e-38
-0.18559656 2.6697123 0.26875657 2.3509682e-38
-0.24961175 2.6640093 0.31247425 2.3509684e-38
-0.30384749 2.6625454 0.31089821 2.3509685e-38
-0.3353138 2.6616714 0.31026623 2.3509685e-38
-0.38824862 2.660533 0.3053965 2.3509687e-38
-0.40382111 2.6595759 0.31109878 2.3509688e-38
-0.43029833 2.658421 0.31538138 2.3509688e-38
-0.47232074 2.6575434 0.31121352 2.3509689e-38
-0.49271005 2.6577938 0.30144513 2.3509691e-38
-0.55077392 2.6557159 0.30560702 2.3509691e-38
-0.5924899 2.6544504 0.30599743 2.3509692e-38
-0.65253806 2.6597345 0.22508395 2.3509694e-38
-0.65335399 2.6605608 0.21533886 2.3509695e-38
-0.68837446 2.6619873 0.18712822 2.3509695e-38
-0.71989226 2.6614463 0.18266085 2.3509696e-38
-0.75535166 2.6578581 0.21179688 2.3509698e-38
-0.79735929 2.6487842 0.30160987 2.3509698e-38
-0.87234825 2.6471612 0.29483074 2.3509699e-38
-0.91596192 2.6553268 0.18644857 2.3509701e-38
-0.92456377 2.6602485 0.12710842 2.3509701e-38
-0.95271319 2.6608214 0.11101004 2.3509702e-38
-0.96740812 2.6600306 0.11510392 2.3509703e-38
-0.9716962 2.6596115 0.11845965 2.3509705e-38
-0.98543942 2.6579552 0.13279602 2.3509705e-38
-1.0290091 2.655231 0.1492762 2.3509706e-38
-1.0385724 2.653918 0.16109353 2.3509708e-38
-1.0470049 2.6519177 0.18117592 2.3509708e-38
-1.0428102 2.6492751 0.21289122 2.3509709e-38
-1.1289234 2.64047 0.28469178 2.350971e-38
-1.2035021 2.6444659 0.2136324 2.3509712e-38
-1.191662 2.648752 0.16850191 2.3509712e-38
-1.2068665 2.6492388 0.15777428 2.3509713e-38
-1.2149959 2.6494942 0.15209123 2.3509715e-38
-1.2369262 2.6492784 0.14714497 2.3509715e-38
-1.2564207 2.6487322 0.14680587 2.3509716e-38
-1.2948333 2.647603 0.14675058 2.3509717e-38
-1.329865 2.6481309 0.12883897 2.3509717e-38
-1.3421831 2.6472721 0.13451764 2.3509719e-38
-1.446086 2.6518133 0.04727377 2.350972e-38
-1.4351457 2.6566277 -0.0042195171 2.3509722e-38
-1.4133102 2.6604617 -0.040783405 2.3509722e-38
-1.4150068 2.6636746 -0.078193456 2.3509723e-38
-1.4153303 2.6665173 -0.11089405 2.3509724e-38
-1.4172534 2.6697891 -0.14905602 2.3509724e-38
-1.4051033 2.6739976 -0.19319643 2.3509726e-38
-1.4153664 2.6764197 -0.22443756 2.3509727e-38
-1.3801817 2.6840048 -0.29948899 2.3509727e-38
-1.3554515 2.6886709 -0.34461987 2.3509729e-38
-1.3469294 2.6895025 -0.35126865 2.350973e-38
-1.319906 2.6922357 -0.37345797 2.3509731e-38
-1.3288957 2.6929111 -0.38424414 2.3509731e-38
-1.3499438 2.6942053 -0.40620649 2.3509733e-38
-1.358569 2.6949151 -0.41726571 2.3509734e-38
-1.3885704 2.6986232 -0.4699344 2.3509734e-38
-1.3250759 2.7095442 -0.57365203 2.3509736e-38
-1.3168478 2.7097702 -0.57345766 2.3509737e-38
-1.3083668 2.7100141 -0.57337993 2.3509737e-38
-1.2978066 2.7104833 -0.57518452 2.3509738e-38
-1.2875236 2.7158651 -0.63340658 2.350974e-38
-1.2878649 2.7172017 -0.64884484 2.3509741e-38
-1.2875289 2.7185862 -0.66460252 2.3509741e-38
-1.2907039 2.7213566 -0.69744498 2.3509743e-38
-1.2861369 2.7243526 -0.7302472 2.3509744e-38
-1.284025 2.7259803 -0.74818933 2.3509744e-38
-1.235301 2.7338107 -0.82147491 2.3509745e-38
-1.2250021 2.7343876 -0.82460713 2.3509747e-38
-1.1991252 2.7352316 -0.82552195 2.3509747e-38
-1.1849328 2.7356184 -0.82514644 2.3509748e-38
-1.1485981 2.7361417 -0.81884956 2.350975e-38
-1.0938011 2.7384515 -0.82677948 2.3509751e-38
-1.0567911 2.739255 -0.82347035 2.3509751e-38
-1.015738 2.7403455 -0.82206726 2.3509752e-38
-1.0026426 2.7410953 -0.82623124 2.3509754e-38
-0.95944518 2.7429633 -0.83302462 2.3509754e-38
-0.91747415 2.7427666 -0.8165679 2.3509755e-38
-0.90110385 2.7443607 -0.82929885 2.3509757e-38
-0.87603247 2.7460854 -0.84058392 2.3509757e-38
-0.82636708 2.7470798 -0.83517158 2.3509758e-38
-0.77784097 2.7497547 -0.8494128 2.3509759e-38
-0.76372629 2.7503839 -0.85185146 2.3509761e-38
-0.72787762 2.7510769 -0.847664 2.3509761e-38
-0.71112585 2.7521243 -0.85400057 2.3509762e-38
-0.65803385 2.7537224 -0.85434997 2.3509764e-38
-0.60238266 2.7557471 -0.85872293 2.3509764e-38
-0.56079251 2.7569821 -0.8588053 2.3509765e-38
-0.52610469 2.7571228 -0.84867537 2.3509767e-38
-0.46348947 2.7572699 -0.82916355 2.3509767e-38
-0.4066819 2.7598197 -0.83916903 2.3509768e-38
-0.37775409 2.7597821 -0.82894385 2.3509769e-38
-0.35174683 2.7596347 -0.81845522 2.3509771e-38
-0.27603158 2.7545719 -0.73477089 2.3509771e-38
-0.27500165 2.7510517 -0.69406569 2.3509772e-38
-0.26216689 2.7462277 -0.63441288 2.3509774e-38
-0.25499797 2.745939 -0.62867957 2.3509774e-38
-0.21874015 2.7477827 -0.63754308 2.3509775e-38
-0.18209696 2.7509201 -0.66111147 2.3509776e-38
-0.17043015 2.7538192 -0.69039863 2.3509776e-38
-0.17488694 2.7581842 -0.74194741 2.3509778e-38
-0.17767441 2.7596159 -0.7593078 2.3509779e-38
-0.17522928 2.7624264 -0.79070318 2.3509781e-38
-0.17486349 2.766762 -0.84029031 2.3509781e-38
-0.17177591 2.7679896 -0.85331774 2.3509782e-38
-0.17446053 2.7693641 -0.86998773 2.3509783e-38
-0.16944721 2.7722354 -0.90120375 2.3509783e-38
-0.18087737 2.7743888 -0.92976439 2.3509785e-38
-0.1816293 2.776824 -0.95793939 2.3509786e-38
-0.17869954 2.7782056 -0.9727881 2.3509786e-38
-0.18727078 2.7793 -0.9882369 2.3509788e-38
-0.20722686 2.7789433 -0.99090314 2.3509789e-38
-0.21399587 2.7789359 -0.99311137 2.350979e-38
-0.23865187 2.7790594 -1.0028698 2.350979e-38
-0.24652416 2.7792168 -1.0073445 2.3509792e-38
-0.27913177 2.7780521 -1.0050249 2.3509793e-38
-0.31030738 2.776895 -1.0023149 2.3509793e-38
-0.31819895 2.7765505 -1.0010374 2.3509795e-38
-0.34835094 2.7757363 -1.0019075 2.3509796e-38
-0.36370069 2.7752042 -1.0010036 2.3509796e-38
-0.3727434 2.7748017 -0.99945223 2.3509797e-38
-0.3749162 2.7747097 -0.99913144 2.3509799e-38
-0.40359843 2.7739866 -1.0005481 2.35098e-38
-0.43751416 2.7727139 -0.99743617 2.35098e-38
-0.46492255 2.772166 -1.0004361 2.3509802e-38
-0.51828873 2.7721722 -1.0185729 2.3509803e-38
-0.56044286 2.7729392 -1.0416362 2.3509803e-38
-0.64748961 2.7667425 -1.000053 2.3509804e-38
-0.66591138 2.7666254 -1.0049467 2.3509806e-38
-0.69495249 2.7659132 -1.0066159 2.3509806e-38
-0.72419947 2.7662525 -1.020407 2.3509807e-38
-0.77569103 2.7642612 -1.0150088 2.3509809e-38
-0.83131415 2.7646873 -1.0387172 2.350981e-38
-0.88999617 2.762929 -1.0384256 2.350981e-38
-0.90172154 2.7627871 -1.0407679 2.3509811e-38
-0.90863538 2.7626529 -1.0415695 2.3509813e-38
-0.92468148 2.7620995 -1.040659 2.3509813e-38
-0.93378621 2.7611632 -1.0330061 2.3509814e-38
-0.99439669 2.7577426 -1.0143073 2.3509816e-38
-0.9981814 2.7576258 -1.014245 2.3509816e-38
-1.0171918 2.7572064 -1.0158744 2.3509817e-38
-1.0238168 2.7571697 -1.0176972 2.3509818e-38
-1.0309418 2.7570016 -1.018178 2.350982e-38
-1.0648199 2.7557728 -1.0155597 2.350982e-38
-1.0877826 2.7557485 -1.0230563 2.3509821e-38
-1.1129528 2.7563386 -1.0383457 2.3509823e-38
-1.1403544 2.7566969 -1.051726 2.3509823e-38
-1.1527261 2.755862 -1.0463421 2.3509824e-38
-1.1844678 2.754643 -1.0431125 2.3509825e-38
-1.2220184 2.7545166 -1.0543735 2.3509825e-38
-1.2272947 2.7544293 -1.0551608 2.3509827e-38
-1.2411242 2.7541203 -1.0562938 2.3509828e-38
-1.2512766 2.7538221 -1.0563134 2.350983e-38
-1.3123271 2.7512441 -1.0474215 2.350983e-38
-1.319364 2.7512565 -1.0499475 2.3509831e-38
-1.3534466 2.7496088 -1.0425948 2.3509832e-38
-1.365279 2.7491574 -1.0414281 2.3509832e-38
-1.4062277 2.7488754 -1.0520548 2.3509834e-38
-1.4164137 2.7491298 -1.0584193 2.3509835e-38
-1.4234697 2.7491069 -1.0605471 2.3509835e-38
-1.4517666 2.7484143 -1.0621831 2.3509837e-38
-1.4599823 2.7481399 -1.0618199 2.3509838e-38
-1.4846969 2.7470906 -1.058154 2.3509839e-38
-1.5594597 2.7450862 -1.0604844 2.3509839e-38
-1.5749062 2.7454844 -1.0702803 2.3509841e-38
-1.6000768 2.7457128 -1.081418 2.3509842e-38
-1.6605651 2.7436342 -1.0780613 2.3509842e-38
-1.6674505 2.7435308 -1.0792059 2.3509844e-38
-1.678409 2.7433662 -1.081027 2.3509845e-38
-1.7626628 2.6471601 -0.0065409541 2.3509845e-38
-1.7539161 2.6518755 -0.057645872 2.3509846e-38
-1.6225365 2.6571736 -0.073908836 2.3509848e-38
-1.7570233 2.6556687 -0.10218523 2.3509849e-38
-1.6195164 2.6615016 -0.12251589 2.3509849e-38
-1.638482 2.6768198 -0.30455452 2.3509851e-38
-1.5471343 2.6714399 -0.21194929 2.3509852e-38
-1.6000396 2.6644065 -0.14922561 2.3509852e-38
-1.6168811 2.6630373 -0.13922806 2.3509853e-38
-1.7530471 2.6582115 -0.129996 2.3509855e-38
-1.757318 2.6610634 -0.16413528 2.3509855e-38
-1.7531937 2.6644464 -0.20152481 2.3509856e-38
-1.7539325 2.6657403 -0.21661045 2.3509858e-38
-1.7549852 2.6679072 -0.24181011 2.3509859e-38
-1.7529436 2.6690052 -0.25370544 2.3509859e-38
-1.7728776 2.6368446 0.10826808 2.350986e-38
-1.7730006 2.635277 0.12619898 2.3509862e-38
-1.7751637 2.6322889 0.15972428 2.3509862e-38
-1.7745192 2.6309359 0.17545462 2.3509863e-38
-1.7747763 2.6306071 0.17913599 2.3509865e-38
-1.7750527 2.629576 0.19086522 2.3509865e-38
-1.7041582 2.6256251 0.26016247 2.3509866e-38
-1.6878194 2.625442 0.26779234 2.3509867e-38
-1.6818439 2.6254194 0.27007541 2.3509869e-38
-1.6632822 2.6255169 0.27523935 2.3509869e-38
-1.6563244 2.6255937 0.27671534 2.350987e-38
-1.6289858 2.6263866 0.27688029 2.3509872e-38
-1.6141981 2.6271744 0.27285486 2.3509872e-38
-1.5721707 2.6275992 0.28221208 2.3509873e-38
-1.5297992 2.6394465 0.16072494 2.3509874e-38
-1.5382264 2.6411643 0.13817732 2.3509874e-38
-1.5316129 2.6432312 0.1167206 2.3509876e-38
-1.5312014 2.6461575 0.083301991 2.3509877e-38
-1.5716624 2.6505427 0.019332886 2.3509879e-38
-1.6090256 2.6552198 -0.046939746 2.3509879e-38
-1.7717812 2.638232 0.092730328 2.350988e-38
-1.7687567 2.6405494 0.067183539 2.3509881e-38
-1.7652845 2.641804 0.053978518 2.3509881e-38
-1.7643956 2.6436956 0.032594547 2.3509883e-38
-1.7589298 2.6459806 0.0082467496 2.3509884e-38
