# .PCD v0.7 - Point Cloud Data file format
VERSION 0.7
FIELDS x y z rgb
SIZE 4 4 4 4
TYPE F F F F
COUNT 1 1 1 1
WIDTH 41
HEIGHT 1
VIEWPOINT 0 0 0 1 0 0 0
POINTS 41
DATA ascii
2.7375994 -0.86859262 1.050403 2.3509528e-38
2.7312391 -0.85616416 1.0531447 2.3509537e-38
2.7076659 -0.83807135 1.059901 2.3509545e-38
2.6860611 -0.83859992 1.0640105 2.3509554e-38
2.6172016 -0.80950487 1.0808549 2.3509562e-38
2.5902963 -0.79326916 1.0880289 2.3509572e-38
2.5812972 -0.79607433 1.089426 2.350958e-38
2.5457098 -0.79820502 1.0960417 2.3509589e-38
2.5334423 -0.8030616 1.0978205 2.3509597e-38
2.488025 -0.81142515 1.1055765 2.3509605e-38
2.4549866 -0.81112021 1.1119964 2.3509615e-38
2.450556 -0.85205317 1.1078696 2.3509624e-38
2.4557292 -0.89577818 1.101548 2.3509632e-38
2.4618213 -0.93933475 1.0950692 2.350964e-38
2.4671135 -0.98445958 1.0885539 2.350965e-38
2.4688132 -1.0161591 1.0843672 2.3509659e-38
2.4717371 -1.0308979 1.0820081 2.3509667e-38
2.4693768 -1.0661331 1.0781753 2.3509675e-38
2.4660208 -1.0974157 1.0750157 2.3509684e-38
2.4757383 -1.1123353 1.0713223 2.3509694e-38
2.4815576 -1.1250832 1.0686462 2.3509702e-38
2.486161 -1.1385263 1.0661206 2.350971e-38
2.5035257 -1.1456649 1.0618972 2.3509719e-38
2.5258577 -1.1533874 1.0566427 2.3509729e-38
2.5594094 -1.1666882 1.048542 2.3509737e-38
2.658206 -1.1731292 1.0286717 2.3509745e-38
2.6654253 -1.1838694 1.0259694 2.3509754e-38
2.6715121 -1.1939855 1.0235622 2.3509762e-38
2.6887851 -1.2374599 1.0149335 2.3509772e-38
2.7079949 -1.2440962 1.0104144 2.3509781e-38
2.7184632 -1.2181374 1.011552 2.3509789e-38
2.7252331 -1.1678314 1.0163677 2.3509797e-38
2.7414165 -1.1251351 1.0184385 2.3509807e-38
2.7475893 -1.1049705 1.0197003 2.3509816e-38
2.7567449 -1.083668 1.0205244 2.3509824e-38
2.7574949 -1.0515946 1.0242836 2.3509832e-38
2.7592378 -1.01902 1.0279123 2.3509841e-38
2.7530258 -0.97425175 1.0345616 2.3509851e-38
2.7469666 -0.92795914 1.0413672 2.3509859e-38
2.7503507 -0.89338779 1.0449215 2.3509867e-38
2.7435389 -0.88184601 1.0476421 2.3509876e-38
