# .PCD v0.7 - Point Cloud Data file format
VERSION 0.7
FIELDS x y z rgb
SIZE 4 4 4 4
TYPE F F F F
COUNT 1 1 1 1
WIDTH 44
HEIGHT 1
VIEWPOINT 0 0 0 1 0 0 0
POINTS 44
DATA ascii
2.6263921 2.2875032 0.73463273 2.3509528e-38
2.6201408 2.2790346 0.74236977 2.3509535e-38
2.5909765 2.270705 0.7483952 2.3509544e-38
2.5594196 2.2664213 0.75035417 2.3509552e-38
2.5430119 2.2643251 0.75124609 2.3509561e-38
2.5264919 2.2628064 0.75157356 2.3509568e-38
2.4839258 2.2518942 0.75916708 2.3509576e-38
2.4670041 2.2488794 0.76090997 2.3509584e-38
2.4503715 2.2472937 0.76129442 2.3509593e-38
2.4356148 2.2437596 0.76368672 2.3509601e-38
2.3973887 2.226476 0.77772367 2.3509608e-38
2.3795829 2.2101398 0.7922523 2.3509617e-38
2.3529472 2.1780095 0.82140517 2.3509625e-38
2.3505743 2.1616066 0.83706075 2.3509633e-38
2.3406248 2.1719027 0.82644659 2.3509642e-38
2.3346598 2.1781569 0.82000411 2.3509649e-38
2.3242686 2.1889381 0.80889171 2.3509657e-38
2.3147933 2.1988111 0.79871821 2.3509666e-38
2.3260541 2.2060194 0.7925415 2.3509674e-38
2.3474476 2.221684 0.77890736 2.3509682e-38
2.3804138 2.2421856 0.76140499 2.3509689e-38
2.3972635 2.2646675 0.74088323 2.3509698e-38
2.4060414 2.2933731 0.71380419 2.3509706e-38
2.4286079 2.3076713 0.7015686 2.3509715e-38
2.4578967 2.3150296 0.6964882 2.3509723e-38
2.4989841 2.3477626 0.66774905 2.350973e-38
2.5025983 2.3645487 0.65180951 2.3509738e-38
2.505204 2.379128 0.63792884 2.3509747e-38
2.5184238 2.384316 0.63383532 2.3509755e-38
2.5344181 2.3905864 0.62888944 2.3509764e-38
2.5471635 2.3923213 0.62809348 2.3509771e-38
2.5991066 2.3951249 0.62896502 2.3509779e-38
2.6477246 2.4025483 0.62515247 2.3509788e-38
2.6791368 2.4065456 0.62345994 2.3509796e-38
2.6976135 2.40623 0.62503648 2.3509804e-38
2.753974 2.4044175 0.63066387 2.3509811e-38
2.7692211 2.4044657 0.63166678 2.350982e-38
2.790168 2.4047167 0.6328665 2.3509828e-38
2.7963347 2.3988261 0.63897187 2.3509837e-38
2.7870905 2.3891306 0.64768565 2.3509845e-38
2.7420561 2.3616378 0.67109978 2.3509852e-38
2.7203624 2.3450184 0.68563426 2.350986e-38
2.6955302 2.3332672 0.6952576 2.3509869e-38
2.6679831 2.3239102 0.70238513 2.3509877e-38
