# .PCD v0.7 - Point Cloud Data file format
VERSION 0.7
FIELDS x y z rgb
SIZE 4 4 4 4
TYPE F F F F
COUNT 1 1 1 1
WIDTH 338
HEIGHT 1
VIEWPOINT 0 0 0 1 0 0 0
POINTS 338
DATA ascii
-1.3263001 -2.9757876 0.37291026 2.3509528e-38
-1.3248669 -2.9734478 0.3402738 2.3509528e-38
-1.3245636 -2.9528821 0.28412282 2.350953e-38
-1.3201209 -2.957902 0.21307518 2.3509531e-38
-1.3191411 -2.9595978 0.19885021 2.3509532e-38
-1.319266 -2.936305 0.14403844 2.3509532e-38
-1.3179946 -2.9385049 0.1255838 2.3509534e-38
-1.3176723 -2.933609 0.10752191 2.3509535e-38
-1.3149588 -2.9375455 0.066265352 2.3509537e-38
-1.3122798 -2.9393926 0.0205312 2.3509537e-38
-1.3122616 -2.9315839 0.0010249466 2.3509538e-38
-1.3109076 -2.9232571 -0.04481329 2.3509539e-38
-1.3091354 -2.9182112 -0.09044484 2.3509541e-38
-1.3078831 -2.9201045 -0.10929979 2.3509541e-38
-1.3061316 -2.9150441 -0.15458231 2.3509542e-38
-1.3021677 -2.9312673 -0.18915823 2.3509544e-38
-1.3003409 -2.9325795 -0.22021356 2.3509545e-38
-1.2998757 -2.9222369 -0.25432032 2.3509545e-38
-1.2987466 -2.9175942 -0.28689811 2.3509547e-38
-1.3002762 -2.8904145 -0.3248871 2.3509548e-38
-1.3000197 -2.8793333 -0.35688868 2.3509549e-38
-1.2988021 -2.8773925 -0.38449866 2.3509549e-38
-1.2980108 -2.8743315 -0.40685329 2.3509551e-38
-1.297022 -2.8754783 -0.42259467 2.3509552e-38
-1.2960523 -2.8774326 -0.43599921 2.3509554e-38
-1.295049 -2.8795829 -0.44954422 2.3509554e-38
-1.293283 -2.8827891 -0.47481978 2.3509555e-38
-1.2926439 -2.8822372 -0.4881601 2.3509556e-38
-1.2922971 -2.8825288 -0.49395514 2.3509558e-38
-1.2912922 -2.884109 -0.50893235 2.3509558e-38
-1.2885361 -2.8898866 -0.5464772 2.3509559e-38
-1.2861514 -2.8888412 -0.59378558 2.3509561e-38
-1.2833261 -2.8921542 -0.63867056 2.3509562e-38
-1.2879097 -2.8625693 -0.62525696 2.3509562e-38
-1.2904593 -2.8436565 -0.62381977 2.3509563e-38
-1.2975372 -2.7810054 -0.64472878 2.3509565e-38
-1.297971 -2.7765362 -0.64756089 2.3509566e-38
-1.299423 -2.7655454 -0.64728004 2.3509566e-38
-1.3019025 -2.7467546 -0.64686066 2.3509568e-38
-1.3039268 -2.7318735 -0.64538866 2.3509569e-38
-1.3070256 -2.7097483 -0.64152813 2.350957e-38
-1.3090754 -2.6954606 -0.63812149 2.350957e-38
-1.3116555 -2.6777821 -0.63308793 2.3509572e-38
-1.3140626 -2.6597474 -0.63217407 2.3509573e-38
-1.3179493 -2.6319652 -0.62740743 2.3509575e-38
-1.3196733 -2.6184542 -0.62820697 2.3509575e-38
-1.3214663 -2.6048241 -0.62800914 2.3509576e-38
-1.3241925 -2.5834491 -0.62929714 2.3509577e-38
-1.3245871 -2.5805297 -0.62905937 2.3509579e-38
-1.3284421 -2.5528035 -0.62475377 2.3509579e-38
-1.3303072 -2.5390477 -0.62350744 2.350958e-38
-1.3326687 -2.5209162 -0.62368393 2.3509582e-38
-1.3347324 -2.5061519 -0.62118626 2.3509583e-38
-1.3365836 -2.4924209 -0.62014431 2.3509583e-38
-1.3388758 -2.4737434 -0.62296045 2.3509584e-38
-1.3410105 -2.459522 -0.61780149 2.3509586e-38
-1.3448198 -2.4314408 -0.61522377 2.3509587e-38
-1.3467621 -2.417006 -0.61419541 2.3509589e-38
-1.3488718 -2.4038072 -0.60699272 2.3509589e-38
-1.3560172 -2.3514929 -0.6012758 2.350959e-38
-1.3578362 -2.3388321 -0.59821111 2.3509591e-38
-1.3602183 -2.3295553 -0.57627213 2.3509593e-38
-1.3611615 -2.3300133 -0.55745012 2.3509593e-38
-1.3620423 -2.3288238 -0.54384458 2.3509594e-38
-1.3628783 -2.328568 -0.52877784 2.3509596e-38
-1.363538 -2.3305848 -0.51145744 2.3509597e-38
-1.3643222 -2.3316178 -0.49420482 2.3509597e-38
-1.3651474 -2.3316941 -0.47853386 2.3509598e-38
-1.3659579 -2.3316832 -0.46335229 2.35096e-38
-1.3665764 -2.3459225 -0.41680756 2.3509601e-38
-1.3673284 -2.3473744 -0.39913768 2.3509601e-38
-1.3681988 -2.3461978 -0.38569301 2.3509603e-38
-1.3695816 -2.3470991 -0.35753354 2.3509604e-38
-1.3703924 -2.3498657 -0.33553043 2.3509605e-38
-1.3712268 -2.3501096 -0.31927475 2.3509605e-38
-1.3720624 -2.349864 -0.30419502 2.3509607e-38
-1.3730109 -2.3480074 -0.29095632 2.3509608e-38
-1.3736255 -2.3510611 -0.27193135 2.350961e-38
-1.374403 -2.3517396 -0.25567481 2.350961e-38
-1.3750651 -2.3542702 -0.23704234 2.3509611e-38
-1.3758481 -2.354748 -0.22117937 2.3509612e-38
-1.377524 -2.3543849 -0.19061914 2.3509614e-38
-1.3783545 -2.3540232 -0.17592549 2.3509614e-38
-1.3790865 -2.3554518 -0.15868936 2.3509615e-38
-1.3799396 -2.354876 -0.14409149 2.3509617e-38
-1.3807781 -2.3557553 -0.12619644 2.3509618e-38
-1.3814182 -2.3573809 -0.11019788 2.3509618e-38
-1.3822964 -2.3564756 -0.095940985 2.3509619e-38
-1.3832151 -2.3558061 -0.080349669 2.3509621e-38
-1.383924 -2.3592646 -0.058561876 2.3509622e-38
-1.3845452 -2.359756 -0.045695208 2.3509622e-38
-1.3853114 -2.3605924 -0.029266842 2.3509624e-38
-1.3859353 -2.36063 -0.017467923 2.3509625e-38
-1.387015 -2.359602 0.00026965886 2.3509626e-38
-1.3877916 -2.361083 0.018475071 2.3509626e-38
-1.3885367 -2.3614433 0.033335768 2.3509628e-38
-1.3893603 -2.361383 0.048646465 2.3509629e-38
-1.3902161 -2.3617415 0.065583527 2.3509631e-38
-1.3910687 -2.360317 0.078089051 2.3509631e-38
-1.3917798 -2.36201 0.09558481 2.3509632e-38
-1.3924532 -2.3618746 0.10789115 2.3509633e-38
-1.3934715 -2.3612061 0.12535413 2.3509635e-38
-1.3943117 -2.3608913 0.14034745 2.3509635e-38
-1.3948548 -2.3622932 0.15398154 2.3509636e-38
-1.395335 -2.3669369 0.17438 2.3509638e-38
-1.3955016 -2.379739 0.20892264 2.3509639e-38
-1.3962674 -2.3798378 0.22353086 2.3509639e-38
-1.4002628 -2.3695242 0.27319795 2.350964e-38
-1.4008856 -2.3726394 0.29252923 2.3509642e-38
-1.4035969 -2.3695064 0.33571342 2.3509643e-38
-1.4050653 -2.3718364 0.3689844 2.3509643e-38
-1.4053196 -2.3732588 0.37724751 2.3509645e-38
-1.4074454 -2.3734195 0.41753495 2.3509646e-38
-1.407697 -2.3738399 0.42328358 2.3509647e-38
-1.4081885 -2.3751457 0.43570954 2.3509649e-38
-1.4082752 -2.3778219 0.44390374 2.3509649e-38
-1.4096689 -2.3799055 0.47516686 2.350965e-38
-1.4105983 -2.3803632 0.49372637 2.3509652e-38
-1.4110352 -2.3811767 0.50392175 2.3509653e-38
-1.4127299 -2.3805869 0.53427523 2.3509653e-38
-1.4139838 -2.3786869 0.55314308 2.3509654e-38
-1.414367 -2.3805275 0.56484908 2.3509656e-38
-1.4151871 -2.3807108 0.58068794 2.3509657e-38
-1.4155725 -2.380173 0.58660376 2.3509657e-38
-1.4160728 -2.3817744 0.59991747 2.3509659e-38
-1.4350289 -2.2636297 0.66572666 2.350966e-38
-1.4380182 -2.2331827 0.64711171 2.3509661e-38
-1.4396623 -2.2193873 0.64411449 2.3509661e-38
-1.4417467 -2.20399 0.64544541 2.3509663e-38
-1.4460975 -2.1715431 0.64747274 2.3509664e-38
-1.4560652 -2.0948408 0.64630675 2.3509666e-38
-1.458002 -2.0791416 0.64412779 2.3509666e-38
-1.4645448 -2.0315089 0.65002465 2.3509667e-38
-1.4683101 -2.0005679 0.64475971 2.3509668e-38
-1.4687886 -1.9961035 0.64278549 2.350967e-38
-1.4705751 -1.9827147 0.64345771 2.350967e-38
-1.4731823 -1.969316 0.65950304 2.3509671e-38
-1.473816 -1.9703004 0.67380887 2.3509673e-38
-1.4753702 -1.9735475 0.71093446 2.3509674e-38
-1.4751893 -1.987466 0.74169356 2.3509674e-38
-1.4757632 -1.9903148 0.75945359 2.3509675e-38
-1.4750737 -2.0055947 0.78400916 2.3509677e-38
-1.4759083 -2.0239964 0.84481889 2.3509678e-38
-1.4782869 -2.0252607 0.89255226 2.3509678e-38
-1.4791701 -2.0242767 0.90671128 2.350968e-38
-1.4833021 -2.0118902 0.95385641 2.3509681e-38
-1.4826841 -2.0258937 0.97661859 2.3509682e-38
-1.4829304 -2.029551 0.99021345 2.3509682e-38
-1.4872518 -2.0261092 1.0628519 2.3509684e-38
-1.48894 -2.028307 1.0999248 2.3509685e-38
-1.4935855 -2.0181448 1.1621586 2.3509687e-38
-1.4947356 -2.0158355 1.1780756 2.3509687e-38
-1.4984235 -2.018832 1.2546282 2.3509688e-38
-1.5009581 -2.0060456 1.2708127 2.3509689e-38
-1.5009085 -2.0224693 1.3101808 2.3509691e-38
-1.5014472 -2.0237584 1.3234524 2.3509691e-38
-1.5023303 -2.0227742 1.337611 2.3509692e-38
-1.502609 -2.0248699 1.3479798 2.3509694e-38
-1.5014329 -2.0416157 1.3670008 2.3509695e-38
-1.4926934 -2.1159799 1.3854718 2.3509695e-38
-1.4913934 -2.1303251 1.3962768 2.3509696e-38
-1.4901772 -2.1515195 1.425459 2.3509698e-38
-1.4856069 -2.1905892 1.43557 2.3509699e-38
-1.4802818 -2.2268257 1.424558 2.3509699e-38
-1.4767954 -2.2535639 1.4247445 2.3509701e-38
-1.4742622 -2.2690177 1.415132 2.3509702e-38
-1.4673012 -2.3195324 1.4084529 2.3509703e-38
-1.4604343 -2.3824992 1.4341034 2.3509703e-38
-1.4535871 -2.4303691 1.4230775 2.3509705e-38
-1.4515878 -2.4461696 1.4243275 2.3509706e-38
-1.4498203 -2.460156 1.4254839 2.3509708e-38
-1.4445612 -2.4992146 1.4226369 2.3509709e-38
-1.442852 -2.5125782 1.4233582 2.3509709e-38
-1.4409596 -2.5276139 1.4247382 2.350971e-38
-1.4337109 -2.5859396 1.4318334 2.3509712e-38
-1.4268794 -2.6346021 1.4230431 2.3509713e-38
-1.4217089 -2.6719224 1.417594 2.3509713e-38
-1.419858 -2.6872413 1.4204516 2.3509715e-38
-1.4151638 -2.7205698 1.4141467 2.3509716e-38
-1.4109229 -2.7540603 1.4167426 2.3509717e-38
-1.4091232 -2.7685189 1.4184474 2.3509717e-38
-1.4072154 -2.7837911 1.4201223 2.3509719e-38
-1.4053043 -2.7991505 1.4219506 2.350972e-38
-1.402557 -2.8148227 1.4088569 2.3509722e-38
-1.3883975 -2.9241045 1.4113022 2.3509722e-38
-1.387969 -2.9305458 1.4190676 2.3509723e-38
-1.3856294 -2.9363077 1.3893011 2.3509724e-38
-1.3847733 -2.9375947 1.3763969 2.3509726e-38
-1.3827491 -2.9375081 1.3381995 2.3509726e-38
-1.37927 -2.9451976 1.2917855 2.3509727e-38
-1.3779079 -2.9510632 1.2806189 2.3509729e-38
-1.3769754 -2.9524412 1.2665002 2.350973e-38
-1.3783405 -2.9337683 1.2462993 2.350973e-38
-1.3789854 -2.9147253 1.2116809 2.3509731e-38
-1.3789449 -2.9126825 1.2059059 2.3509733e-38
-1.3777366 -2.9052761 1.16506 2.3509734e-38
-1.3774148 -2.9023201 1.1517701 2.3509734e-38
-1.3769288 -2.9000139 1.136992 2.3509736e-38
-1.3769397 -2.8975182 1.1310685 2.3509737e-38
-1.3754969 -2.8922358 1.0910399 2.3509738e-38
-1.3748326 -2.8899741 1.0730219 2.3509738e-38
-1.374166 -2.889086 1.0583347 2.350974e-38
-1.3739301 -2.8783336 1.0275266 2.3509741e-38
-1.3737504 -2.876703 1.0201566 2.3509743e-38
-1.3692827 -2.8887486 0.96587843 2.3509743e-38
-1.3688393 -2.8874991 0.95448786 2.3509744e-38
-1.3684068 -2.8873661 0.94604784 2.3509745e-38
-1.3681051 -2.8876684 0.94112891 2.3509747e-38
-1.3678433 -2.8788774 0.9146443 2.3509747e-38
-1.3658309 -2.878283 0.87542766 2.3509748e-38
-1.3498263 -2.9647942 0.78738546 2.350975e-38
-1.3462257 -2.9813793 0.7605173 2.3509751e-38
-1.344022 -2.9897017 0.7395826 2.3509751e-38
-1.3382137 -2.9940977 0.64138114 2.3509752e-38
-1.3359939 -2.9869072 0.58208674 2.3509754e-38
-1.3325691 -2.9655609 0.46544766 2.3509755e-38
-1.3320322 -2.9618757 0.44632977 2.3509755e-38
-1.3286898 -2.9684746 0.39980638 2.3509757e-38
-1.4280294 -2.3959374 0.85902357 2.3509758e-38
-1.4255221 -2.394784 0.80914754 2.3509759e-38
-1.416196 -2.4369872 0.7377004 2.3509759e-38
-1.4166696 -2.4051871 0.66856486 2.3509761e-38
-1.4178123 -2.3890619 0.65044075 2.3509762e-38
-1.435662 -2.2666922 0.68511856 2.3509764e-38
-1.4384065 -2.2506673 0.69729751 2.3509764e-38
-1.4410205 -2.2349885 0.70787913 2.3509765e-38
-1.4523377 -2.1939428 0.81952494 2.3509767e-38
-1.4515181 -2.2071912 0.83665305 2.3509768e-38
-1.4537462 -2.203258 0.86881119 2.3509769e-38
-1.4555751 -2.2082348 0.91533965 2.3509769e-38
-1.4556916 -2.2144067 0.9326728 2.3509771e-38
-1.4571916 -2.2162793 0.96540815 2.3509772e-38
-1.4582692 -2.2137587 0.97944683 2.3509774e-38
-1.4597286 -2.2155461 1.0112147 2.3509774e-38
-1.4612129 -2.2180736 1.0452693 2.3509775e-38
-1.4613075 -2.2306705 1.077952 2.3509776e-38
-1.4635328 -2.2333207 1.1262131 2.3509778e-38
-1.4643837 -2.2328403 1.1410003 2.3509778e-38
-1.465241 -2.2327406 1.1568407 2.3509779e-38
-1.4658511 -2.2355335 1.1751413 2.3509781e-38
-1.4669833 -2.2328346 1.1897655 2.3509782e-38
-1.4684743 -2.2347167 1.2223591 2.3509782e-38
-1.4688196 -2.2398758 1.2414973 2.3509783e-38
-1.4630206 -2.3206215 1.3308051 2.3509785e-38
-1.4608978 -2.338537 1.3349298 2.3509786e-38
-1.4473403 -2.4149649 1.2680635 2.3509786e-38
-1.4463603 -2.4167447 1.2540462 2.3509788e-38
-1.444701 -2.410846 1.2084318 2.3509789e-38
-1.4449427 -2.4012148 1.1893362 2.350979e-38
-1.4446479 -2.3932273 1.1642113 2.350979e-38
-1.4425484 -2.400377 1.1423552 2.3509792e-38
-1.4421687 -2.4012203 1.1372979 2.3509793e-38
-1.44119 -2.4032402 1.1238916 2.3509795e-38
-1.4401954 -2.4000509 1.0974038 2.3509795e-38
-1.4385278 -2.3993511 1.0643924 2.3509796e-38
-1.4383126 -2.3956699 1.0513248 2.3509797e-38
-1.4355054 -2.3962777 1.0001397 2.3509799e-38
-1.4343773 -2.3984637 0.98433727 2.3509799e-38
-1.4326875 -2.4000018 0.95640355 2.35098e-38
-1.431676 -2.4013469 0.94072336 2.3509802e-38
-1.3407745 -2.5931575 -0.29433188 2.3509803e-38
-1.3413751 -2.5745428 -0.32873636 2.3509803e-38
-1.3338549 -2.6009319 -0.40509686 2.3509804e-38
-1.3347205 -2.5871282 -0.42272362 2.3509806e-38
-1.3363677 -2.5532117 -0.47503069 2.3509807e-38
-1.3261647 -2.5799193 -0.60095084 2.3509807e-38
-1.3227113 -2.6063364 -0.60093832 2.3509809e-38
-1.3210905 -2.618269 -0.6020723 2.350981e-38
-1.3176117 -2.6425991 -0.60765207 2.3509811e-38
-1.3137593 -2.6725974 -0.60633129 2.3509811e-38
-1.3026245 -2.7843595 -0.54104441 2.3509813e-38
-1.3033955 -2.7833428 -0.52907133 2.3509814e-38
-1.3069103 -2.7703567 -0.49498019 2.3509816e-38
-1.3103611 -2.7698722 -0.43142086 2.3509816e-38
-1.3117142 -2.7833951 -0.37284982 2.3509817e-38
-1.3119419 -2.784102 -0.36684096 2.3509818e-38
-1.3122383 -2.7871156 -0.3538827 2.350982e-38
-1.3131695 -2.7874002 -0.33571395 2.350982e-38
-1.3139009 -2.7879429 -0.32065684 2.3509821e-38
-1.31536 -2.7875805 -0.29416975 2.3509823e-38
-1.3158313 -2.7865787 -0.28778613 2.3509824e-38
-1.3165144 -2.7947917 -0.25481382 2.3509824e-38
-1.3177845 -2.7932136 -0.23485839 2.3509825e-38
-1.3177946 -2.8033977 -0.20967908 2.3509827e-38
-1.3180015 -2.804738 -0.2025062 2.3509828e-38
-1.318624 -2.8054717 -0.18902485 2.350983e-38
-1.3212312 -2.8036973 -0.14445421 2.350983e-38
-1.3228334 -2.7993724 -0.12500185 2.3509831e-38
-1.3239489 -2.7970154 -0.10985745 2.3509832e-38
-1.3248539 -2.7974854 -0.091720171 2.3509834e-38
-1.3263304 -2.8046689 -0.046389833 2.3509834e-38
-1.3271509 -2.8038456 -0.033014193 2.3509835e-38
-1.3276818 -2.8076279 -0.013769008 2.3509837e-38
-1.3278511 -2.8118215 -0.00030256063 2.3509838e-38
-1.3292303 -2.8177447 0.040108308 2.3509838e-38
-1.3299387 -2.8180025 0.054034479 2.3509839e-38
-1.3308578 -2.8207409 0.077997938 2.3509841e-38
-1.3321056 -2.8268995 0.11652413 2.3509842e-38
-1.3342303 -2.8215923 0.14336894 2.3509842e-38
-1.3377491 -2.8085787 0.17746884 2.3509844e-38
-1.3378322 -2.8217366 0.21130887 2.3509845e-38
-1.3385332 -2.8230402 0.22766536 2.3509846e-38
-1.3415205 -2.8153844 0.26493347 2.3509846e-38
-1.3414488 -2.8174109 0.2685537 2.3509848e-38
-1.3414645 -2.8278296 0.29441682 2.3509849e-38
-1.3411249 -2.8362193 0.30862874 2.3509851e-38
-1.3420269 -2.8442094 0.34516275 2.3509851e-38
-1.3423712 -2.8468883 0.35819459 2.3509852e-38
-1.3451147 -2.8447182 0.40434924 2.3509853e-38
-1.3456511 -2.8436301 0.41174442 2.3509855e-38
-1.3460144 -2.8510976 0.43688267 2.3509855e-38
-1.3477819 -2.8514645 0.47094983 2.3509856e-38
-1.349241 -2.8482223 0.49037451 2.3509858e-38
-1.3677263 -2.7253828 0.53583145 2.3509859e-38
-1.3517721 -2.8583755 0.56278265 2.3509859e-38
-1.3667736 -2.773638 0.63635641 2.350986e-38
-1.3708807 -2.7273335 0.5998053 2.3509862e-38
-1.3673137 -2.7079422 0.48529607 2.3509863e-38
-1.3667308 -2.7053478 0.46799177 2.3509863e-38
-1.3676031 -2.6923382 0.45243591 2.3509865e-38
-1.3679614 -2.6752734 0.41729349 2.3509866e-38
-1.3693794 -2.6433802 0.36564165 2.3509867e-38
-1.3663108 -2.6404128 0.30078328 2.3509867e-38
-1.3644335 -2.6392229 0.26263478 2.3509869e-38
-1.3660631 -2.6079447 0.21646476 2.350987e-38
-1.3654622 -2.6063421 0.20126459 2.3509872e-38
-1.3647645 -2.6046512 0.18401943 2.3509872e-38
-1.3631657 -2.6038303 0.15200765 2.3509873e-38
-1.3618467 -2.6079884 0.13746013 2.3509874e-38
-1.3606747 -2.6039233 0.10549236 2.3509876e-38
-1.351 -2.6485686 0.033499062 2.3509876e-38
-1.3513434 -2.6313574 -0.0022890717 2.3509877e-38
-1.3496644 -2.6322181 -0.031681582 2.3509879e-38
-1.3481376 -2.6302423 -0.065177903 2.350988e-38
-1.347906 -2.610239 -0.11860512 2.350988e-38
-1.346513 -2.6081779 -0.14979902 2.3509881e-38
-1.3477093 -2.5780644 -0.20124103 2.3509883e-38
-1.3418961 -2.5898008 -0.28152305 2.3509884e-38
