# .PCD v0.7 - Point Cloud Data file format
VERSION 0.7
FIELDS x y z rgb
SIZE 4 4 4 4
TYPE F F F F
COUNT 1 1 1 1
WIDTH 447
HEIGHT 1
VIEWPOINT 0 0 0 1 0 0 0
POINTS 447
DATA ascii
2.9848857 -2.0397282 -1.012058 2.3509528e-38
2.9839926 -2.0131509 -1.0139992 2.3509528e-38
2.9832394 -1.986726 -1.0132868 2.350953e-38
2.9830089 -1.9714675 -1.0088814 2.350953e-38
2.9814065 -1.9074918 -1.0028503 2.3509531e-38
2.9808869 -1.8940504 -1.0051601 2.3509531e-38
2.9797332 -1.8674181 -1.0121499 2.3509532e-38
2.9784484 -1.8298552 -1.0153326 2.3509532e-38
2.977576 -1.8029765 -1.0166895 2.3509534e-38
2.9768651 -1.7773908 -1.0156435 2.3509535e-38
2.9764469 -1.7608606 -1.0141652 2.3509535e-38
2.9760666 -1.7471186 -1.0135797 2.3509537e-38
2.9753988 -1.7143705 -1.0075171 2.3509537e-38
2.9747808 -1.6977352 -1.0098757 2.3509538e-38
2.9741945 -1.6819308 -1.0121075 2.3509538e-38
2.9733913 -1.6643327 -1.0175302 2.3509539e-38
2.9720948 -1.6100472 -1.011176 2.3509541e-38
2.9712899 -1.5729504 -1.0052437 2.3509541e-38
2.9704347 -1.5505959 -1.0089132 2.3509542e-38
2.9699347 -1.5386852 -1.0117292 2.3509542e-38
2.9692795 -1.5223953 -1.015018 2.3509544e-38
2.9691622 -1.5091355 -1.0095735 2.3509544e-38
2.9679689 -1.463098 -1.0060197 2.3509545e-38
2.9672811 -1.4448534 -1.0088143 2.3509547e-38
2.9661193 -1.4169053 -1.015198 2.3509547e-38
2.9651945 -1.3738375 -1.0081282 2.3509548e-38
2.9646649 -1.3588699 -1.0097448 2.3509548e-38
2.9642055 -1.3449383 -1.0105836 2.3509549e-38
2.9637339 -1.3318177 -1.0121458 2.3509549e-38
2.9628832 -1.3112117 -1.0167285 2.3509551e-38
2.9618647 -1.2740566 -1.0149502 2.3509552e-38
2.9610538 -1.2504687 -1.0170245 2.3509552e-38
2.9603136 -1.2106758 -1.0082585 2.3509554e-38
2.9600642 -1.2013263 -1.0076824 2.3509554e-38
2.9589968 -1.1732949 -1.0121711 2.3509555e-38
2.958277 -1.1597136 -1.0183117 2.3509555e-38
2.9578717 -1.1428844 -1.0164124 2.3509556e-38
2.957108 -1.1213428 -1.0187511 2.3509558e-38
2.9561343 -1.0773997 -1.0121216 2.3509558e-38
2.9557631 -1.0637393 -1.0114131 2.3509559e-38
2.9555271 -1.0538105 -1.0102242 2.3509559e-38
2.955188 -1.0408318 -1.0092769 2.3509561e-38
2.9546108 -1.0248541 -1.0112309 2.3509561e-38
2.9536541 -1.0040264 -1.0177618 2.3509562e-38
2.9522223 -0.96000481 -1.0200397 2.3509563e-38
2.9516098 -0.92666435 -1.0125525 2.3509563e-38
2.9505775 -0.9001174 -1.0172175 2.3509565e-38
2.9501717 -0.89090139 -1.01977 2.3509565e-38
2.9497828 -0.87793601 -1.0197992 2.3509566e-38
2.9491467 -0.84255087 -1.0115821 2.3509566e-38
2.9483507 -0.81640899 -1.0118766 2.3509568e-38
2.9478173 -0.80292094 -1.0144247 2.3509569e-38
2.9469559 -0.78306627 -1.0196693 2.3509569e-38
2.9459321 -0.75215232 -1.0216298 2.350957e-38
2.9451292 -0.71416819 -1.0151371 2.350957e-38
2.9446807 -0.70111299 -1.016283 2.3509572e-38
2.9438958 -0.68078262 -1.019756 2.3509572e-38
2.9428041 -0.63260162 -1.0129609 2.3509573e-38
2.9420543 -0.61476457 -1.0172038 2.3509575e-38
2.9416056 -0.60062838 -1.0177189 2.3509575e-38
2.9406331 -0.57193601 -1.0199655 2.3509576e-38
2.9400835 -0.55759811 -1.0223417 2.3509576e-38
2.9396062 -0.54244459 -1.0228239 2.3509577e-38
2.9389226 -0.50637662 -1.0151293 2.3509577e-38
2.9381156 -0.46852964 -1.0087982 2.3509579e-38
2.9376471 -0.45455474 -1.0097955 2.350958e-38
2.9370046 -0.4398534 -1.0137731 2.350958e-38
2.9366179 -0.43221423 -1.0168687 2.3509582e-38
2.9360538 -0.41767827 -1.0194128 2.3509582e-38
2.9355361 -0.40194109 -1.0203351 2.3509583e-38
2.9351621 -0.38921228 -1.0202205 2.3509583e-38
2.9339609 -0.34005579 -1.0149981 2.3509584e-38
2.9338973 -0.31855911 -1.0036886 2.3509586e-38
2.9311447 -0.24216771 -1.0128806 2.3509586e-38
2.9304526 -0.22402161 -1.0158154 2.3509587e-38
2.9296448 -0.2049073 -1.0204399 2.3509587e-38
2.9287827 -0.16718154 -1.0152595 2.3509589e-38
2.9282289 -0.15085128 -1.0165576 2.3509589e-38
2.9277389 -0.13666975 -1.0178548 2.350959e-38
2.9267552 -0.10997441 -1.0214891 2.3509591e-38
2.9261482 -0.092404224 -1.0230956 2.3509591e-38
2.9254215 -0.065850854 -1.021798 2.3509593e-38
2.9249671 -0.054259419 -1.0239136 2.3509593e-38
2.9243951 -0.019437939 -1.0147598 2.3509594e-38
2.9233198 0.011175692 -1.0179015 2.3509594e-38
2.9223478 0.039131269 -1.0205735 2.3509596e-38
2.9213903 0.080211878 -1.0153065 2.3509597e-38
2.9213281 0.11736721 -0.99482709 2.3509597e-38
2.9172654 0.20964676 -1.0203522 2.3509598e-38
2.9167247 0.2254564 -1.0216907 2.3509598e-38
2.916189 0.23985302 -1.0237577 2.35096e-38
2.9159584 0.25308061 -1.0205346 2.35096e-38
2.9144237 0.30520126 -1.0201044 2.3509601e-38
2.913588 0.32490203 -1.0249273 2.3509603e-38
2.9130995 0.33998579 -1.0256699 2.3509603e-38
2.9118955 0.39097899 -1.0194279 2.3509604e-38
2.9101028 0.43878192 -1.0265589 2.3509604e-38
2.9099712 0.46404079 -1.0143842 2.3509605e-38
2.9096086 0.48010963 -1.0120836 2.3509605e-38
2.9085202 0.51075101 -1.0154666 2.3509607e-38
2.9070446 0.56330764 -1.0136242 2.3509608e-38
2.9068751 0.58605587 -1.0036502 2.3509608e-38
2.9069331 0.60396343 -0.99207044 2.350961e-38
2.906146 0.64800656 -0.98174357 2.350961e-38
2.9034967 0.69859463 -1.0039809 2.3509611e-38
2.9013252 0.7320841 -1.0268636 2.3509611e-38
2.9002335 0.77507007 -1.0231102 2.3509612e-38
2.898905 0.813793 -1.0264595 2.3509614e-38
2.8963394 0.90610397 -1.0227123 2.3509614e-38
2.8954926 0.92740208 -1.0268236 2.3509615e-38
2.8949382 0.94268131 -1.0287385 2.3509615e-38
2.8945599 0.95546877 -1.0286686 2.3509617e-38
2.8940263 0.98935926 -1.0193075 2.3509617e-38
2.8927772 1.021258 -1.0250983 2.3509618e-38
2.8918207 1.047958 -1.028206 2.3509619e-38
2.8912764 1.0656946 -1.0284846 2.3509619e-38
2.8908799 1.0791068 -1.0284008 2.3509621e-38
2.8898747 1.1197065 -1.0243469 2.3509621e-38
2.8900783 1.1354041 -1.0112022 2.3509622e-38
2.8898864 1.1586308 -1.0013905 2.3509622e-38
2.8869314 1.2363724 -1.0137539 2.3509624e-38
2.8865623 1.2490289 -1.0135839 2.3509625e-38
2.8859894 1.2646289 -1.0156671 2.3509625e-38
2.885458 1.2796497 -1.0172902 2.3509626e-38
2.8847792 1.2967713 -1.0205544 2.3509626e-38
2.8836224 1.3243959 -1.0270323 2.3509628e-38
2.882823 1.3666159 -1.0180069 2.3509628e-38
2.8821955 1.3822807 -1.0211313 2.3509629e-38
2.8816013 1.3988212 -1.0230796 2.3509631e-38
2.880971 1.4146247 -1.0261731 2.3509631e-38
2.880167 1.4375367 -1.028506 2.3509632e-38
2.8797252 1.463923 -1.021742 2.3509632e-38
2.8787923 1.4942684 -1.02226 2.3509633e-38
2.8783569 1.5078753 -1.0228171 2.3509633e-38
2.8777955 1.522046 -1.0255225 2.3509635e-38
2.8767366 1.549879 -1.0299654 2.3509636e-38
2.8759615 1.5899613 -1.0217025 2.3509636e-38
2.8755324 1.6042223 -1.0217716 2.3509638e-38
2.8749089 1.6205114 -1.0244421 2.3509638e-38
2.8744922 1.6338543 -1.0247973 2.3509639e-38
2.8739591 1.6471163 -1.0274755 2.3509639e-38
2.8732135 1.6685054 -1.0295588 2.350964e-38
2.8719575 1.7143617 -1.0273392 2.3509642e-38
2.8709102 1.742182 -1.0315568 2.3509642e-38
2.8703294 1.7756487 -1.0233742 2.3509643e-38
2.8690979 1.8080258 -1.0285356 2.3509643e-38
2.8678267 1.8600292 -1.0230126 2.3509645e-38
2.8673074 1.8731636 -1.0254973 2.3509645e-38
2.8664412 1.8959724 -1.0291125 2.3509646e-38
2.8659482 1.9091623 -1.0310458 2.3509647e-38
2.8644729 1.9676305 -1.0257534 2.3509647e-38
2.864073 1.9771378 -1.0280144 2.3509649e-38
2.8630736 2.0062737 -1.0305331 2.3509649e-38
2.8626292 2.0208263 -1.0307145 2.350965e-38
2.8612735 2.0731943 -1.0266392 2.350965e-38
2.8601959 2.1143837 -1.0236479 2.3509652e-38
2.8600171 2.1343949 -1.0154653 2.3509652e-38
2.8568056 2.2189503 -1.0288653 2.3509653e-38
2.8559418 2.2440519 -1.0310844 2.3509654e-38
2.8557267 2.2545323 -1.0291786 2.3509654e-38
2.8551869 2.2721577 -1.0294327 2.3509656e-38
2.8541524 2.3056681 -1.0300927 2.3509656e-38
2.8536966 2.3666859 -1.0033726 2.3509657e-38
2.8557327 2.3981154 -0.94524145 2.3509657e-38
2.8565342 2.3995378 -0.92874706 2.3509659e-38
2.8602815 2.3846009 -0.8642354 2.350966e-38
2.8631461 2.3687265 -0.8175267 2.350966e-38
2.8647065 2.3709466 -0.78574222 2.3509661e-38
2.8679838 2.3802335 -0.71627712 2.3509661e-38
2.8702118 2.3698227 -0.67881203 2.3509663e-38
2.8710752 2.368556 -0.66267806 2.3509663e-38
2.8719287 2.3679109 -0.64638007 2.3509664e-38
2.8735645 2.3671606 -0.61485171 2.3509666e-38
2.8755021 2.3745301 -0.57268101 2.3509666e-38
2.8764648 2.3725741 -0.5550133 2.3509667e-38
2.878371 2.3648438 -0.52227521 2.3509667e-38
2.8794601 2.3684752 -0.49887693 2.3509668e-38
2.8805933 2.36955 -0.47609329 2.3509668e-38
2.8811944 2.3665354 -0.46611556 2.350967e-38
2.8831253 2.3627279 -0.43060529 2.3509671e-38
2.883826 2.3637207 -0.41633314 2.3509671e-38
2.8845897 2.3657608 -0.40022177 2.3509673e-38
2.8856401 2.3800716 -0.37132761 2.3509673e-38
2.8859978 2.3858464 -0.36097896 2.3509674e-38
2.8867269 2.3861921 -0.34652472 2.3509674e-38
2.8874307 2.3890159 -0.33112556 2.3509675e-38
2.8884516 2.385035 -0.31350219 2.3509677e-38
2.8911371 2.380193 -0.26384848 2.3509677e-38
2.8931155 2.3705103 -0.23083641 2.3509678e-38
2.8939285 2.3690019 -0.21582845 2.3509678e-38
2.8961334 2.3955066 -0.15726705 2.350968e-38
2.8987765 2.3857651 -0.11131079 2.350968e-38
2.9004197 2.4034538 -0.06887044 2.3509681e-38
2.903532 2.4100876 -0.0041809082 2.3509682e-38
2.9041367 2.4143374 0.010119185 2.3509682e-38
2.906136 2.3999083 0.040762395 2.3509684e-38
2.9082072 2.403827 0.083523273 2.3509684e-38
2.9110105 2.4109457 0.14246124 2.3509685e-38
2.9116883 2.4119155 0.15627187 2.3509685e-38
2.9119463 2.4130118 0.16195324 2.3509687e-38
2.9123433 2.4143758 0.17050116 2.3509688e-38
2.9138293 2.4167428 0.20092791 2.3509688e-38
2.9153547 2.4172933 0.23105872 2.3509689e-38
2.91591 2.4218581 0.24457823 2.3509689e-38
2.9166458 2.4206126 0.25822586 2.3509691e-38
2.9177186 2.4191213 0.27832094 2.3509691e-38
2.9195933 2.4185004 0.31459352 2.3509692e-38
2.9208632 2.4188337 0.33960193 2.3509694e-38
2.9212267 2.4191842 0.34691036 2.3509694e-38
2.9226162 2.4239492 0.37684602 2.3509695e-38
2.9231687 2.4265833 0.38917571 2.3509695e-38
2.9233589 2.4268188 0.39303917 2.3509696e-38
2.9241257 2.4264851 0.40782219 2.3509696e-38
2.9255092 2.426481 0.4348591 2.3509698e-38
2.9261017 2.4308181 0.44896883 2.3509699e-38
2.927021 2.4302726 0.46662015 2.3509699e-38
2.9279931 2.4301026 0.48551416 2.3509701e-38
2.9288459 2.42783 0.5008496 2.3509701e-38
2.9296136 2.4252343 0.51433992 2.3509702e-38
2.9328711 2.4263778 0.5786587 2.3509702e-38
2.9337041 2.4233689 0.59318823 2.3509703e-38
2.9351931 2.4269829 0.62439209 2.3509705e-38
2.9357879 2.4301407 0.63785607 2.3509705e-38
2.9362719 2.4299955 0.64722741 2.3509706e-38
2.9380445 2.4126787 0.67176527 2.3509706e-38
2.938921 2.3925624 0.67713976 2.3509708e-38
2.938987 2.3516455 0.65454775 2.3509708e-38
2.9389553 2.3394694 0.64682317 2.3509709e-38
2.9401059 2.2897811 0.64030433 2.350971e-38
2.9413526 2.2642274 0.64974546 2.350971e-38
2.9436049 2.2215443 0.66883647 2.3509712e-38
2.94541 2.1690278 0.67346036 2.3509712e-38
2.9460247 2.1419678 0.66967052 2.3509713e-38
2.946089 2.1359401 0.66741604 2.3509713e-38
2.9463086 2.1209927 0.66297752 2.3509715e-38
2.9464133 2.1064892 0.65655488 2.3509716e-38
2.9464176 2.0848384 0.64399993 2.3509716e-38
2.9471092 2.0520961 0.63839954 2.3509717e-38
2.9474401 2.0401196 0.63787997 2.3509717e-38
2.9485984 2.0046616 0.63981289 2.3509719e-38
2.9495008 1.978587 0.64223123 2.3509719e-38
2.9497509 1.9720745 0.64330697 2.350972e-38
2.951005 1.9398372 0.64900285 2.3509722e-38
2.9518287 1.9073671 0.6461392 2.3509722e-38
2.9533887 1.8618745 0.6500684 2.3509723e-38
2.9542308 1.8267059 0.64599335 2.3509723e-38
2.9551911 1.7943089 0.64584905 2.3509724e-38
2.9556561 1.7792646 0.64615047 2.3509724e-38
2.9562559 1.76402 0.64897412 2.3509726e-38
2.9576342 1.6996012 0.63829792 2.3509727e-38
2.9580209 1.6791526 0.63391912 2.3509727e-38
2.9583583 1.6674441 0.63368535 2.3509729e-38
2.9590318 1.6459072 0.63426679 2.3509729e-38
2.9598551 1.6140025 0.63173521 2.350973e-38
2.9610097 1.5810657 0.63506651 2.350973e-38
2.961417 1.5663754 0.63445109 2.3509731e-38
2.9619305 1.5515764 0.63584352 2.3509733e-38
2.9625254 1.5336913 0.63702428 2.3509733e-38
2.9635437 1.5006473 0.63763922 2.3509734e-38
2.964035 1.4877468 0.63970965 2.3509734e-38
2.9648478 1.4553301 0.63667071 2.3509736e-38
2.9657586 1.434837 0.64250511 2.3509736e-38
2.9679172 1.3545485 0.63781428 2.3509737e-38
2.9682827 1.3400517 0.63649583 2.3509738e-38
2.9701176 1.2893832 0.64276904 2.3509738e-38
2.9715915 1.2577953 0.65313828 2.350974e-38
2.9719942 1.2446309 0.6533137 2.350974e-38
2.9726198 1.2279327 0.655797 2.3509741e-38
2.974807 1.1593114 0.658481 2.3509741e-38
2.9751766 1.1432898 0.65634918 2.3509743e-38
2.975517 1.112007 0.64474595 2.3509744e-38
2.976377 1.062465 0.63262308 2.3509744e-38
2.9778991 1.0311428 0.64408404 2.3509745e-38
2.9788277 1.0123715 0.65127075 2.3509745e-38
2.980942 0.96775913 0.66654509 2.3509747e-38
2.9815588 0.95451093 0.6708613 2.3509747e-38
2.9825809 0.92413002 0.67310792 2.3509748e-38
2.984189 0.88745201 0.68311316 2.350975e-38
2.9848166 0.87216222 0.6864562 2.350975e-38
2.9849927 0.8655501 0.68603259 2.3509751e-38
2.9862459 0.81857538 0.68310016 2.3509751e-38
2.9867477 0.80571175 0.68540174 2.3509752e-38
2.987489 0.78629982 0.68855488 2.3509752e-38
2.9878688 0.77301848 0.68822539 2.3509754e-38
2.9885626 0.75121295 0.68905771 2.3509755e-38
2.9907973 0.68803132 0.6958375 2.3509755e-38
2.9918132 0.64235187 0.68902469 2.3509757e-38
2.9923701 0.62772167 0.69136608 2.3509757e-38
2.9932334 0.6061762 0.69565374 2.3509758e-38
2.9937627 0.55943048 0.67871648 2.3509758e-38
2.9943621 0.52495265 0.67029959 2.3509759e-38
2.9955657 0.49254045 0.67489386 2.3509761e-38
2.9957411 0.47666058 0.66905057 2.3509761e-38
2.9964893 0.44459242 0.66495842 2.3509762e-38
2.9977794 0.41247556 0.67141336 2.3509762e-38
2.99891 0.37981507 0.67444324 2.3509764e-38
2.9991319 0.36502838 0.67015034 2.3509764e-38
3.0006728 0.30502814 0.66523421 2.3509765e-38
3.0014663 0.26505554 0.65740508 2.3509767e-38
3.0028114 0.23246732 0.66466415 2.3509767e-38
3.0042098 0.20072156 0.67345619 2.3509768e-38
3.0054979 0.15570571 0.67235154 2.3509768e-38
3.0067401 0.12064981 0.67615986 2.3509769e-38
3.0075402 0.1041747 0.68218601 2.3509769e-38
3.0078859 0.090351313 0.68087029 2.3509771e-38
3.0084674 0.055440851 0.67185885 2.3509771e-38
3.0099113 -0.024534024 0.65338099 2.3509772e-38
3.0105212 -0.040652193 0.65588522 2.3509774e-38
3.0121183 -0.071664661 0.66899639 2.3509774e-38
3.0125849 -0.084650405 0.67053008 2.3509775e-38
3.0155172 -0.13299951 0.69961381 2.3509775e-38
3.0156703 -0.13811333 0.6996206 2.3509776e-38
3.0166178 -0.16585976 0.70193714 2.3509776e-38
3.0170145 -0.17908454 0.70196432 2.3509778e-38
3.0171132 -0.18921909 0.69797814 2.3509779e-38
3.0174825 -0.22195598 0.68608743 2.3509779e-38
3.0180745 -0.24851388 0.68214667 2.3509781e-38
3.0184579 -0.26178288 0.68189549 2.3509781e-38
3.0192008 -0.28118825 0.68508971 2.3509782e-38
3.0191169 -0.2940082 0.67595774 2.3509782e-38
3.0191953 -0.33207387 0.6552766 2.3509783e-38
3.0233355 -0.46244726 0.66007 2.3509785e-38
3.0244577 -0.47445527 0.67499024 2.3509785e-38
3.0248349 -0.47874448 0.67985618 2.3509786e-38
3.0252111 -0.49167565 0.67966431 2.3509786e-38
3.0266411 -0.52799666 0.68639982 2.3509788e-38
3.0270901 -0.56019175 0.67638165 2.3509788e-38
3.0295129 -0.62655455 0.68498504 2.3509789e-38
3.0307174 -0.67589879 0.67971659 2.350979e-38
3.031261 -0.69158804 0.68118423 2.350979e-38
3.03213 -0.73781967 0.67117578 2.3509792e-38
3.0328188 -0.77516133 0.66283506 2.3509792e-38
3.0331771 -0.78851533 0.66204721 2.3509793e-38
3.0339324 -0.80787909 0.66550386 2.3509793e-38
3.0345166 -0.83864528 0.65895069 2.3509795e-38
3.0350912 -0.85490638 0.66068757 2.3509796e-38
3.0372109 -0.92083049 0.66362959 2.3509796e-38
3.0382447 -0.95518029 0.66377991 2.3509797e-38
3.0393603 -0.98476827 0.66831648 2.3509797e-38
3.0399158 -1.0012918 0.66952479 2.3509799e-38
3.0397756 -1.0508014 0.63787848 2.3509799e-38
3.0398939 -1.065034 0.63187855 2.35098e-38
3.0408053 -1.0983888 0.63021463 2.3509802e-38
3.0423751 -1.1305882 0.64210361 2.3509802e-38
3.0440104 -1.1604822 0.65660506 2.3509803e-38
3.0448458 -1.1795725 0.66178524 2.3509803e-38
3.0461638 -1.2155646 0.66652203 2.3509804e-38
3.0466619 -1.225708 0.6703372 2.3509804e-38
3.0473785 -1.2450318 0.67306066 2.3509806e-38
3.0476365 -1.2576648 0.67072886 2.3509807e-38
3.0482945 -1.2845756 0.66787797 2.3509807e-38
3.0484359 -1.2912327 0.66675848 2.3509809e-38
3.0487185 -1.3050725 0.66419607 2.3509809e-38
3.0490422 -1.3332202 0.65409976 2.350981e-38
3.0491798 -1.3400207 0.65281671 2.350981e-38
3.0504527 -1.3863266 0.65065241 2.3509811e-38
3.0512238 -1.4053805 0.65460151 2.3509813e-38
3.0517018 -1.418017 0.65656275 2.3509813e-38
3.053298 -1.4574201 0.66475475 2.3509814e-38
3.0537462 -1.4718072 0.6651144 2.3509814e-38
3.0545199 -1.4899638 0.66963047 2.3509816e-38
3.054765 -1.5035577 0.66648918 2.3509816e-38
3.0550108 -1.517298 0.66327018 2.3509817e-38
3.0567203 -1.5698136 0.66601944 2.3509818e-38
3.0573587 -1.6055173 0.65765536 2.3509818e-38
3.0575716 -1.6181219 0.65445471 2.350982e-38
3.0578861 -1.6535738 0.63990408 2.350982e-38
3.0588894 -1.6850667 0.64112443 2.3509821e-38
3.0591803 -1.6987604 0.63881361 2.3509821e-38
3.05986 -1.7345567 0.63119948 2.3509823e-38
3.0610735 -1.76677 0.63611311 2.3509824e-38
3.0620511 -1.8148205 0.62715787 2.3509824e-38
3.0629137 -1.8343368 0.63263023 2.3509825e-38
3.0630393 -1.8477491 0.6272471 2.3509825e-38
3.0638597 -1.8812449 0.62372732 2.3509827e-38
3.0642333 -1.8929405 0.62419879 2.3509827e-38
3.0650816 -1.9138944 0.62854999 2.3509828e-38
3.0655403 -1.9278934 0.62934053 2.350983e-38
3.0662777 -1.9448409 0.63385797 2.350983e-38
3.066514 -1.9567261 0.63153857 2.3509831e-38
3.0671189 -1.9921062 0.62270039 2.3509831e-38
3.0676355 -2.0438645 0.60258281 2.3509832e-38
3.0693955 -2.0912547 0.60930997 2.3509832e-38
3.0712755 -2.140213 0.61746991 2.3509834e-38
3.0726075 -2.2009025 0.60807675 2.3509835e-38
3.076391 -2.2592351 0.64795035 2.3509835e-38
3.0768263 -2.2677047 0.65152299 2.3509837e-38
3.0774174 -2.2835662 0.65380627 2.3509837e-38
3.0764205 -2.2999504 0.62476301 2.3509838e-38
3.0762141 -2.3011351 0.62003112 2.3509838e-38
3.075336 -2.2974124 0.60505462 2.3509839e-38
3.0741966 -2.2903454 0.58690971 2.3509841e-38
3.0706525 -2.2780027 0.52485245 2.3509841e-38
3.0694392 -2.2812383 0.49926001 2.3509842e-38
3.0672207 -2.2860782 0.45308024 2.3509842e-38
3.0635386 -2.2905405 0.37852401 2.3509844e-38
3.0612319 -2.2917368 0.332744 2.3509844e-38
3.0590549 -2.282129 0.29581568 2.3509845e-38
3.0583303 -2.2817526 0.28187102 2.3509846e-38
3.0563629 -2.2718158 0.24922693 2.3509846e-38
3.0544295 -2.2667823 0.21438485 2.3509848e-38
3.0538697 -2.2655578 0.20416331 2.3509848e-38
3.0527914 -2.2630649 0.18454421 2.3509849e-38
3.0510116 -2.2574935 0.15301466 2.3509849e-38
3.0497751 -2.265167 0.12437707 2.3509851e-38
3.047822 -2.278718 0.078301445 2.3509852e-38
3.0444205 -2.2541392 0.026178733 2.3509852e-38
3.0425925 -2.2468174 -0.0052728951 2.3509853e-38
3.0413554 -2.2455645 -0.028717987 2.3509853e-38
3.0397878 -2.2482605 -0.0609193 2.3509855e-38
3.037662 -2.2401805 -0.097748011 2.3509855e-38
3.0362189 -2.239939 -0.12580797 2.3509856e-38
3.0344574 -2.2520344 -0.16728351 2.3509858e-38
3.0323215 -2.2384241 -0.20108598 2.3509858e-38
3.0280795 -2.2140951 -0.26977178 2.3509859e-38
3.0269845 -2.2111421 -0.28944719 2.3509859e-38
3.0256417 -2.2060833 -0.31274039 2.350986e-38
3.0247471 -2.2052681 -0.32974321 2.350986e-38
3.0217199 -2.212975 -0.39339736 2.3509862e-38
3.0210745 -2.2085586 -0.40342933 2.3509863e-38
3.0166717 -2.1653912 -0.46427172 2.3509863e-38
3.0143685 -2.1672251 -0.51034546 2.3509865e-38
3.0111711 -2.1639121 -0.57089007 2.3509865e-38
3.0104208 -2.1627042 -0.58484983 2.3509866e-38
3.009069 -2.1623442 -0.61106241 2.3509866e-38
3.0070302 -2.1572089 -0.64790154 2.3509867e-38
3.0054843 -2.2055357 -0.7063247 2.3509869e-38
3.0048673 -2.222769 -0.72843611 2.3509869e-38
3.0042655 -2.2221611 -0.7398439 2.350987e-38
3.0023162 -2.222518 -0.77813792 2.350987e-38
3.001616 -2.2243867 -0.79291904 2.3509872e-38
2.998863 -2.2117991 -0.83937383 2.3509872e-38
2.9975286 -2.2137096 -0.86655951 2.3509873e-38
2.9968612 -2.2151914 -0.88047057 2.3509874e-38
2.9947209 -2.2078598 -0.91800666 2.3509874e-38
2.9939272 -2.2102103 -0.93489492 2.3509876e-38
2.9928882 -2.2240818 -0.96329308 2.3509876e-38
2.9916275 -2.2064033 -0.97761786 2.3509877e-38
2.9914007 -2.2038131 -0.98053437 2.3509877e-38
2.991029 -2.1925967 -0.9812451 2.3509879e-38
2.9889839 -2.1434512 -0.99252421 2.350988e-38
2.9879813 -2.1167026 -0.99649948 2.350988e-38
2.9865255 -2.0846245 -1.0062178 2.3509881e-38
2.9857068 -2.0588233 -1.0071554 2.3509881e-38
3.0166028 -0.34801114 0.59530401 2.3509883e-38
3.015749 -0.46074125 0.51281875 2.3509883e-38
3.0129364 -0.33352318 0.53211403 2.3509884e-38
