# .PCD v0.7 - Point Cloud Data file format
VERSION 0.7
FIELDS x y z rgb
SIZE 4 4 4 4
TYPE F F F F
COUNT 1 1 1 1
WIDTH 62
HEIGHT 1
VIEWPOINT 0 0 0 1 0 0 0
POINTS 62
DATA ascii
2.0067527 -1.0886238 -1.1152191 2.3509528e-38
2.0666118 -1.1730146 -1.1204404 2.3509534e-38
2.1418231 -1.1504102 -1.1246477 2.3509539e-38
2.1635008 -1.1572602 -1.1261048 2.3509545e-38
2.1891208 -1.1753083 -1.128009 2.3509551e-38
2.2291222 -1.2556491 -1.1319363 2.3509556e-38
2.2366295 -1.2682872 -1.1326287 2.3509562e-38
2.2615285 -1.2862685 -1.1344874 2.3509568e-38
2.3083866 -1.3114643 -1.1378272 2.3509573e-38
2.3288667 -1.3177656 -1.1392007 2.350958e-38
2.3689778 -1.3295192 -1.1418802 2.3509586e-38
2.3910596 -1.3362192 -1.1433593 2.3509591e-38
2.4524469 -1.3520977 -1.1474211 2.3509597e-38
2.4679489 -1.3605421 -1.1485281 2.3509603e-38
2.4975471 -1.3781624 -1.1506691 2.3509608e-38
2.5809648 -1.4339026 -1.1568135 2.3509614e-38
2.6451068 -1.4658597 -1.1613388 2.3509619e-38
2.6846967 -1.5120554 -1.1646162 2.3509625e-38
2.6909199 -1.5253789 -1.1652423 2.3509632e-38
2.7109683 -1.5314978 -1.1665859 2.3509638e-38
2.7444406 -1.5636005 -1.1692297 2.3509643e-38
2.7715607 -1.5824676 -1.171241 2.3509649e-38
2.840909 -1.5813994 -1.175482 2.3509654e-38
2.8601048 -1.5859088 -1.176744 2.350966e-38
2.8943427 -1.5516605 -1.178221 2.3509666e-38
2.8874357 -1.5388006 -1.1775615 2.3509671e-38
2.880934 -1.5256664 -1.1769217 2.3509677e-38
2.888716 -1.4391856 -1.175818 2.3509684e-38
2.8849123 -1.3916699 -1.1747149 2.3509689e-38
2.8782542 -1.3786458 -1.1740676 2.3509695e-38
2.8695054 -1.3337517 -1.1727089 2.3509701e-38
2.9503596 -1.2590331 -1.1763096 2.3509706e-38
2.9175503 -1.1935651 -1.1730964 2.3509712e-38
2.892611 -1.1073881 -1.1699877 2.3509717e-38
2.8527977 -1.0619267 -1.16671 2.3509723e-38
2.8290658 -1.0412931 -1.1648747 2.3509729e-38
2.8064656 -1.0364885 -1.1633983 2.3509736e-38
2.7385879 -1.0387474 -1.1592692 2.3509741e-38
2.712646 -1.019081 -1.1573156 2.3509747e-38
2.699985 -1.0276548 -1.1566945 2.3509752e-38
2.6321039 -1.0271541 -1.1525149 2.3509758e-38
2.6113477 -1.022118 -1.1511476 2.3509764e-38
2.5920384 -1.0154972 -1.1498402 2.3509769e-38
2.5579619 -0.98380488 -1.1471668 2.3509775e-38
2.5268304 -0.96681887 -1.1449435 2.3509781e-38
2.4464021 -0.9424848 -1.139557 2.3509788e-38
2.426863 -0.91964889 -1.1379387 2.3509793e-38
2.5067799 -0.81233442 -1.1408857 2.3509799e-38
2.4871616 -0.77300799 -1.1389611 2.3509804e-38
2.4475362 -0.76045012 -1.1362969 2.350981e-38
2.3819745 -0.74506825 -1.1319875 2.3509816e-38
2.3724375 -0.75006229 -1.1314929 2.3509821e-38
2.2660005 -0.73904008 -1.1247519 2.3509827e-38
2.2528913 -0.74612242 -1.1240761 2.3509832e-38
2.2049909 -0.7541849 -1.1212807 2.3509839e-38
2.1624088 -0.80595976 -1.1196116 2.3509845e-38
2.1499636 -0.81573159 -1.1190257 2.3509851e-38
2.1203177 -0.89732569 -1.1186968 2.3509856e-38
2.0861125 -0.93155098 -1.1172214 2.3509862e-38
2.0848024 -0.96535528 -1.1177593 2.3509867e-38
2.0568497 -1.0123061 -1.1169008 2.3509873e-38
2.0279386 -1.0610638 -1.1160165 2.3509879e-38
