# .PCD v0.7 - Point Cloud Data file format
VERSION 0.7
FIELDS x y z rgb
SIZE 4 4 4 4
TYPE F F F F
COUNT 1 1 1 1
WIDTH 108
HEIGHT 1
VIEWPOINT 0 0 0 1 0 0 0
POINTS 108
DATA ascii
1.3611437 2.670058 0.90707958 2.3509528e-38
1.369168 2.6710093 0.91685289 2.3509531e-38
1.3760358 2.6716735 0.91732532 2.3509534e-38
1.4649004 2.679678 0.89248854 2.3509538e-38
1.4922757 2.6827011 0.91410571 2.3509541e-38
1.5028167 2.6837871 0.91833782 2.3509544e-38
1.5119631 2.6843917 0.90426499 2.3509548e-38
1.5649292 2.6882603 0.84205693 2.3509551e-38
1.657577 2.6967535 0.8239333 2.3509554e-38
1.6950506 2.7005613 0.83619362 2.3509558e-38
1.737071 2.7049809 0.85778588 2.3509561e-38
1.7737916 2.7085431 0.86089802 2.3509563e-38
1.7907481 2.7103252 0.86954767 2.3509568e-38
1.8112854 2.712352 0.8731181 2.350957e-38
1.8237348 2.7135777 0.87510723 2.3509575e-38
1.8397052 2.7149837 0.86892736 2.3509577e-38
1.8434302 2.7153025 0.86702853 2.350958e-38
1.8463199 2.715235 0.84898579 2.3509584e-38
1.8546425 2.7156768 0.83050501 2.3509587e-38
1.866277 2.7164137 0.81089014 2.350959e-38
1.9645473 2.7254753 0.79448521 2.3509594e-38
1.9921166 2.7280252 0.79026932 2.3509597e-38
2.0567541 2.7338862 0.77422988 2.35096e-38
2.0738664 2.7354331 0.76974064 2.3509604e-38
2.0863364 2.7365651 0.76671952 2.3509607e-38
2.1219625 2.7399983 0.76854342 2.3509611e-38
2.1349251 2.7411387 0.76349008 2.3509614e-38
2.1420519 2.7417493 0.75984532 2.3509617e-38
2.186305 2.7458758 0.75487274 2.3509621e-38
2.1950247 2.7464559 0.7416361 2.3509624e-38
2.2701967 2.7531207 0.71504694 2.3509626e-38
2.2723393 2.7530198 0.6990065 2.3509631e-38
2.2752876 2.7529933 0.68284392 2.3509633e-38
2.2955515 2.7542191 0.64568555 2.3509636e-38
2.2911429 2.7535086 0.63044441 2.350964e-38
2.2681015 2.7511663 0.62288332 2.3509643e-38
2.2296286 2.7465634 0.57386035 2.3509647e-38
2.2201719 2.7451415 0.54654557 2.350965e-38
2.2169883 2.7445464 0.53123397 2.3509653e-38
2.2470338 2.7457767 0.44530132 2.3509657e-38
2.253545 2.7463024 0.44028381 2.350966e-38
2.2861307 2.7489021 0.41355881 2.3509663e-38
2.2773457 2.746042 0.30731225 2.3509667e-38
2.3350523 2.7509048 0.27360359 2.350967e-38
2.3722973 2.7541528 0.25756451 2.3509673e-38
2.4167736 2.7585368 0.26498854 2.3509677e-38
2.4560373 2.7620814 0.25442833 2.350968e-38
2.4618464 2.7625604 0.2504788 2.3509682e-38
2.4707668 2.7629583 0.22668664 2.3509687e-38
2.4752553 2.763135 0.21347375 2.3509689e-38
2.4493725 2.7599704 0.17693089 2.3509694e-38
2.4360278 2.7588058 0.18262301 2.3509696e-38
2.4162123 2.7569907 0.18657114 2.3509699e-38
2.3363953 2.7487514 0.15372422 2.3509703e-38
2.3225117 2.7472374 0.14376269 2.3509706e-38
2.3056617 2.7430801 0.0098144487 2.3509709e-38
2.3257413 2.7437546 -0.055393439 2.3509713e-38
2.2855241 2.7397499 -0.064251482 2.3509716e-38
2.2653313 2.7378132 -0.06478855 2.3509719e-38
2.2327507 2.7348599 -0.056668941 2.3509723e-38
2.1982293 2.7315071 -0.059804555 2.3509726e-38
2.1877089 2.7305467 -0.057534818 2.350973e-38
2.1531072 2.7271783 -0.061087135 2.3509733e-38
2.1319475 2.725347 -0.051237281 2.3509736e-38
2.1178489 2.7241497 -0.043495398 2.350974e-38
2.0855472 2.72121 -0.036040332 2.3509743e-38
2.0795188 2.7207594 -0.029504683 2.3509745e-38
2.0750134 2.7206273 -0.013881374 2.350975e-38
2.0696716 2.7215507 0.061400559 2.3509752e-38
2.0521891 2.7203166 0.084206313 2.3509755e-38
2.0223939 2.7180638 0.11516707 2.3509759e-38
2.0165932 2.717577 0.11864884 2.3509762e-38
2.0036283 2.7164874 0.12639356 2.3509767e-38
1.88527 2.7057807 0.15706907 2.3509769e-38
1.8765401 2.7049882 0.15918039 2.3509772e-38
1.8388458 2.7013485 0.15687695 2.3509776e-38
1.8221151 2.7001412 0.1773008 2.3509779e-38
1.7250221 2.6909435 0.18065614 2.3509782e-38
1.6849316 2.6859541 0.1194614 2.3509786e-38
1.6720929 2.6848156 0.12400673 2.3509789e-38
1.6490958 2.6831644 0.15249756 2.3509792e-38
1.6414063 2.6826463 0.1638117 2.3509796e-38
1.6297221 2.6817656 0.17610087 2.3509799e-38
1.6208744 2.6811397 0.18756056 2.3509802e-38
1.6162665 2.680897 0.19791371 2.3509806e-38
1.5682013 2.6782064 0.29743472 2.3509809e-38
1.5357578 2.6752193 0.3031095 2.3509813e-38
1.5037 2.6722224 0.30630389 2.3509816e-38
1.4900217 2.6709738 0.30926308 2.3509818e-38
1.4537545 2.6675172 0.30942985 2.3509823e-38
1.4058579 2.6629808 0.31115663 2.3509825e-38
1.3691419 2.6595006 0.31232899 2.3509828e-38
1.3669882 2.6595385 0.32510889 2.3509832e-38
1.3607261 2.6592937 0.34364086 2.3509835e-38
1.350554 2.6596618 0.41395298 2.3509838e-38
1.3537889 2.6603167 0.43213606 2.3509842e-38
1.3523939 2.6607168 0.46017438 2.3509845e-38
1.3452079 2.6614037 0.53224105 2.3509849e-38
1.3483616 2.661869 0.54090464 2.3509852e-38
1.3472409 2.6632495 0.61905396 2.3509855e-38
1.3583027 2.6650739 0.65945387 2.3509859e-38
1.3600216 2.6654861 0.67250502 2.3509862e-38
1.3477297 2.6656992 0.74528921 2.3509865e-38
1.3449047 2.6666226 0.80796283 2.3509869e-38
1.3453789 2.6669145 0.82092154 2.3509872e-38
1.344327 2.6677954 0.8724733 2.3509874e-38
1.3464904 2.668288 0.88753068 2.3509879e-38
1.3525252 2.6690753 0.89863122 2.3509881e-38
