# .PCD v0.7 - Point Cloud Data file format
VERSION 0.7
FIELDS x y z rgb
SIZE 4 4 4 4
TYPE F F F F
COUNT 1 1 1 1
WIDTH 145
HEIGHT 1
VIEWPOINT 0 0 0 1 0 0 0
POINTS 145
DATA ascii
-1.7912519 2.3455005 -1.0437715 2.3509528e-38
-1.7828188 2.3861117 -1.0610642 2.350953e-38
-1.7777542 2.4136257 -1.0459234 2.3509532e-38
-1.7727852 2.4391842 -1.0428072 2.3509535e-38
-1.7649299 2.4792831 -1.0403566 2.3509538e-38
-1.7609265 2.4988885 -1.0459117 2.3509539e-38
-1.7539368 2.534215 -1.0466238 2.3509542e-38
-1.7385163 2.6108761 -1.0586368 2.3509545e-38
-1.7364547 2.6203017 -1.0669682 2.3509548e-38
-1.7349648 2.6284261 -1.0622656 2.3509549e-38
-1.7302921 2.6529913 -1.0549984 2.3509552e-38
-1.7213233 2.7001405 -1.0410604 2.3509555e-38
-1.7270517 2.678755 -0.97864747 2.3509558e-38
-1.7269875 2.6808405 -0.96427882 2.3509559e-38
-1.7300451 2.6710339 -0.91782886 2.3509562e-38
-1.7318537 2.6660118 -0.88399804 2.3509565e-38
-1.7315845 2.6695044 -0.86661494 2.3509568e-38
-1.7322195 2.6695359 -0.84005988 2.3509569e-38
-1.7333416 2.6679075 -0.80692494 2.3509572e-38
-1.7350702 2.6613092 -0.78929031 2.3509575e-38
-1.7364091 2.6571493 -0.76784605 2.3509577e-38
-1.7366698 2.6576166 -0.75324082 2.3509579e-38
-1.7365263 2.6600657 -0.73917377 2.3509582e-38
-1.7381128 2.6573496 -0.69570452 2.3509584e-38
-1.7412648 2.648314 -0.63905394 2.3509587e-38
-1.742362 2.647686 -0.59876359 2.3509589e-38
-1.7442607 2.6424403 -0.56303883 2.3509591e-38
-1.7442532 2.6460271 -0.534051 2.3509594e-38
-1.7465662 2.6387243 -0.49797374 2.3509597e-38
-1.7481571 2.633945 -0.47115472 2.35096e-38
-1.7493603 2.63185 -0.43846801 2.3509601e-38
-1.7490315 2.6351702 -0.42496794 2.3509604e-38
-1.7499287 2.6324053 -0.41042018 2.3509607e-38
-1.7505612 2.6315434 -0.39128384 2.350961e-38
-1.750825 2.6323698 -0.37359902 2.3509611e-38
-1.7523267 2.6269653 -0.35559276 2.3509614e-38
-1.7537606 2.6236732 -0.32315147 2.3509617e-38
-1.7558852 2.6181254 -0.28053367 2.3509619e-38
-1.756418 2.6164384 -0.27225152 2.3509621e-38
-1.75754 2.6139107 -0.24646714 2.3509624e-38
-1.7577068 2.6148276 -0.23207018 2.3509626e-38
-1.7585269 2.6148016 -0.19833657 2.3509629e-38
-1.7594862 2.6118801 -0.1824992 2.3509631e-38
-1.7600691 2.610929 -0.16615498 2.3509633e-38
-1.7605708 2.610342 -0.15017506 2.3509636e-38
-1.7611938 2.6092699 -0.13315552 2.3509639e-38
-1.7623314 2.6080551 -0.09599597 2.350964e-38
-1.7629769 2.6061547 -0.08480335 2.3509643e-38
-1.7634718 2.6065085 -0.061406817 2.3509646e-38
-1.7643235 2.6033859 -0.051677976 2.3509649e-38
-1.7662084 2.5995426 -0.0050666109 2.350965e-38
-1.770332 2.5855234 0.051083677 2.3509653e-38
-1.7704169 2.5872772 0.068923227 2.3509656e-38
-1.7712648 2.5861218 0.094592452 2.3509659e-38
-1.7711742 2.5899112 0.12179549 2.350966e-38
-1.7722679 2.586395 0.1383352 2.3509663e-38
-1.7738017 2.581254 0.15982729 2.3509666e-38
-1.7756208 2.5783763 0.21161366 2.3509668e-38
-1.7773736 2.5714686 0.22773021 2.3509671e-38
-1.7787368 2.5668473 0.24640006 2.3509673e-38
-1.7794507 2.5652657 0.26301774 2.3509675e-38
-1.7801673 2.5636864 0.27978086 2.3509678e-38
-1.7807375 2.5627649 0.29585135 2.3509681e-38
-1.7813393 2.5617383 0.31237158 2.3509682e-38
-1.7817526 2.5615776 0.3281745 2.3509685e-38
-1.7818626 2.5646095 0.35748705 2.3509688e-38
-1.7853984 2.5507042 0.39024723 2.3509691e-38
-1.7861536 2.5490069 0.40763003 2.3509692e-38
-1.7871 2.5482314 0.4404732 2.3509695e-38
-1.7868785 2.5509191 0.45326269 2.3509698e-38
-1.7874365 2.5500183 0.46900094 2.3509701e-38
-1.7873769 2.5538507 0.4978289 2.3509702e-38
-1.7876588 2.5538168 0.50923109 2.3509705e-38
-1.7911317 2.5407166 0.54595971 2.3509708e-38
-1.7912869 2.5435159 0.5752492 2.350971e-38
-1.7915643 2.544055 0.59112513 2.3509712e-38
-1.7925727 2.5410342 0.60818738 2.3509715e-38
-1.7928452 2.5417516 0.62533683 2.3509717e-38
-1.7929336 2.5446672 0.652807 2.350972e-38
-1.794113 2.5407825 0.66988134 2.3509722e-38
-1.7946631 2.5401022 0.68710178 2.3509724e-38
-1.7951622 2.5424719 0.72711551 2.3509727e-38
-1.7968276 2.533536 0.72304648 2.350973e-38
-1.8008413 2.5120709 0.71382797 2.3509731e-38
-1.8031864 2.4966509 0.68492854 2.3509734e-38
-1.8028269 2.4964414 0.66833413 2.3509737e-38
-1.8023155 2.4971869 0.65325654 2.350974e-38
-1.8021115 2.4963694 0.63812733 2.3509743e-38
-1.8017116 2.4968412 0.6254313 2.3509744e-38
-1.8017162 2.4946716 0.60790992 2.3509747e-38
-1.8028438 2.4831898 0.560785 2.350975e-38
-1.8025002 2.4830267 0.54523009 2.3509752e-38
-1.804844 2.4658372 0.5018211 2.3509754e-38
-1.8040469 2.4659176 0.46948266 2.3509757e-38
-1.8023031 2.4671078 0.40702504 2.3509759e-38
-1.8018119 2.4677088 0.39161521 2.3509762e-38
-1.800786 2.4687715 0.35783353 2.3509764e-38
-1.8003207 2.4675312 0.32844254 2.3509767e-38
-1.7996829 2.4689662 0.31376532 2.3509769e-38
-1.7996323 2.4672101 0.2973285 2.3509772e-38
-1.7988865 2.4685576 0.27746904 2.3509774e-38
-1.7985406 2.4687831 0.26498175 2.3509776e-38
-1.7981608 2.4687886 0.24931669 2.3509779e-38
-1.797731 2.4690099 0.23333511 2.3509782e-38
-1.7981799 2.4634199 0.20625055 2.3509783e-38
-1.7972448 2.4641321 0.17336352 2.3509786e-38
-1.7977283 2.4557493 0.12489854 2.3509789e-38
-1.7977769 2.4537451 0.1105416 2.3509792e-38
-1.7979686 2.4492939 0.082116634 2.3509793e-38
-1.8003403 2.4319742 0.038792726 2.3509796e-38
-1.7992178 2.4355304 0.021385338 2.3509799e-38
-1.7978296 2.4387465 -0.0097991563 2.3509802e-38
-1.796965 2.438977 -0.043711968 2.3509803e-38
-1.7965127 2.4392817 -0.059933338 2.3509806e-38
-1.7959716 2.4382703 -0.090598144 2.3509809e-38
-1.7960443 2.4361525 -0.10488045 2.3509811e-38
-1.7957504 2.4357562 -0.12028438 2.3509814e-38
-1.7952771 2.434535 -0.14984989 2.3509816e-38
-1.7945485 2.4360704 -0.16747299 2.3509818e-38
-1.7944834 2.434365 -0.18409595 2.3509821e-38
-1.7947445 2.4271834 -0.23194861 2.3509824e-38
-1.7974849 2.4081345 -0.27414671 2.3509825e-38
-1.7973896 2.4064493 -0.29184979 2.3509828e-38
-1.7990274 2.3929276 -0.33450791 2.3509831e-38
-1.7987099 2.3927927 -0.34876066 2.3509834e-38
-1.7966681 2.3947926 -0.4169268 2.3509835e-38
-1.7949222 2.3962114 -0.47759864 2.3509838e-38
-1.79564 2.3912625 -0.48832616 2.3509841e-38
-1.7957038 2.3891652 -0.50280976 2.3509844e-38
-1.7952412 2.3891056 -0.52245098 2.3509845e-38
-1.7967494 2.3769841 -0.55905014 2.3509848e-38
-1.7962437 2.3749418 -0.59665883 2.3509851e-38
-1.797811 2.3613966 -0.64243984 2.3509853e-38
-1.7966166 2.365901 -0.65507925 2.3509855e-38
-1.7950351 2.3699913 -0.68712425 2.3509858e-38
-1.7957966 2.3619709 -0.72112101 2.350986e-38
-1.7946665 2.3653717 -0.74011374 2.3509863e-38
-1.7944826 2.3655064 -0.74661934 2.3509865e-38
-1.7933387 2.3681495 -0.77238464 2.3509867e-38
-1.7933117 2.3674142 -0.7795043 2.350987e-38
-1.7936401 2.3617215 -0.81241238 2.3509873e-38
-1.7953793 2.3488786 -0.84534341 2.3509874e-38
-1.7963194 2.3367562 -0.90545225 2.3509877e-38
-1.7961478 2.3320074 -0.95134604 2.350988e-38
-1.7949073 2.330833 -1.0122904 2.3509883e-38
