# .PCD v0.7 - Point Cloud Data file format
VERSION 0.7
FIELDS x y z rgb
SIZE 4 4 4 4
TYPE F F F F
COUNT 1 1 1 1
WIDTH 142
HEIGHT 1
VIEWPOINT 0 0 0 1 0 0 0
POINTS 142
DATA ascii
2.9130938 2.2372942 -0.98536462 2.3509528e-38
2.9070001 2.2489085 -1.0015152 2.350953e-38
2.8999581 2.2625909 -1.0173397 2.3509532e-38
2.8942015 2.2761667 -1.0042269 2.3509535e-38
2.888854 2.2893476 -0.98583001 2.3509538e-38
2.8831644 2.3045721 -0.95317584 2.3509539e-38
2.8788207 2.316958 -0.9199335 2.3509542e-38
2.8848627 2.307339 -0.88323921 2.3509545e-38
2.8868389 2.3050792 -0.86158365 2.3509548e-38
2.8872795 2.3065822 -0.83488792 2.3509551e-38
2.8877161 2.3071554 -0.81841439 2.3509552e-38
2.8866189 2.3112168 -0.79985446 2.3509555e-38
2.8869786 2.3117166 -0.78598064 2.3509558e-38
2.8895535 2.3091559 -0.75357932 2.3509561e-38
2.892293 2.3058004 -0.72597814 2.3509563e-38
2.8914866 2.3101263 -0.69772381 2.3509565e-38
2.8944299 2.3064446 -0.66891378 2.3509568e-38
2.8942647 2.3087974 -0.64714044 2.350957e-38
2.8951302 2.3098123 -0.61581135 2.3509573e-38
2.8916259 2.323103 -0.55304813 2.3509576e-38
2.891655 2.3231308 -0.55205917 2.3509577e-38
2.89222 2.3234255 -0.53561974 2.350958e-38
2.8990989 2.3153994 -0.46197236 2.3509583e-38
2.8909497 2.3376918 -0.40990034 2.3509586e-38
2.8927326 2.3378873 -0.36599949 2.3509589e-38
2.8936586 2.3371923 -0.35189354 2.350959e-38
2.8934004 2.3390646 -0.33754039 2.3509593e-38
2.8942366 2.3388939 -0.3198159 2.3509596e-38
2.9023783 2.3248243 -0.28245139 2.3509598e-38
2.9032469 2.3239388 -0.27175364 2.3509601e-38
2.903511 2.324718 -0.25707382 2.3509603e-38
2.9033208 2.3276305 -0.22979096 2.3509605e-38
2.9111559 2.3154826 -0.17866829 2.3509608e-38
2.9130428 2.3126755 -0.1650669 2.3509611e-38
2.9138231 2.3127789 -0.14566115 2.3509614e-38
2.9143226 2.3137465 -0.123418 2.3509615e-38
2.9146109 2.3147357 -0.10588583 2.3509618e-38
2.9106643 2.3285737 -0.04752022 2.3509621e-38
2.9112298 2.3285794 -0.034208357 2.3509624e-38
2.9036872 2.3492837 0.014762491 2.3509626e-38
2.9073071 2.343487 0.036372229 2.3509628e-38
2.9092505 2.342514 0.071288764 2.3509631e-38
2.9098873 2.3439159 0.10147189 2.3509633e-38
2.9093447 2.3461623 0.11325264 2.3509636e-38
2.9109669 2.3443708 0.13172036 2.3509639e-38
2.9113214 2.3459787 0.15754545 2.350964e-38
2.912591 2.3449042 0.17557648 2.3509643e-38
2.9132073 2.3454745 0.1962266 2.3509646e-38
2.9131382 2.3481328 0.22357371 2.3509649e-38
2.9149716 2.34672 0.25112301 2.350965e-38
2.9159789 2.3475423 0.28367645 2.3509653e-38
2.9161978 2.3484013 0.2981675 2.3509656e-38
2.9120469 2.3611758 0.34015682 2.3509659e-38
2.9199507 2.3479161 0.38077587 2.3509661e-38
2.9204342 2.3479068 0.3919971 2.3509663e-38
2.9209995 2.3481052 0.40740252 2.3509666e-38
2.9223001 2.3467915 0.42354345 2.3509668e-38
2.9222894 2.34832 0.43995243 2.3509671e-38
2.9225049 2.3489184 0.45152169 2.3509674e-38
2.9229751 2.3492258 0.46587998 2.3509675e-38
2.923368 2.3490992 0.47370744 2.3509678e-38
2.9246693 2.3476255 0.48811936 2.3509681e-38
2.9249849 2.3494618 0.51552629 2.3509684e-38
2.9323244 2.3341749 0.52084363 2.3509687e-38
2.9378386 2.3223386 0.5210008 2.3509688e-38
2.9495683 2.2955174 0.50343108 2.3509691e-38
2.9550934 2.2822812 0.48859602 2.3509694e-38
2.960093 2.2675228 0.44487077 2.3509696e-38
2.9590681 2.2681444 0.4276281 2.3509699e-38
2.9586787 2.2677455 0.41415268 2.3509701e-38
2.9583158 2.2670925 0.39854455 2.3509703e-38
2.9575429 2.267354 0.38329393 2.3509706e-38
2.956845 2.2660108 0.35230207 2.3509709e-38
2.955864 2.2663608 0.33314079 2.3509712e-38
2.9552336 2.2666156 0.32115632 2.3509713e-38
2.9535608 2.267395 0.29046902 2.3509716e-38
2.9524345 2.2678087 0.26860079 2.3509719e-38
2.9519978 2.2641492 0.21849313 2.3509722e-38
2.9509583 2.2647457 0.20064256 2.3509724e-38
2.9505994 2.2643108 0.18750247 2.3509726e-38
2.9501336 2.2639987 0.17319018 2.3509729e-38
2.949604 2.2624547 0.14396325 2.3509731e-38
2.9480598 2.2638359 0.12284398 2.3509734e-38
2.9475248 2.2636027 0.10777351 2.3509737e-38
2.9471092 2.2632329 0.094010711 2.3509738e-38
2.946116 2.2626791 0.064711735 2.3509741e-38
2.9448962 2.263495 0.045038596 2.3509744e-38
2.9448283 2.2624619 0.032185331 2.3509747e-38
2.9448872 2.2607238 0.014620423 2.350975e-38
2.9435947 2.2620082 -0.0016537607 2.3509751e-38
2.9430718 2.2619359 -0.014685154 2.3509754e-38
2.9428945 2.2614605 -0.024024025 2.3509757e-38
2.942517 2.2612083 -0.035614058 2.3509759e-38
2.9418874 2.2616291 -0.045771852 2.3509762e-38
2.9418464 2.260803 -0.055738702 2.3509764e-38
2.9414978 2.2604225 -0.068046018 2.3509767e-38
2.940805 2.2597685 -0.091400325 2.3509769e-38
2.940254 2.259944 -0.10239595 2.3509772e-38
2.9447584 2.2461238 -0.1475134 2.3509774e-38
2.9441543 2.246038 -0.16259384 2.3509776e-38
2.94344 2.2458892 -0.18093923 2.3509779e-38
2.9427459 2.2459588 -0.19643965 2.3509782e-38
2.9421751 2.2457662 -0.21190098 2.3509785e-38
2.9428725 2.2417302 -0.23955336 2.3509786e-38
2.9406765 2.24384 -0.26800039 2.3509789e-38
2.9399536 2.2440822 -0.28228697 2.3509792e-38
2.9393673 2.2439077 -0.29791695 2.3509795e-38
2.9389644 2.2435238 -0.31154457 2.3509797e-38
2.9385433 2.2436345 -0.32019922 2.3509799e-38
2.9378552 2.2437587 -0.33495814 2.3509802e-38
2.9373214 2.2437134 -0.34796032 2.3509804e-38
2.9368584 2.2433975 -0.36223999 2.3509807e-38
2.9364572 2.243012 -0.37584579 2.350981e-38
2.935148 2.244349 -0.39193466 2.3509811e-38
2.9346368 2.2425587 -0.42341775 2.3509814e-38
2.9330835 2.2443757 -0.44000244 2.3509817e-38
2.9313121 2.2421367 -0.50588906 2.350982e-38
2.9307435 2.2419417 -0.52132416 2.3509823e-38
2.9304805 2.2398374 -0.55043173 2.3509824e-38
2.9289284 2.241375 -0.57002223 2.3509827e-38
2.9283533 2.2412958 -0.5843485 2.350983e-38
2.9279327 2.2409315 -0.59816206 2.3509832e-38
2.9272461 2.2408724 -0.61489767 2.3509835e-38
2.926949 2.2403672 -0.62736028 2.3509837e-38
2.9263334 2.2400334 -0.64542085 2.3509839e-38
2.9257567 2.2400413 -0.65884203 2.3509842e-38
2.925117 2.2400966 -0.67322063 2.3509845e-38
2.9244695 2.2398238 -0.69136566 2.3509848e-38
2.9234722 2.2392743 -0.72070915 2.3509849e-38
2.9227283 2.2395792 -0.73480636 2.3509852e-38
2.9224775 2.2387218 -0.75002497 2.3509855e-38
2.9219778 2.2384486 -0.76470733 2.3509858e-38
2.920747 2.2381661 -0.79660803 2.350986e-38
2.9199824 2.2379951 -0.81638455 2.3509862e-38
2.9188778 2.2377696 -0.84471762 2.3509865e-38
2.9183829 2.2374902 -0.85934585 2.3509867e-38
2.9178646 2.2372403 -0.87421155 2.350987e-38
2.917388 2.2369382 -0.88866472 2.3509873e-38
2.9168832 2.2366703 -0.90340036 2.3509874e-38
2.916378 2.236403 -0.91814375 2.3509877e-38
2.9153645 2.2369783 -0.9356215 2.350988e-38
2.9142892 2.2362576 -0.96866101 2.3509883e-38
