# .PCD v0.7 - Point Cloud Data file format
VERSION 0.7
FIELDS x y z rgb
SIZE 4 4 4 4
TYPE F F F F
COUNT 1 1 1 1
WIDTH 264
HEIGHT 1
VIEWPOINT 0 0 0 1 0 0 0
POINTS 264
DATA ascii
-1.3217709 -4.8623972 1.4305066 2.3509528e-38
-1.2765117 -4.8553672 1.4311359 2.3509528e-38
-1.2659739 -4.8504372 1.4313089 2.350953e-38
-1.25711 -4.8349948 1.4315457 2.3509531e-38
-1.251684 -4.8231678 1.4317096 2.3509532e-38
-1.2461138 -4.8081021 1.4319016 2.3509534e-38
-1.2247295 -4.7788916 1.4324076 2.3509535e-38
-1.2195859 -4.7607388 1.4326193 2.3509537e-38
-1.1549519 -4.6767936 1.4341141 2.3509538e-38
-1.134194 -4.6660132 1.4344637 2.3509539e-38
-1.0702318 -4.6650095 1.435281 2.3509541e-38
-1.0391495 -4.6827154 1.4355316 2.3509542e-38
-1.0310501 -4.6386752 1.4359893 2.3509544e-38
-1.0154757 -4.6044226 1.4364625 2.3509545e-38
-1.0148227 -4.5873017 1.4366089 2.3509547e-38
-1.0122819 -4.5725322 1.4367603 2.3509548e-38
-1.0060569 -4.5500522 1.4370203 2.3509549e-38
-1.0013218 -4.5129542 1.4373794 2.3509551e-38
-0.99382997 -4.4942656 1.4376249 2.3509552e-38
-0.98051804 -4.4708185 1.4379826 2.3509554e-38
-0.9760021 -4.455142 1.438166 2.3509555e-38
-0.9754737 -4.45188 1.4381989 2.3509556e-38
-0.97614098 -4.4195023 1.4384518 2.3509558e-38
-0.97502249 -4.3987088 1.4386334 2.3509559e-38
-0.97404778 -4.3851457 1.4387553 2.3509561e-38
-0.96459818 -4.3598843 1.4390787 2.3509562e-38
-0.95316374 -4.3081126 1.4396409 2.3509563e-38
-0.94475317 -4.2872195 1.439916 2.3509565e-38
-0.93803972 -4.2688122 1.4401492 2.3509566e-38
-0.93177062 -4.2457519 1.4404144 2.3509568e-38
-0.92745924 -4.2241359 1.4406434 2.3509568e-38
-0.92066735 -4.2088614 1.4408525 2.3509569e-38
-0.9144246 -4.189105 1.4410909 2.350957e-38
-0.90175706 -4.1494212 1.4415714 2.3509572e-38
-0.898054 -4.1391025 1.4417014 2.3509573e-38
-0.89446521 -4.1291022 1.4418273 2.3509575e-38
-0.87162989 -4.0661397 1.4426241 2.3509576e-38
-0.86805379 -4.0475464 1.4428192 2.3509577e-38
-0.86567008 -4.0327153 1.4429691 2.3509579e-38
-0.85388005 -3.9760914 1.4435749 2.350958e-38
-0.83663863 -3.9175928 1.4442651 2.3509582e-38
-0.8204872 -3.8400004 1.4450952 2.3509583e-38
-0.81968498 -3.8264887 1.4452143 2.3509584e-38
-0.82009912 -3.8114786 1.4453301 2.3509586e-38
-0.81817013 -3.7853544 1.4455652 2.3509587e-38
-0.81802374 -3.7726345 1.4456695 2.3509589e-38
-0.81594026 -3.7446911 1.4459212 2.350959e-38
-0.81051725 -3.7207196 1.4461832 2.3509591e-38
-0.80698532 -3.7004285 1.4463918 2.3509593e-38
-0.78777945 -3.6612384 1.4469507 2.3509594e-38
-0.78671771 -3.6104815 1.4473737 2.3509596e-38
-0.74929112 -3.5421989 1.448398 2.3509597e-38
-0.74638063 -3.5101011 1.4486934 2.3509598e-38
-0.74383759 -3.4748816 1.4490098 2.35096e-38
-0.73826134 -3.4608026 1.4491938 2.3509601e-38
-0.73189759 -3.4489017 1.4493703 2.3509603e-38
-0.72421676 -3.3972843 1.4498838 2.3509604e-38
-0.71965468 -3.3755896 1.4501165 2.3509605e-38
-0.71768284 -3.3443689 1.4503933 2.3509607e-38
-0.71032691 -3.3240521 1.4506503 2.3509607e-38
-0.70515966 -3.3048394 1.4508705 2.3509608e-38
-0.69905877 -3.2831235 1.4511229 2.350961e-38
-0.69361591 -3.2651603 1.4513365 2.3509611e-38
-0.68972111 -3.2458835 1.4515415 2.3509612e-38
-0.67494744 -3.2067657 1.4520438 2.3509614e-38
-0.66935825 -3.1707337 1.4524052 2.3509615e-38
-0.64611191 -3.0927389 1.4533285 2.3509617e-38
-0.64093876 -3.0754113 1.4535335 2.3509618e-38
-0.63321126 -3.0364537 1.4539455 2.3509619e-38
-0.6263262 -3.0163739 1.4541945 2.3509621e-38
-0.61472976 -2.9921217 1.4545369 2.3509622e-38
-0.60658157 -2.9731996 1.4547927 2.3509624e-38
-0.60013819 -2.9533429 1.4550345 2.3509625e-38
-0.61113453 -2.9107246 1.4552389 2.3509626e-38
-0.62066084 -2.9376318 1.4549016 2.3509628e-38
-0.72620344 -2.9693291 1.4533103 2.3509629e-38
-0.74581999 -2.9630203 1.453113 2.3509631e-38
-0.75897676 -2.9698374 1.4528917 2.3509632e-38
-0.77508694 -2.9781864 1.4526205 2.3509633e-38
-0.80957317 -3.0125926 1.4519066 2.3509635e-38
-0.90187752 -3.0109577 1.4507518 2.3509636e-38
-0.93511337 -2.9786959 1.4505917 2.3509638e-38
-0.94172722 -2.9656265 1.4506134 2.3509639e-38
-0.96903294 -2.9467914 1.4504195 2.350964e-38
-0.98635548 -2.9227607 1.4503943 2.3509642e-38
-1.0096127 -2.9024007 1.4502642 2.3509643e-38
-1.0468946 -2.9046803 1.4497741 2.3509645e-38
-1.0659145 -2.9310477 1.4493208 2.3509646e-38
-1.1378261 -3.0343542 1.4475776 2.3509647e-38
-1.2015754 -3.0179112 1.4469038 2.3509647e-38
-1.2554851 -2.9468629 1.4467946 2.3509649e-38
-1.2620918 -2.9337904 1.4468163 2.350965e-38
-1.2696182 -2.9211814 1.4468228 2.3509652e-38
-1.2818806 -2.8945568 1.4468825 2.3509653e-38
-1.3228604 -2.8826544 1.4464601 2.3509654e-38
-1.3445098 -2.8775368 1.4462274 2.3509656e-38
-1.3922282 -2.8207452 1.4460816 2.3509657e-38
-1.3996558 -2.8055191 1.4461104 2.3509659e-38
-1.3897092 -2.7194755 1.4469303 2.350966e-38
-1.3976508 -2.7070761 1.4469299 2.3509661e-38
-1.4111207 -2.6810601 1.4469692 2.3509663e-38
-1.4060296 -2.6228151 1.4475034 2.3509664e-38
-1.3993628 -2.6089227 1.4476998 2.3509666e-38
-1.405442 -2.5955856 1.4477304 2.3509667e-38
-1.4085327 -2.5641482 1.447945 2.3509668e-38
-1.4269478 -2.5242703 1.4480333 2.350967e-38
-1.4291987 -2.5087659 1.44813 2.3509671e-38
-1.427717 -2.4747813 1.448423 2.3509673e-38
-1.4250646 -2.457058 1.4485995 2.3509674e-38
-1.4180295 -2.4363112 1.4488558 2.3509675e-38
-1.4370872 -2.3964283 1.4489362 2.3509677e-38
-1.4284209 -2.3448455 1.4494621 2.3509678e-38
-1.4279493 -2.3430963 1.4494822 2.350968e-38
-1.426096 -2.325161 1.4496503 2.3509681e-38
-1.4262652 -2.293349 1.4499046 2.3509682e-38
-1.4194012 -2.2583671 1.4502735 2.3509684e-38
-1.4233423 -2.2416687 1.4503584 2.3509685e-38
-1.4823729 -2.1732104 1.4501635 2.3509687e-38
-1.5092984 -2.1541831 1.4499766 2.3509687e-38
-1.5453104 -2.090575 1.4500339 2.3509688e-38
-1.5639677 -2.0175052 1.450387 2.3509689e-38
-1.5920047 -1.9971479 1.4501965 2.3509691e-38
-1.6159983 -2.0128891 1.4497659 2.3509692e-38
-1.6287054 -2.0207283 1.449542 2.3509694e-38
-1.6641587 -2.0305798 1.4490138 2.3509695e-38
-1.7081481 -2.046207 1.4483314 2.3509696e-38
-1.719734 -2.0534339 1.4481263 2.3509698e-38
-1.788468 -2.0527883 1.4472619 2.3509699e-38
-1.8058642 -2.0530288 1.44704 2.3509701e-38
-1.8217771 -2.0636566 1.4467528 2.3509702e-38
-1.8337196 -2.0701952 1.4465489 2.3509703e-38
-1.8385228 -2.0726795 1.4464682 2.3509705e-38
-1.8617747 -2.0880442 1.44605 2.3509706e-38
-1.8737388 -2.0955439 1.4458381 2.3509708e-38
-1.8854476 -2.1175385 1.4455128 2.3509709e-38
-1.8919282 -2.1292708 1.4453361 2.350971e-38
-1.8893409 -2.1370499 1.4453062 2.3509712e-38
-1.882272 -2.1498892 1.445292 2.3509713e-38
-1.875996 -2.1631291 1.4452646 2.3509715e-38
-1.8364159 -2.1259534 1.4460651 2.3509716e-38
-1.8223672 -2.1020598 1.4464357 2.3509717e-38
-1.7703834 -2.0768273 1.447297 2.3509719e-38
-1.7500126 -2.0720038 1.4475935 2.350972e-38
-1.704897 -2.0780044 1.4481159 2.3509722e-38
-1.5913357 -2.1473515 1.4489934 2.3509723e-38
-1.5557817 -2.1943772 1.449064 2.3509724e-38
-1.5445735 -2.2221982 1.4489815 2.3509726e-38
-1.5320055 -2.2383153 1.4490105 2.3509726e-38
-1.5380663 -2.3176503 1.4482939 2.3509727e-38
-1.5402427 -2.3285153 1.4481788 2.3509729e-38
-1.5430902 -2.3368649 1.4480753 2.350973e-38
-1.5400436 -2.3517613 1.4479939 2.3509731e-38
-1.5356091 -2.3662744 1.4479328 2.3509733e-38
-1.4502349 -2.4375255 1.4484385 2.3509734e-38
-1.4522893 -2.4628053 1.4482086 2.3509736e-38
-1.4518822 -2.4711409 1.4481463 2.3509737e-38
-1.4353373 -2.518959 1.4479702 2.3509738e-38
-1.4343898 -2.5279706 1.4479095 2.350974e-38
-1.4321222 -2.5406735 1.4478357 2.3509741e-38
-1.4302559 -2.5589948 1.4477116 2.3509743e-38
-1.4298147 -2.5905077 1.447463 2.3509744e-38
-1.4249899 -2.6055193 1.4474031 2.3509745e-38
-1.4260356 -2.6387148 1.447122 2.3509747e-38
-1.4328088 -2.67433 1.446749 2.3509748e-38
-1.4349146 -2.7095542 1.4464384 2.350975e-38
-1.4320345 -2.7401993 1.4462278 2.3509751e-38
-1.4256003 -2.7708559 1.4460617 2.3509752e-38
-1.4230177 -2.7860277 1.445972 2.3509754e-38
-1.4220059 -2.8020983 1.4458553 2.3509755e-38
-1.4205667 -2.8177862 1.4457469 2.3509757e-38
-1.420622 -2.832561 1.4456272 2.3509758e-38
-1.4196192 -2.8517101 1.4454852 2.3509759e-38
-1.421845 -2.8685768 1.4453212 2.3509761e-38
-1.4234384 -2.889334 1.4451334 2.3509762e-38
-1.4269979 -2.9036469 1.444973 2.3509764e-38
-1.4356835 -2.9411652 1.4445605 2.3509765e-38
-1.4229558 -2.9510937 1.4446415 2.3509767e-38
-1.4087795 -2.953963 1.4447979 2.3509767e-38
-1.4014468 -2.9565225 1.44487 2.3509768e-38
-1.3459408 -3.0448871 1.4448596 2.3509769e-38
-1.3523233 -3.0627563 1.4446346 2.3509771e-38
-1.3624381 -3.0845697 1.4443308 2.3509772e-38
-1.3676885 -3.1039424 1.4441081 2.3509774e-38
-1.3783662 -3.1259315 1.4437956 2.3509775e-38
-1.3977467 -3.1524882 1.4433361 2.3509776e-38
-1.4078388 -3.1907918 1.4428993 2.3509778e-38
-1.4270105 -3.2172709 1.4424434 2.3509779e-38
-1.4316211 -3.236203 1.4422324 2.3509781e-38
-1.4408147 -3.2574477 1.4419447 2.3509782e-38
-1.4679416 -3.2879403 1.4413555 2.3509783e-38
-1.4680012 -3.2885854 1.4413496 2.3509785e-38
-1.4938245 -3.3368604 1.4406334 2.3509786e-38
-1.5021721 -3.3577685 1.4403592 2.3509788e-38
-1.5076814 -3.4072864 1.4398903 2.3509789e-38
-1.5191343 -3.4301162 1.4395611 2.350979e-38
-1.5318294 -3.4544113 1.4392046 2.3509792e-38
-1.5397997 -3.4738383 1.4389471 2.3509793e-38
-1.563625 -3.519212 1.4382795 2.3509795e-38
-1.5799854 -3.5441432 1.4378716 2.3509796e-38
-1.5909287 -3.5828769 1.4374206 2.3509797e-38
-1.6035752 -3.6060004 1.4370741 2.3509799e-38
-1.6117133 -3.6265752 1.4368052 2.35098e-38
-1.6413351 -3.6632874 1.4361343 2.3509802e-38
-1.6492363 -3.6791186 1.4359066 2.3509803e-38
-1.6597371 -3.7010548 1.4355968 2.3509804e-38
-1.6792979 -3.7276986 1.4351344 2.3509806e-38
-1.6846933 -3.7478671 1.4349035 2.3509806e-38
-1.6883553 -3.7556672 1.4347944 2.3509807e-38
-1.6854726 -3.7803602 1.4346317 2.3509809e-38
-1.6937863 -3.8191342 1.4342135 2.350981e-38
-1.7125717 -3.8439231 1.4337761 2.3509811e-38
-1.7179624 -3.8671477 1.4335207 2.3509813e-38
-1.7265235 -3.8841741 1.4332747 2.3509814e-38
-1.7406831 -3.908124 1.4329025 2.3509816e-38
-1.7469122 -3.9278727 1.4326644 2.3509817e-38
-1.7624907 -3.9538765 1.4322577 2.3509818e-38
-1.7680216 -3.9717262 1.4320437 2.350982e-38
-1.7856119 -3.9973233 1.4316148 2.3509821e-38
-1.795297 -4.0195441 1.4313129 2.3509823e-38
-1.8037544 -4.0397825 1.4310428 2.3509824e-38
-1.7975571 -4.0569749 1.4309825 2.3509825e-38
-1.7726908 -4.1061049 1.4309009 2.3509827e-38
-1.7590498 -4.1324496 1.4308609 2.3509828e-38
-1.7456826 -4.1581368 1.4308228 2.350983e-38
-1.7372012 -4.1720886 1.4308176 2.3509831e-38
-1.725648 -4.1975756 1.4307582 2.3509832e-38
-1.7044311 -4.2357612 1.4307188 2.3509834e-38
-1.6944226 -4.2489281 1.4307392 2.3509835e-38
-1.6812913 -4.2700863 1.4307348 2.3509837e-38
-1.6734809 -4.2842875 1.4307189 2.3509838e-38
-1.6678849 -4.2972202 1.4306855 2.3509839e-38
-1.6568692 -4.3183923 1.430654 2.3509841e-38
-1.6482054 -4.3386421 1.4306005 2.3509842e-38
-1.6374874 -4.3662119 1.4305137 2.3509844e-38
-1.6237257 -4.3919139 1.4304806 2.3509845e-38
-1.6087083 -4.4171495 1.4304671 2.3509845e-38
-1.601738 -4.4300389 1.4304513 2.3509846e-38
-1.5865682 -4.4544797 1.4304461 2.3509848e-38
-1.5666325 -4.4914064 1.4304005 2.3509849e-38
-1.5588669 -4.5089221 1.4303573 2.3509851e-38
-1.5504507 -4.5200267 1.4303743 2.3509852e-38
-1.5365788 -4.5448184 1.4303501 2.3509853e-38
-1.5315167 -4.5592394 1.4302977 2.3509855e-38
-1.5173647 -4.584312 1.4302745 2.3509856e-38
-1.511114 -4.599185 1.4302336 2.3509858e-38
-1.4928035 -4.6211672 1.430288 2.3509859e-38
-1.484707 -4.6493607 1.4301631 2.350986e-38
-1.4791163 -4.659461 1.4301523 2.3509862e-38
-1.4591451 -4.687233 1.430181 2.3509863e-38
-1.4550411 -4.700551 1.4301255 2.3509865e-38
-1.4380167 -4.726151 1.4301344 2.3509866e-38
-1.4297602 -4.7370148 1.4301513 2.3509867e-38
-1.4233819 -4.7502031 1.4301256 2.3509869e-38
-1.4165426 -4.7631574 1.4301078 2.350987e-38
-1.4061333 -4.7765284 1.4301316 2.3509872e-38
-1.3993779 -4.7873092 1.4301301 2.3509873e-38
-1.3931249 -4.8005605 1.4301023 2.3509874e-38
-1.3871858 -4.81462 1.4300641 2.3509876e-38
-1.3819501 -4.8441405 1.4298922 2.3509877e-38
-1.3755738 -4.8573074 1.4298667 2.3509879e-38
-1.3707529 -4.8698249 1.4298267 2.350988e-38
-1.359982 -4.8822193 1.4298631 2.3509881e-38
-1.3491415 -4.8766069 1.4300455 2.3509883e-38
-1.3446289 -4.874218 1.4301219 2.3509884e-38
