# .PCD v0.7 - Point Cloud Data file format
VERSION 0.7
FIELDS x y z rgb
SIZE 4 4 4 4
TYPE F F F F
COUNT 1 1 1 1
WIDTH 114
HEIGHT 1
VIEWPOINT 0 0 0 1 0 0 0
POINTS 114
DATA ascii
1.8579069 -2.2142262 0.48321199 2.3509528e-38
1.8913416 -2.213973 0.47957885 2.3509531e-38
1.9269495 -2.2136326 0.48179698 2.3509534e-38
1.9625359 -2.2132773 0.48527944 2.3509537e-38
2.000283 -2.212944 0.48525277 2.3509539e-38
2.0341961 -2.2125788 0.49087012 2.3509544e-38
2.0699496 -2.2122116 0.49525836 2.3509547e-38
2.088762 -2.2120998 0.49058515 2.3509549e-38
2.104399 -2.2118502 0.50017899 2.3509552e-38
2.1289761 -2.2115421 0.50795776 2.3509556e-38
2.1648092 -2.2111642 0.51321101 2.3509559e-38
2.2142727 -2.2107756 0.50900739 2.3509562e-38
2.2251308 -2.2105324 0.52166593 2.3509565e-38
2.2367363 -2.2101016 0.54985756 2.3509569e-38
2.2297351 -2.2097726 0.58342332 2.3509572e-38
2.2343812 -2.2092032 0.62875378 2.3509575e-38
2.2390571 -2.2086239 0.67493469 2.3509577e-38
2.2854066 -2.2071249 0.76845282 2.3509582e-38
2.3813367 -2.2068467 0.71954268 2.3509584e-38
2.4115512 -2.2069144 0.69078737 2.3509587e-38
2.4199634 -2.2068713 0.68813491 2.350959e-38
2.4456239 -2.2066648 0.6863727 2.3509593e-38
2.4640539 -2.2065783 0.67983961 2.3509597e-38
2.483247 -2.2064583 0.67554605 2.35096e-38
2.5173352 -2.2061937 0.67241073 2.3509603e-38
2.530901 -2.2060678 0.67293328 2.3509605e-38
2.5655737 -2.2057705 0.67211068 2.350961e-38
2.6048253 -2.2054996 0.6655767 2.3509612e-38
2.6294084 -2.2053776 0.65740132 2.3509615e-38
2.66347 -2.2050951 0.65581906 2.3509618e-38
2.7005103 -2.204741 0.65809852 2.3509622e-38
2.7129419 -2.2046258 0.65854317 2.3509625e-38
2.7523725 -2.2043417 0.65301865 2.3509628e-38
2.7608716 -2.2042232 0.65673995 2.3509631e-38
2.7921925 -2.2038078 0.6686393 2.3509635e-38
2.8475161 -2.2033496 0.66598916 2.3509638e-38
2.8797793 -2.2028465 0.68471462 2.350964e-38
2.8933072 -2.202606 0.69510001 2.3509643e-38
2.9133508 -2.2023942 0.69805318 2.3509647e-38
2.9378684 -2.2025666 0.6646629 2.350965e-38
2.9407594 -2.2026274 0.65724957 2.3509653e-38
2.9035096 -2.203047 0.64947563 2.3509656e-38
2.8912151 -2.2031045 0.65387219 2.3509659e-38
2.8571248 -2.2033832 0.65581161 2.3509663e-38
2.8379474 -2.2035022 0.66015047 2.3509666e-38
1.5987314 -2.2120981 0.86259979 2.3509668e-38
1.5818487 -2.2124577 0.84456807 2.3509671e-38
1.5689669 -2.2127297 0.83096683 2.3509675e-38
1.5679702 -2.2129164 0.8157022 2.3509678e-38
1.6110449 -2.2134819 0.73447627 2.3509681e-38
1.6084483 -2.2136915 0.71845555 2.3509684e-38
1.6086802 -2.2138419 0.70534855 2.3509688e-38
1.6086566 -2.2140393 0.68842912 2.3509691e-38
1.6080053 -2.2142315 0.67240667 2.3509694e-38
1.6040142 -2.2144425 0.65732998 2.3509696e-38
1.5985303 -2.2150211 0.61181974 2.3509701e-38
1.5951537 -2.2152061 0.59846509 2.3509703e-38
1.6080446 -2.2155278 0.56111681 2.3509706e-38
1.6043614 -2.2159128 0.53084338 2.3509709e-38
1.6071584 -2.2160678 0.51540482 2.3509712e-38
1.6118665 -2.2162614 0.49521163 2.3509716e-38
1.6254748 -2.2161975 0.49038512 2.3509719e-38
1.6423031 -2.2161336 0.48308527 2.3509722e-38
1.6640846 -2.2160261 0.47579068 2.3509724e-38
1.6971066 -2.2156138 0.48613802 2.3509729e-38
1.7201093 -2.2154238 0.48498243 2.3509731e-38
1.7326484 -2.2152607 0.48944139 2.3509734e-38
1.7702838 -2.2149334 0.48899812 2.3509737e-38
1.7889326 -2.2148173 0.48484695 2.3509741e-38
1.8231853 -2.2145376 0.48285595 2.3509744e-38
1.8371648 -2.2143903 0.48487711 2.3509747e-38
1.6321558 -2.2118466 0.85883379 2.350975e-38
1.6938895 -2.2121332 0.78738397 2.3509754e-38
1.7011874 -2.2120757 0.78680152 2.3509757e-38
1.7125089 -2.2119734 0.78698409 2.3509759e-38
1.7480794 -2.211664 0.78655404 2.3509762e-38
1.7606597 -2.2115612 0.78582919 2.3509767e-38
1.8052312 -2.21118 0.78473985 2.3509769e-38
1.8148156 -2.2111027 0.78407139 2.3509772e-38
1.8559949 -2.2107494 0.78316331 2.3509775e-38
1.9047232 -2.2103195 0.78308165 2.3509778e-38
1.9318069 -2.2100937 0.78191012 2.3509782e-38
1.9464899 -2.2099454 0.78350013 2.3509785e-38
1.9651499 -2.2098143 0.7806021 2.3509788e-38
2.0340965 -2.2088678 0.80954105 2.350979e-38
2.0382507 -2.2087905 0.81301451 2.3509795e-38
2.0597613 -2.2084532 0.82568425 2.3509797e-38
2.0636823 -2.2084272 0.82491207 2.35098e-38
2.1003077 -2.2081854 0.81789953 2.3509803e-38
2.127414 -2.2080512 0.80885017 2.3509807e-38
2.2090609 -2.2070315 0.83443785 2.350981e-38
2.2120428 -2.206985 0.83615857 2.3509813e-38
2.2456737 -2.2066102 0.84279925 2.3509816e-38
2.2557759 -2.2065418 0.84099764 2.350982e-38
2.2620127 -2.2064919 0.84055877 2.3509823e-38
2.2745843 -2.2064326 0.83610564 2.3509825e-38
2.2885683 -2.2063818 0.82985431 2.3509828e-38
2.3692315 -2.2057025 0.8269484 2.3509831e-38
2.3868639 -2.2055609 0.82575822 2.3509835e-38
2.3944352 -2.2055452 0.82135594 2.3509838e-38
2.4679215 -2.2054257 0.77582574 2.3509841e-38
2.4885678 -2.2052925 0.7715978 2.3509844e-38
2.5304468 -2.2050941 0.75685406 2.3509848e-38
2.5375032 -2.2054324 0.7224369 2.3509851e-38
2.5768981 -2.2055185 0.68515849 2.3509853e-38
2.5888252 -2.205482 0.67924094 2.3509856e-38
2.6176088 -2.2053561 0.66819775 2.350986e-38
2.654213 -2.2050362 0.66790062 2.3509863e-38
2.6776969 -2.2048631 0.66494578 2.3509866e-38
2.7079 -2.204582 0.66614634 2.3509869e-38
2.7233803 -2.2044241 0.66795379 2.3509873e-38
2.7560878 -2.2041602 0.66577816 2.3509876e-38
1.606531 -2.2118714 0.87614799 2.3509879e-38
1.8579069 -2.2142262 0.48321199 2.3509881e-38
