# .PCD v0.7 - Point Cloud Data file format
VERSION 0.7
FIELDS x y z rgb
SIZE 4 4 4 4
TYPE F F F F
COUNT 1 1 1 1
WIDTH 449
HEIGHT 1
VIEWPOINT 0 0 0 1 0 0 0
POINTS 449
DATA ascii
2.9387338 2.4302304 0.63769436 2.3509528e-38
2.9392242 2.4300854 0.64706671 2.3509528e-38
2.941015 2.4127688 0.67160141 2.350953e-38
2.9418967 2.3926539 0.67697418 2.350953e-38
2.9421699 2.3440838 0.65415275 2.3509531e-38
2.9430692 2.2898698 0.64015174 2.3509531e-38
2.9443235 2.2643185 0.64957929 2.3509532e-38
2.9465933 2.2216349 0.66867721 2.3509532e-38
2.9483306 2.1818402 0.67917627 2.3509534e-38
2.9484072 2.1691191 0.67329526 2.3509535e-38
2.9490225 2.1420577 0.66951311 2.3509535e-38
2.9490855 2.1360314 0.66725028 2.3509537e-38
2.9493036 2.121084 0.6628139 2.3509537e-38
2.9494057 2.1065798 0.65639436 2.3509538e-38
2.9493399 2.0956674 0.64880437 2.3509538e-38
2.9494035 2.0849299 0.64383239 2.3509539e-38
2.9500947 2.0521877 0.63823164 2.3509541e-38
2.9513679 2.018121 0.64308453 2.3509541e-38
2.9524977 1.9786773 0.64207339 2.3509542e-38
2.9527481 1.9721662 0.64314002 2.3509542e-38
2.9534822 1.9527167 0.6460458 2.3509544e-38
2.95401 1.9399291 0.64883578 2.3509544e-38
2.9547396 1.9204664 0.65165782 2.3509545e-38
2.9560354 1.8728497 0.64911187 2.3509547e-38
2.9564023 1.8619661 0.64990419 2.3509547e-38
2.9571388 1.8430598 0.65317571 2.3509548e-38
2.9582248 1.8081771 0.65395433 2.3509548e-38
2.9593811 1.7755849 0.65741247 2.3509549e-38
2.9599197 1.7263422 0.63932306 2.3509549e-38
2.9609914 1.6934649 0.64098668 2.3509551e-38
2.9620721 1.6570662 0.64078188 2.3509552e-38
2.9628825 1.614095 0.63156635 2.3509552e-38
2.9640424 1.5811588 0.63489664 2.3509554e-38
2.9653125 1.5475341 0.63994759 2.3509554e-38
2.9663792 1.5182112 0.64356565 2.3509555e-38
2.9676108 1.4822686 0.64653552 2.3509555e-38
2.9681866 1.4696392 0.65034258 2.3509556e-38
2.9686522 1.4492902 0.64756095 2.3509558e-38
2.9688122 1.4349303 0.64233625 2.3509558e-38
2.9693723 1.4000626 0.6329816 2.3509559e-38
2.9705565 1.3679808 0.6372683 2.3509559e-38
2.9720142 1.3365839 0.6472311 2.3509561e-38
2.9730489 1.3032187 0.64790022 2.3509561e-38
2.9742632 1.2711077 0.65275389 2.3509562e-38
2.975666 1.239424 0.66149151 2.3509562e-38
2.9757035 1.228027 0.65562528 2.3509563e-38
2.9773164 1.173427 0.65515733 2.3509565e-38
2.9779003 1.1594062 0.65830851 2.3509565e-38
2.9782698 1.1433837 0.65618128 2.3509566e-38
2.9787161 1.1285702 0.65622729 2.3509566e-38
2.9786057 1.1121013 0.64457393 2.3509568e-38
2.9791255 1.0786874 0.63527226 2.3509568e-38
2.9804251 1.046796 0.64189732 2.3509569e-38
2.9809959 1.0312371 0.64391422 2.350957e-38
2.981931 1.0124665 0.65109706 2.350957e-38
2.9846926 0.96336198 0.67596638 2.3509572e-38
2.9857087 0.92422432 0.67294198 2.3509572e-38
2.9873269 0.88754761 0.68293929 2.3509573e-38
2.9879584 0.87225723 0.68628782 2.3509573e-38
2.9881365 0.86564428 0.68589127 2.3509575e-38
2.9893909 0.81867152 0.68292499 2.3509576e-38
2.9903147 0.79986382 0.6898737 2.3509576e-38
2.9915149 0.76741958 0.69426441 2.3509577e-38
2.991719 0.75130939 0.68888199 2.3509577e-38
2.9939642 0.68812841 0.69566011 2.3509579e-38
2.9960041 0.62202358 0.6967783 2.3509579e-38
2.9964089 0.60627294 0.69547904 2.350958e-38
2.9967742 0.57426256 0.68401861 2.3509582e-38
2.9974887 0.53790963 0.67676967 2.3509582e-38
2.998739 0.49263763 0.674716 2.3509583e-38
2.9994462 0.4585304 0.66862869 2.3509583e-38
3.0007465 0.42642409 0.6751492 2.3509584e-38
3.00173 0.39324927 0.67493749 2.3509584e-38
3.0030861 0.36132848 0.68262577 2.3509586e-38
3.0034704 0.33348918 0.67394078 2.3509587e-38
3.0038939 0.31299463 0.67026246 2.3509587e-38
3.0060027 0.24712273 0.67284834 2.3509589e-38
3.0071621 0.21454225 0.67638034 2.3509589e-38
3.0074129 0.20081949 0.67327797 2.350959e-38
3.0096025 0.1497865 0.68599796 2.350959e-38
3.0107598 0.10427295 0.68200803 2.3509591e-38
3.0119996 0.070549533 0.68642139 2.3509593e-38
3.0121093 0.019631751 0.65909207 2.3509593e-38
3.0137498 -0.025896527 0.66440445 2.3509594e-38
3.0144358 -0.045506172 0.6663022 2.3509594e-38
3.015348 -0.07156679 0.66882223 2.3509596e-38
3.0156307 -0.077968493 0.67057759 2.3509596e-38
3.0173204 -0.10978927 0.68477792 2.3509597e-38
3.0187738 -0.13290149 0.69944239 2.3509597e-38
3.0189271 -0.13801423 0.69944227 2.3509598e-38
3.0198793 -0.1657615 0.70176506 2.35096e-38
3.0202777 -0.17898694 0.70179623 2.35096e-38
3.0203738 -0.18912007 0.69780111 2.3509601e-38
3.0207386 -0.22185655 0.68590683 2.3509601e-38
3.0215814 -0.2549262 0.68304288 2.3509603e-38
3.0224631 -0.28108972 0.68491578 2.3509603e-38
3.0223739 -0.29391009 0.67578602 2.3509604e-38
3.0224428 -0.33197546 0.65510136 2.3509605e-38
3.0265999 -0.46234825 0.65989316 2.3509605e-38
3.0277336 -0.4743568 0.6748184 2.3509607e-38
3.0281136 -0.47864437 0.67967451 2.3509607e-38
3.0284915 -0.49157643 0.67948753 2.3509608e-38
3.0299294 -0.5278967 0.68622029 2.3509608e-38
3.0303466 -0.53593731 0.6896174 2.350961e-38
3.0311351 -0.57916361 0.67982423 2.3509611e-38
3.0324047 -0.61073357 0.686059 2.3509611e-38
3.0328109 -0.62645447 0.68480587 2.3509612e-38
3.0345457 -0.67824352 0.6883173 2.3509612e-38
3.0353963 -0.72643274 0.67686498 2.3509614e-38
3.0354302 -0.73771888 0.67099321 2.3509614e-38
3.0361171 -0.77506042 0.66265094 2.3509615e-38
3.0364769 -0.78841507 0.66186726 2.3509617e-38
3.0372362 -0.807778 0.66531914 2.3509617e-38
3.0382648 -0.84080255 0.66605335 2.3509618e-38
3.0383964 -0.85480541 0.66050363 2.3509618e-38
3.0405254 -0.92072916 0.66344559 2.3509619e-38
3.0415628 -0.95507884 0.66359514 2.3509619e-38
3.0422921 -0.97147608 0.66817915 2.3509621e-38
3.0426853 -0.98466706 0.66813314 2.3509622e-38
3.0432434 -1.0011904 0.66934288 2.3509622e-38
3.0441732 -1.0689608 0.64809394 2.3509624e-38
3.0448415 -1.103169 0.64120483 2.3509624e-38
3.0479183 -1.164377 0.6651603 2.3509625e-38
3.0491793 -1.1976976 0.67021525 2.3509625e-38
3.0504007 -1.2307032 0.67468607 2.3509626e-38
3.0507331 -1.2449296 0.6728754 2.3509626e-38
3.0509913 -1.2575631 0.6705488 2.3509628e-38
3.0516505 -1.2844752 0.66770554 2.3509629e-38
3.0517917 -1.2911308 0.6665768 2.3509629e-38
3.052074 -1.3049711 0.66401786 2.3509631e-38
3.0521684 -1.3152479 0.65989339 2.3509631e-38
3.0523946 -1.33312 0.65392822 2.3509632e-38
3.0548611 -1.3904759 0.66833794 2.3509632e-38
3.0553913 -1.4243513 0.65897202 2.3509633e-38
3.0566697 -1.4573169 0.66456723 2.3509635e-38
3.0571196 -1.4717047 0.66493106 2.3509635e-38
3.0578978 -1.4898605 0.66944307 2.3509636e-38
3.0581429 -1.503455 0.66630495 2.3509636e-38
3.058388 -1.5171957 0.66308957 2.3509638e-38
3.0601044 -1.5697105 0.66583329 2.3509638e-38
3.0607412 -1.6054139 0.65746772 2.3509639e-38
3.0609534 -1.618019 0.65426958 2.350964e-38
3.0612614 -1.6534704 0.63971567 2.350964e-38
3.0622692 -1.6849636 0.64093697 2.3509642e-38
3.0625601 -1.6986575 0.63862741 2.3509642e-38
3.0632379 -1.7344534 0.63101166 2.3509643e-38
3.0644584 -1.7666667 0.63592505 2.3509643e-38
3.0657628 -1.7998881 0.64187193 2.3509645e-38
3.0663033 -1.834233 0.63244104 2.3509646e-38
3.0675354 -1.8666632 0.63745302 2.3509646e-38
3.0684769 -1.9137905 0.62836057 2.3509647e-38
3.068938 -1.9277906 0.62915695 2.3509647e-38
3.0696797 -1.944737 0.63366991 2.3509649e-38
3.0699162 -1.9566224 0.63135159 2.3509649e-38
3.0705142 -1.9798276 0.62946725 2.350965e-38
3.0705183 -1.992002 0.62251127 2.3509652e-38
3.071027 -2.0437608 0.60239387 2.3509652e-38
3.0721848 -2.0773492 0.60530418 2.3509653e-38
3.0732782 -2.0971098 0.61496699 2.3509653e-38
3.0743208 -2.1265314 0.6180684 2.3509654e-38
3.0758469 -2.1588693 0.62880552 2.3509654e-38
3.0759945 -2.1735699 0.62315172 2.3509656e-38
3.0798359 -2.2591314 0.6477713 2.3509657e-38
3.0812843 -2.2719343 0.66830218 2.3509657e-38
3.081778 -2.2928815 0.66571224 2.3509659e-38
3.0815084 -2.3007188 0.65598345 2.3509659e-38
3.080133 -2.3027837 0.62825114 2.350966e-38
3.0796449 -2.3010328 0.61985797 2.350966e-38
3.0779502 -2.3004215 0.58752179 2.3509661e-38
3.0757036 -2.290695 0.54980409 2.3509661e-38
3.0741668 -2.2890267 0.52112764 2.3509663e-38
3.072787 -2.2811365 0.49907827 2.3509664e-38
3.0705385 -2.2859778 0.45290169 2.3509664e-38
3.066807 -2.2904408 0.37834308 2.3509666e-38
3.0644698 -2.2916381 0.33256492 2.3509666e-38
3.062268 -2.2820327 0.29564866 2.3509667e-38
3.0615335 -2.2816563 0.28170097 2.3509667e-38
3.0595434 -2.2717199 0.24905838 2.3509668e-38
3.0577462 -2.2750111 0.21248591 2.350967e-38
3.0556862 -2.2626247 0.17991619 2.350967e-38
3.0534472 -2.2643745 0.13571493 2.3509671e-38
3.0517468 -2.2829819 0.092149645 2.3509671e-38
3.0474513 -2.2540488 0.02602686 2.3509673e-38
3.0456016 -2.2467277 -0.0054225773 2.3509673e-38
3.0437202 -2.2485552 -0.042768225 2.3509674e-38
3.0427594 -2.2481701 -0.061080471 2.3509675e-38
3.0406084 -2.2400928 -0.097896256 2.3509675e-38
3.0391462 -2.239851 -0.12596214 2.3509677e-38
3.0373585 -2.2519467 -0.16744234 2.3509677e-38
3.035769 -2.2782381 -0.21330532 2.3509678e-38
3.0340209 -2.2765892 -0.2460793 2.3509678e-38
3.0293584 -2.2411709 -0.31553486 2.350968e-38
3.0247731 -2.2565501 -0.41286394 2.3509681e-38
3.0216224 -2.2459219 -0.46750239 2.3509681e-38
3.0209203 -2.2484725 -0.48251855 2.3509682e-38
3.0196283 -2.2589266 -0.51348794 2.3509682e-38
3.0159554 -2.2113442 -0.55681837 2.3509684e-38
3.0114677 -2.232197 -0.65544522 2.3509684e-38
3.0112851 -2.2485158 -0.66839862 2.3509685e-38
3.007288 -2.2488604 -0.74570036 2.3509687e-38
3.0040977 -2.2243128 -0.79304588 2.3509687e-38
3.001312 -2.2117252 -0.83950341 2.3509688e-38
2.9999597 -2.2136354 -0.86669403 2.3509688e-38
2.9992828 -2.215117 -0.88060749 2.3509689e-38
2.9971178 -2.207788 -0.91812927 2.3509689e-38
2.9963129 -2.2101398 -0.93501288 2.3509691e-38
2.9952567 -2.2240114 -0.96341032 2.3509691e-38
2.9922326 -2.1964598 -1.0058074 2.3509692e-38
2.9920871 -2.1798389 -0.9990024 2.3509694e-38
2.9913256 -2.1433785 -0.99260789 2.3509694e-38
2.9884608 -2.0426974 -0.98965168 2.3509695e-38
2.9869547 -2.0117438 -1.0008111 2.3509695e-38
2.9862115 -1.9838469 -0.99900645 2.3509696e-38
2.9824386 -1.8677076 -1.0046264 2.3509696e-38
2.9813573 -1.8183074 -0.99692321 2.3509698e-38
2.9806907 -1.8010943 -0.99982524 2.3509699e-38
2.9801841 -1.7878093 -1.0019113 2.3509699e-38
2.9795406 -1.7699137 -1.0039779 2.3509701e-38
2.9775176 -1.7303336 -1.0201094 2.3509701e-38
2.9762642 -1.6609246 -1.00415 2.3509702e-38
2.975359 -1.6322622 -1.0050448 2.3509702e-38
2.9748309 -1.6162112 -1.0059487 2.3509703e-38
2.9741709 -1.5880327 -1.0023713 2.3509705e-38
2.9728813 -1.5406495 -0.99985433 2.3509705e-38
2.9721196 -1.5112044 -0.99752027 2.3509706e-38
2.9714067 -1.4935451 -1.0010601 2.3509706e-38
2.9708071 -1.477685 -1.0034604 2.3509708e-38
2.9696684 -1.4273139 -0.99629098 2.3509708e-38
2.96873 -1.4077593 -1.0030806 2.3509709e-38
2.9677713 -1.3595512 -0.99370146 2.350971e-38
2.9673066 -1.3455473 -0.99456543 2.350971e-38
2.9666276 -1.3285829 -0.99785489 2.3509712e-38
2.9658298 -1.3085041 -1.0016308 2.3509712e-38
2.965261 -1.2760308 -0.99381942 2.3509713e-38
2.9618301 -1.1603792 -0.99312377 2.3509713e-38
2.9609694 -1.1502773 -1.0038936 2.3509715e-38
2.9604676 -1.1288627 -1.0011806 2.3509716e-38
2.9602325 -1.1180532 -0.99946296 2.3509716e-38
2.9599209 -1.1063693 -0.99872303 2.3509717e-38
2.9584954 -1.0538294 -0.9958362 2.3509717e-38
2.9564934 -0.99803209 -1.0021894 2.3509719e-38
2.9560363 -0.98755729 -1.0049515 2.3509719e-38
2.9553587 -0.96316361 -1.0039176 2.350972e-38
2.9544377 -0.92414641 -0.99911952 2.3509722e-38
2.9534988 -0.90020031 -1.0033823 2.3509722e-38
2.9524724 -0.85450584 -0.99675786 2.3509723e-38
2.9511974 -0.81845868 -1.000507 2.3509723e-38
2.9501953 -0.7914781 -1.0042274 2.3509724e-38
2.9486973 -0.73279607 -0.99919784 2.3509724e-38
2.947526 -0.69680196 -1.0009761 2.3509726e-38
2.9469941 -0.68356812 -1.0035838 2.3509726e-38
2.9457412 -0.63221455 -0.99805725 2.3509727e-38
2.9451821 -0.61661053 -0.99981546 2.3509729e-38
2.9444711 -0.60094899 -1.004467 2.3509729e-38
2.9435041 -0.57051164 -1.0055306 2.350973e-38
2.9430585 -0.55678552 -1.0061823 2.350973e-38
2.9423325 -0.51959366 -0.99867839 2.3509731e-38
2.9417078 -0.50378776 -1.0015836 2.3509731e-38
2.9410875 -0.4861787 -1.0033747 2.3509733e-38
2.9397159 -0.43389565 -0.99959511 2.3509734e-38
2.9372997 -0.38914895 -1.0203263 2.3509734e-38
2.9360387 -0.3185395 -1.0038215 2.3509736e-38
2.9347491 -0.2677744 -0.99934506 2.3509736e-38
2.9343135 -0.25283033 -0.99909425 2.3509737e-38
2.9338357 -0.23859453 -1.0000814 2.3509737e-38
2.9332974 -0.22234996 -1.0010778 2.3509738e-38
2.9323986 -0.1843624 -0.99644816 2.350974e-38
2.9319715 -0.17092089 -0.99690992 2.350974e-38
2.9314415 -0.15559983 -0.99827552 2.3509741e-38
2.9309385 -0.14394951 -1.0012439 2.3509741e-38
2.9301777 -0.12306645 -1.0038366 2.3509743e-38
2.9294302 -0.097024627 -1.0031956 2.3509743e-38
2.9289601 -0.082597949 -1.003931 2.3509744e-38
2.9284377 -0.068810061 -1.006029 2.3509745e-38
2.927007 -0.017400391 -1.0038993 2.3509745e-38
2.9263642 0.007778056 -1.0017376 2.3509747e-38
2.9257817 0.024932228 -1.0030538 2.3509747e-38
2.9250925 0.041065484 -1.0070198 2.3509748e-38
2.9236844 0.095945753 -1.0024406 2.3509748e-38
2.922667 0.13864921 -0.99737471 2.350975e-38
2.9221916 0.15103045 -0.9993813 2.3509751e-38
2.9217188 0.16515617 -1.0003384 2.3509751e-38
2.9210908 0.18172683 -1.0028721 2.3509752e-38
2.9204085 0.19864359 -1.0062538 2.3509752e-38
2.9200525 0.21108237 -1.0059217 2.3509754e-38
2.9187539 0.25172713 -1.0074689 2.3509754e-38
2.918478 0.26301679 -1.0062587 2.3509755e-38
2.9172316 0.30754685 -1.0045605 2.3509755e-38
2.9160159 0.35826197 -0.99868405 2.3509757e-38
2.9154663 0.37376088 -1.0003153 2.3509758e-38
2.9148939 0.38903475 -1.0025251 2.3509758e-38
2.9142308 0.40618825 -1.0053959 2.3509759e-38
2.913717 0.43953848 -0.99602038 2.3509759e-38
2.9133816 0.45168793 -0.99546719 2.3509761e-38
2.9123814 0.47983456 -0.99847776 2.3509761e-38
2.9118176 0.49614471 -0.99992758 2.3509762e-38
2.9111369 0.51494461 -1.0021822 2.3509764e-38
2.9103236 0.53401136 -1.006848 2.3509764e-38
2.9089222 0.58611649 -1.0037519 2.3509765e-38
2.9084289 0.62019116 -0.9935652 2.3509765e-38
2.9071863 0.6521911 -0.99902767 2.3509767e-38
2.904973 0.68671221 -1.0217577 2.3509767e-38
2.9044919 0.74492282 -0.99737465 2.3509768e-38
2.9040942 0.75861675 -0.99712348 2.3509769e-38
2.9034326 0.77602905 -0.99981451 2.3509769e-38
2.9027674 0.79228896 -1.003249 2.3509771e-38
2.9019701 0.81188059 -1.0072987 2.3509771e-38
2.9018745 0.8325578 -0.99718803 2.3509772e-38
2.89976 0.8917098 -1.0037671 2.3509772e-38
2.8988216 0.93874681 -0.99467289 2.3509774e-38
2.8980291 0.95657593 -0.99964851 2.3509775e-38
2.8974023 0.97383702 -1.0017536 2.3509775e-38
2.8967817 0.98859972 -1.0051913 2.3509776e-38
2.8962476 1.0050819 -1.0059552 2.3509776e-38
2.8957212 1.01998 -1.0075026 2.3509778e-38
2.8953898 1.0432308 -1.000447 2.3509778e-38
2.8945153 1.070318 -1.0016534 2.3509779e-38
2.8939795 1.0859245 -1.0029602 2.3509781e-38
2.8933158 1.1020762 -1.0064274 2.3509781e-38
2.892668 1.1383648 -0.99793547 2.3509782e-38
2.8918748 1.1586896 -1.0014886 2.3509782e-38
2.891083 1.1766295 -1.0063902 2.3509783e-38
2.890703 1.1895159 -1.0062677 2.3509783e-38
2.8898039 1.2361572 -0.99663603 2.3509785e-38
2.8892202 1.2508142 -0.99941874 2.3509786e-38
2.8886909 1.2657506 -1.0009953 2.3509786e-38
2.8881562 1.2807606 -1.0026281 2.3509788e-38
2.8877242 1.292684 -1.0040625 2.3509788e-38
2.8867214 1.3182355 -1.0086308 2.3509789e-38
2.8857081 1.364184 -1.0016053 2.3509789e-38
2.8850338 1.3797553 -1.0056075 2.350979e-38
2.8840771 1.4272916 -0.99657589 2.350979e-38
2.8831067 1.4485816 -1.0029852 2.3509792e-38
2.8827162 1.4627484 -1.0023153 2.3509793e-38
2.8821645 1.4780121 -1.0041418 2.3509793e-38
2.8816156 1.4916043 -1.0068666 2.3509795e-38
2.8794022 1.5381535 -1.0226417 2.3509795e-38
2.8781273 1.6058669 -1.0080745 2.3509796e-38
2.8777397 1.6194222 -1.007717 2.3509796e-38
2.8774323 1.6330156 -1.0057838 2.3509797e-38
2.875818 1.6867878 -1.0058291 2.3509799e-38
2.874434 1.7402653 -1.0016009 2.3509799e-38
2.873687 1.760677 -1.0042068 2.35098e-38
2.872685 1.7882838 -1.0075754 2.35098e-38
2.871912 1.8238972 -1.001888 2.3509802e-38
2.8705707 1.8594559 -1.0072052 2.3509802e-38
2.8701017 1.8853737 -1.0012585 2.3509803e-38
2.8694406 1.9094077 -1.0001094 2.3509804e-38
2.868809 1.9275144 -1.0018284 2.3509804e-38
2.8683524 1.9397072 -1.0035807 2.3509806e-38
2.8676574 1.9759762 -0.99601561 2.3509806e-38
2.8671534 1.9905207 -0.99732512 2.3509807e-38
2.8666475 2.0031765 -0.99976182 2.3509807e-38
2.8659618 2.0222881 -1.0019383 2.3509809e-38
2.8656611 2.0339515 -1.0009892 2.350981e-38
2.8651929 2.0480142 -1.0018982 2.350981e-38
2.8645647 2.0640421 -1.0047514 2.3509811e-38
2.8639894 2.0921636 -0.99958563 2.3509811e-38
2.8645489 2.0974815 -0.98572123 2.3509813e-38
2.8602297 2.2275603 -0.9938013 2.3509813e-38
2.8591692 2.2573769 -0.99702311 2.3509814e-38
2.8583493 2.2757716 -1.0021977 2.3509816e-38
2.8572879 2.3125157 -1.0014272 2.3509816e-38
2.8567145 2.3291044 -1.0028977 2.3509817e-38
2.8555562 2.3667421 -1.0034704 2.3509817e-38
2.857389 2.4026291 -0.94736016 2.3509818e-38
2.8581264 2.4036467 -0.93255168 2.3509818e-38
2.8613074 2.3900607 -0.87904465 2.350982e-38
2.8622315 2.3846605 -0.86434329 2.350982e-38
2.8631246 2.3796434 -0.85002267 2.3509821e-38
2.8652573 2.3707278 -0.81403869 2.3509823e-38
2.8667104 2.3710082 -0.78585243 2.3509823e-38
2.8700337 2.3802941 -0.71637702 2.3509824e-38
2.8723819 2.3730178 -0.67528445 2.3509824e-38
2.8740256 2.3679748 -0.64649713 2.3509825e-38
2.8748963 2.3681941 -0.62957203 2.3509825e-38
2.8756824 2.3672256 -0.61497122 2.3509827e-38
2.876549 2.3690817 -0.59718293 2.3509828e-38
2.8777618 2.3775415 -0.56889594 2.3509828e-38
2.8786221 2.3726404 -0.5551337 2.350983e-38
2.8796861 2.369945 -0.5361641 2.350983e-38
2.8816559 2.3685396 -0.4989838 2.3509831e-38
2.8820968 2.3694389 -0.48995841 2.3509831e-38
2.8828037 2.3696187 -0.47621882 2.3509832e-38
2.8845775 2.366457 -0.44383577 2.3509834e-38
2.8860798 2.3704698 -0.41252971 2.3509834e-38
2.8868189 2.3716881 -0.39757258 2.3509835e-38
2.8879199 2.3801398 -0.37144598 2.3509835e-38
2.8882835 2.3859146 -0.36109561 2.3509837e-38
2.8890221 2.38626 -0.34663984 2.3509837e-38
2.8897359 2.3890841 -0.33123803 2.3509838e-38
2.8907688 2.3851042 -0.31362164 2.3509839e-38
2.8934877 2.3802648 -0.26397792 2.3509839e-38
2.8946404 2.3740466 -0.24533229 2.3509841e-38
2.8954892 2.3705823 -0.23096807 2.3509841e-38
2.898021 2.3919859 -0.16975555 2.3509842e-38
2.8985536 2.395581 -0.15740249 2.3509842e-38
2.9012282 2.3858395 -0.1114435 2.3509844e-38
2.9028978 2.4035285 -0.069001548 2.3509845e-38
2.9060519 2.4101651 -0.0043243915 2.3509845e-38
2.9066658 2.4144149 0.0099761933 2.3509846e-38
2.9076838 2.4131072 0.028856307 2.3509846e-38
2.9107869 2.4039044 0.083389863 2.3509848e-38
2.9136291 2.4110241 0.1423265 2.3509848e-38
2.9143157 2.411994 0.15613897 2.3509849e-38
2.914577 2.4130914 0.16181053 2.3509851e-38
2.9149799 2.4144535 0.17037143 2.3509851e-38
2.916477 2.4170468 0.20074712 2.3509852e-38
2.91782 2.4173872 0.22685219 2.3509852e-38
2.9185913 2.4220512 0.2444239 2.3509853e-38
2.9193375 2.4207809 0.25807992 2.3509853e-38
2.9204185 2.4194102 0.27814183 2.3509855e-38
2.9223251 2.4185834 0.31444681 2.3509855e-38
2.923311 2.4186275 0.33348721 2.3509856e-38
2.9236023 2.4191539 0.33941233 2.3509858e-38
2.9239798 2.4192684 0.34675872 2.3509858e-38
2.9254789 2.4249897 0.37897784 2.3509859e-38
2.9259493 2.4266672 0.38902909 2.3509859e-38
2.9261422 2.4269042 0.39288339 2.350986e-38
2.9269185 2.4265699 0.40767014 2.350986e-38
2.9283206 2.4265654 0.43471223 2.3509862e-38
2.9289222 2.4309027 0.44882286 2.3509863e-38
2.9298532 2.4303582 0.46646863 2.3509863e-38
2.9308376 2.4301901 0.48535386 2.3509865e-38
2.9317007 2.427917 0.50069416 2.3509865e-38
2.932478 2.4253213 0.51418495 2.3509866e-38
2.9327719 2.4247396 0.51951987 2.3509866e-38
2.9357848 2.4262962 0.5785349 2.3509867e-38
2.9366212 2.4234581 0.59302694 2.3509869e-38
2.9381301 2.427073 0.62422752 2.3509869e-38
3.0409966 -1.1920485 0.51563966 2.350987e-38
3.0436921 -1.3249427 0.49079341 2.350987e-38
3.0415413 -1.3308904 0.44585755 2.3509872e-38
3.0403655 -1.3418204 0.41685316 2.3509872e-38
3.0387542 -1.3420992 0.38561833 2.3509873e-38
3.0380366 -1.3443111 0.37049472 2.3509874e-38
3.0321298 -1.3277847 0.26611197 2.3509874e-38
3.0301983 -1.1994559 0.30306709 2.3509876e-38
3.032279 -1.1953493 0.34557694 2.3509876e-38
3.033159 -1.1955349 0.362441 2.3509877e-38
3.0347254 -1.195298 0.39279532 2.3509877e-38
3.0355248 -1.1947038 0.40856242 2.3509879e-38
3.0363567 -1.1950477 0.42440486 2.350988e-38
2.9701238 -1.1734062 -0.84067923 2.350988e-38
2.9696019 -1.2229606 -0.87940633 2.3509881e-38
2.9758847 -1.3252116 -0.81734157 2.3509881e-38
2.9780459 -1.3187686 -0.77192062 2.3509883e-38
2.9788864 -1.2356565 -0.70765167 2.3509883e-38
2.9732881 -1.1724348 -0.77908069 2.3509884e-38
