# .PCD v0.7 - Point Cloud Data file format
VERSION 0.7
FIELDS x y z rgb
SIZE 4 4 4 4
TYPE F F F F
COUNT 1 1 1 1
WIDTH 157
HEIGHT 1
VIEWPOINT 0 0 0 1 0 0 0
POINTS 157
DATA ascii
1.1517029 2.2867494 1.1824969 2.3509528e-38
1.1277477 2.2888088 1.2092853 2.350953e-38
1.0782835 2.2908819 1.2099361 2.3509532e-38
1.0637645 2.2916522 1.2141976 2.3509534e-38
1.0225086 2.2932806 1.2122083 2.3509537e-38
1.0072856 2.2940855 1.2166008 2.3509539e-38
0.9720816 2.295403 1.2130973 2.3509541e-38
0.94082367 2.2965155 1.208545 2.3509544e-38
0.94894493 2.2954955 1.191391 2.3509545e-38
0.96210903 2.2947497 1.1863514 2.3509548e-38
0.99530888 2.2932773 1.1838775 2.3509551e-38
1.0289936 2.2917924 1.18161 2.3509552e-38
1.0660838 2.2902415 1.1812048 2.3509555e-38
1.1336555 2.2849102 1.1176087 2.3509558e-38
1.1332188 2.2841706 1.0985979 2.3509559e-38
1.1346014 2.2835023 1.0832685 2.3509562e-38
1.1363655 2.2827387 1.0659462 2.3509563e-38
1.1309081 2.2817972 1.0366613 2.3509566e-38
1.1257101 2.2814112 1.0215743 2.3509569e-38
1.1293548 2.2806461 1.0061717 2.350957e-38
1.1316527 2.2799218 0.99038672 2.3509573e-38
1.1327804 2.2785673 0.95757079 2.3509576e-38
1.1231947 2.2778733 0.93020988 2.3509577e-38
1.1206025 2.2774053 0.91577721 2.350958e-38
1.1209832 2.27689 0.90324885 2.3509582e-38
1.1260941 2.2752132 0.8664794 2.3509584e-38
1.1230451 2.2747562 0.85184258 2.3509587e-38
1.1203271 2.2742994 0.8375634 2.3509589e-38
1.1221495 2.2729228 0.80492461 2.3509591e-38
1.1239535 2.2722139 0.78900915 2.3509594e-38
1.1228616 2.2711072 0.7601105 2.3509596e-38
1.1200856 2.2699394 0.7279287 2.3509598e-38
1.0814567 2.2690272 0.66493577 2.35096e-38
1.0494049 2.2688377 0.62689883 2.3509603e-38
0.97406369 2.2717206 0.62100387 2.3509605e-38
0.9539355 2.2722495 0.61337739 2.3509607e-38
0.93038172 2.2722304 0.58843762 2.350961e-38
0.83361387 2.2762764 0.58947152 2.3509612e-38
0.80730003 2.2778633 0.60195357 2.3509614e-38
0.8072679 2.2771032 0.58285683 2.3509617e-38
0.80667812 2.27649 0.56686002 2.3509618e-38
0.8060118 2.2759268 0.55203485 2.3509621e-38
0.80732161 2.2747481 0.52382064 2.3509624e-38
0.80785751 2.2740371 0.50653851 2.3509625e-38
0.80948865 2.272646 0.47333956 2.3509628e-38
0.80989915 2.2720504 0.45881915 2.3509631e-38
0.80888003 2.2714849 0.44357067 2.3509632e-38
0.80775493 2.2708876 0.42741692 2.3509635e-38
0.80853647 2.2702553 0.41236967 2.3509636e-38
0.80779535 2.2696736 0.39700556 2.3509639e-38
0.80846524 2.2690628 0.38238448 2.3509642e-38
0.80764729 2.2684329 0.36572325 2.3509643e-38
0.80839652 2.2677128 0.34843346 2.3509646e-38
0.80908442 2.2671001 0.33378226 2.3509649e-38
0.80504578 2.2659392 0.30046421 2.350965e-38
0.80750209 2.2653179 0.28742391 2.3509653e-38
0.80789238 2.2648861 0.2769978 2.3509654e-38
0.80604351 2.2641711 0.25714731 2.3509657e-38
0.80702353 2.2634716 0.24060701 2.350966e-38
0.81555331 2.2618246 0.20814976 2.3509661e-38
0.80648798 2.2604558 0.16438688 2.3509664e-38
0.80480683 2.2599502 0.14996392 2.3509667e-38
0.80331659 2.2580643 0.10109995 2.3509668e-38
0.80370224 2.2574542 0.086197622 2.3509671e-38
0.80656511 2.2567613 0.071779102 2.3509673e-38
0.80964071 2.2559209 0.053887323 2.3509675e-38
0.80988687 2.2553697 0.040311426 2.3509678e-38
0.80920547 2.2546968 0.022724345 2.350968e-38
0.80887413 2.2539883 0.0046033338 2.3509682e-38
0.81097949 2.2533448 -0.0093567073 2.3509685e-38
0.81134295 2.2526989 -0.025179684 2.3509687e-38
0.81152177 2.2522132 -0.037176251 2.3509689e-38
0.81343144 2.2513285 -0.057391413 2.3509691e-38
0.81193221 2.2507968 -0.072281107 2.3509694e-38
0.81095123 2.2502227 -0.087704659 2.3509696e-38
0.81046301 2.2490256 -0.11825187 2.3509698e-38
0.80811751 2.2485361 -0.1329668 2.3509701e-38
0.80974305 2.2472618 -0.16324487 2.3509703e-38
0.81024867 2.2459879 -0.19468507 2.3509705e-38
0.83312571 2.2446773 -0.20381272 2.3509708e-38
0.91592717 2.2424507 -0.17369187 2.3509709e-38
0.93554282 2.2416883 -0.17245686 2.3509712e-38
0.95096105 2.2410727 -0.17189784 2.3509715e-38
0.9739176 2.240057 -0.17354068 2.3509716e-38
1.0092554 2.2386878 -0.1711973 2.3509719e-38
1.0409131 2.2373645 -0.17152599 2.3509722e-38
1.1026485 2.2319832 -0.24243262 2.3509723e-38
1.1063161 2.2310493 -0.26205987 2.3509726e-38
1.1143165 2.2305129 -0.26720896 2.3509727e-38
1.1260988 2.2300458 -0.2666972 2.350973e-38
1.1522053 2.2297568 -0.24683648 2.3509733e-38
1.1651555 2.2297072 -0.23463395 2.3509734e-38
1.1641314 2.2316303 -0.18745212 2.3509737e-38
1.1679729 2.2319942 -0.17433357 2.350974e-38
1.1652361 2.2334018 -0.14186451 2.3509741e-38
1.1629239 2.2347903 -0.10942988 2.3509744e-38
1.1616282 2.235374 -0.096127376 2.3509745e-38
1.1656511 2.2365177 -0.063262008 2.3509748e-38
1.1643038 2.2371287 -0.049327489 2.3509751e-38
1.1657126 2.2376809 -0.03400936 2.3509752e-38
1.1668057 2.23826 -0.01834213 2.3509755e-38
1.1710268 2.2392602 0.011135899 2.3509758e-38
1.1641673 2.2410066 0.047819823 2.3509759e-38
1.1649913 2.2420847 0.075725362 2.3509762e-38
1.1698329 2.2424493 0.089903288 2.3509764e-38
1.1718276 2.244216 0.13629033 2.3509767e-38
1.1677566 2.2453694 0.16100438 2.3509769e-38
1.1706276 2.2461045 0.18242332 2.3509771e-38
1.1696583 2.246851 0.20014696 2.3509774e-38
1.1700314 2.2474051 0.21443428 2.3509776e-38
1.1704466 2.2479615 0.22882752 2.3509778e-38
1.1688148 2.2493014 0.26075047 2.3509781e-38
1.1732333 2.2497308 0.27610981 2.3509782e-38
1.1717569 2.2510073 0.30660403 2.3509785e-38
1.1751314 2.2515669 0.32415491 2.3509788e-38
1.1730416 2.252883 0.35499227 2.3509789e-38
1.1724688 2.2546933 0.39981472 2.3509792e-38
1.1652883 2.2563472 0.43386367 2.3509795e-38
1.1648376 2.2570286 0.45049176 2.3509796e-38
1.1695765 2.2579672 0.47894937 2.3509799e-38
1.1716659 2.258476 0.49388671 2.35098e-38
1.1695039 2.2593477 0.51351905 2.3509803e-38
1.1687284 2.2598541 0.52540761 2.3509806e-38
1.1647514 2.2613168 0.55797732 2.3509807e-38
1.1698096 2.2629027 0.60301429 2.350981e-38
1.1684591 2.2635405 0.61762506 2.3509813e-38
1.1684844 2.2642844 0.63631046 2.3509814e-38
1.1710908 2.2647316 0.65024132 2.3509817e-38
1.1725079 2.2665951 0.69845724 2.3509818e-38
1.1736474 2.2688797 0.75695503 2.3509821e-38
1.1707894 2.2702928 0.7894339 2.3509824e-38
1.1651894 2.2725928 0.84133297 2.3509825e-38
1.1637039 2.2731795 0.85450304 2.3509828e-38
1.164117 2.274446 0.88671613 2.3509831e-38
1.1630915 2.2750559 0.90094221 2.3509832e-38
1.1592134 2.2766111 0.93593872 2.3509835e-38
1.1617502 2.2775781 0.96283996 2.3509837e-38
1.1650207 2.2781041 0.97942162 2.3509839e-38
1.1621586 2.2787418 0.99245811 2.3509842e-38
1.1633401 2.280021 1.0257673 2.3509844e-38
1.1679944 2.2804611 1.041641 2.3509846e-38
1.15531 2.2824366 1.0780425 2.3509849e-38
1.158392 2.2833829 1.1049856 2.3509851e-38
1.1601348 2.2851541 1.1512336 2.3509853e-38
1.1444463 2.2495663 0.2420951 2.3509855e-38
1.1445053 2.2501152 0.25592858 2.3509858e-38
1.1154885 2.2536161 0.31363106 2.350986e-38
1.0376798 2.2578781 0.33975849 2.3509862e-38
0.98380005 2.2601922 0.34187669 2.3509865e-38
0.91045618 2.2610855 0.28814131 2.3509867e-38
0.90868568 2.2598147 0.2544255 2.3509869e-38
0.90842634 2.2593293 0.24196897 2.3509872e-38
0.98672575 2.2534187 0.17498253 2.3509873e-38
0.99951202 2.2528057 0.17287953 2.3509876e-38
1.0203367 2.2519836 0.17387989 2.3509879e-38
1.0321354 2.2513049 0.16909654 2.350988e-38
1.111408 2.2482038 0.17361319 2.3509883e-38
