# .PCD v0.7 - Point Cloud Data file format
VERSION 0.7
FIELDS x y z rgb
SIZE 4 4 4 4
TYPE F F F F
COUNT 1 1 1 1
WIDTH 53
HEIGHT 1
VIEWPOINT 0 0 0 1 0 0 0
POINTS 53
DATA ascii
2.8229501 2.0257208 -1.1902789 2.3509528e-38
2.8355701 2.1313713 -1.1934043 2.3509534e-38
2.8363321 2.1647482 -1.1942788 2.3509541e-38
2.8340547 2.1965659 -1.1950077 2.3509548e-38
2.8301578 2.2110353 -1.1952391 2.3509555e-38
2.8246942 2.257659 -1.1962327 2.3509562e-38
2.8174095 2.2704051 -1.1963018 2.3509568e-38
2.8035336 2.2962246 -1.1964728 2.3509575e-38
2.7983143 2.3089671 -1.1966141 2.3509582e-38
2.7899423 2.322077 -1.1966544 2.3509589e-38
2.7725306 2.3285692 -1.1962109 2.3509596e-38
2.7557788 2.3333044 -1.1957455 2.3509601e-38
2.7078784 2.3454216 -1.194379 2.3509608e-38
2.6887114 2.3535471 -1.1939155 2.3509615e-38
2.6699781 2.3564737 -1.1933349 2.3509622e-38
2.6284699 2.3381653 -1.1914188 2.3509629e-38
2.5964105 2.3374829 -1.1902808 2.3509635e-38
2.5756385 2.3427496 -1.1896886 2.3509642e-38
2.5538239 2.3479526 -1.1890583 2.3509649e-38
2.5378807 2.3497019 -1.1885453 2.3509656e-38
2.5072265 2.3419201 -1.187276 2.3509663e-38
2.4744112 2.3378146 -1.1860247 2.350967e-38
2.4211524 2.2982829 -1.1831585 2.3509675e-38
2.3684487 2.3012843 -1.1813926 2.3509682e-38
2.3376722 2.2849393 -1.1799014 2.3509689e-38
2.2544351 2.2420645 -1.1759025 2.3509696e-38
2.2446573 2.2370329 -1.1754328 2.3509703e-38
2.2014198 2.2146871 -1.1733539 2.3509709e-38
2.2180262 2.173816 -1.1728957 2.3509716e-38
2.2234201 2.1804225 -1.1732521 2.3509723e-38
2.2611196 2.2109919 -1.1753466 2.350973e-38
2.3578165 2.2277379 -1.1791523 2.3509737e-38
2.3965509 2.1837783 -1.1793894 2.3509743e-38
2.4104447 2.1579671 -1.1792192 2.350975e-38
2.4368229 2.1386936 -1.1796516 2.3509757e-38
2.4637303 2.1215134 -1.1801558 2.3509764e-38
2.5252402 2.0690732 -1.1809735 2.3509771e-38
2.53267 2.0563958 -1.1809112 2.3509778e-38
2.5641868 2.0232444 -1.1811706 2.3509783e-38
2.5991938 1.9589221 -1.1807603 2.350979e-38
2.5994473 1.9260663 -1.179934 2.3509797e-38
2.6064565 1.91319 -1.1798524 2.3509804e-38
2.6256731 1.906721 -1.1803596 2.3509811e-38
2.647742 1.9016014 -1.1810009 2.3509817e-38
2.6958828 1.9100796 -1.182899 2.3509824e-38
2.7182145 1.921886 -1.1839796 2.3509831e-38
2.7542398 1.9243309 -1.1853011 2.3509838e-38
2.7919133 1.9269177 -1.1866837 2.3509845e-38
2.8256421 1.9279457 -1.1878887 2.3509851e-38
2.8321786 1.9478621 -1.1886233 2.3509858e-38
2.8385096 1.9676811 -1.1893482 2.3509865e-38
2.8393145 2.0010939 -1.1902255 2.3509872e-38
2.8346479 2.0151994 -1.1904205 2.3509879e-38
