# .PCD v0.7 - Point Cloud Data file format
VERSION 0.7
FIELDS x y z rgb
SIZE 4 4 4 4
TYPE F F F F
COUNT 1 1 1 1
WIDTH 128
HEIGHT 1
VIEWPOINT 0 0 0 1 0 0 0
POINTS 128
DATA ascii
2.7530732 2.3374515 -1.0163684 2.3509528e-38
2.7493315 2.3411996 -0.99846995 2.350953e-38
2.7428546 2.3478999 -0.96550691 2.3509532e-38
2.7439933 2.3502383 -0.93861133 2.3509535e-38
2.7488422 2.3494964 -0.92354679 2.3509538e-38
2.7517967 2.3513341 -0.89307779 2.3509541e-38
2.7516813 2.3548255 -0.86114168 2.3509544e-38
2.7578392 2.3564954 -0.81773162 2.3509547e-38
2.761729 2.3561287 -0.80352128 2.3509549e-38
2.7631626 2.3585837 -0.7742039 2.3509552e-38
2.7595925 2.3624814 -0.75413722 2.3509555e-38
2.7581177 2.3648272 -0.73900479 2.3509558e-38
2.7581506 2.3663454 -0.72474551 2.3509561e-38
2.7628894 2.3666363 -0.7005766 2.3509563e-38
2.768398 2.3681412 -0.661641 2.3509566e-38
2.7678194 2.3700211 -0.64677954 2.3509569e-38
2.7664037 2.3724549 -0.63056672 2.3509572e-38
2.7669284 2.3736923 -0.61668372 2.3509575e-38
2.769866 2.3756959 -0.58474892 2.3509577e-38
2.7743156 2.3766725 -0.55551898 2.350958e-38
2.7737741 2.3784914 -0.5410614 2.3509583e-38
2.7766101 2.3804626 -0.50988758 2.3509586e-38
2.7793031 2.382514 -0.47862029 2.3509589e-38
2.7806492 2.3833461 -0.46478647 2.3509591e-38
2.7819905 2.3844664 -0.44829309 2.3509594e-38
2.7805867 2.3869054 -0.43198183 2.3509597e-38
2.7837157 2.3870282 -0.41666549 2.35096e-38
2.7871857 2.386826 -0.40282756 2.3509603e-38
2.7908773 2.3863733 -0.39032254 2.3509605e-38
2.7923896 2.3894377 -0.35498059 2.3509608e-38
2.7905426 2.3934312 -0.32621917 2.3509611e-38
2.7898035 2.3973529 -0.29310653 2.3509614e-38
2.7907515 2.3987575 -0.27575698 2.3509617e-38
2.8001819 2.3971429 -0.24805728 2.3509619e-38
2.8019831 2.3977823 -0.23395261 2.3509622e-38
2.8018847 2.3993649 -0.21968177 2.3509625e-38
2.794836 2.406554 -0.1847707 2.3509628e-38
2.7965584 2.4088943 -0.15521523 2.3509631e-38
2.7993519 2.4090409 -0.14119759 2.3509633e-38
2.8022716 2.4093285 -0.12529823 2.3509636e-38
2.7991447 2.4157 -0.080227852 2.3509639e-38
2.8042212 2.4150815 -0.062985867 2.3509642e-38
2.8053041 2.4179077 -0.031805068 2.3509645e-38
2.8113861 2.4163234 -0.018985122 2.3509647e-38
2.8208055 2.4157445 0.01828897 2.350965e-38
2.8227992 2.418077 0.049007177 2.3509653e-38
2.821815 2.420332 0.065514177 2.3509656e-38
2.8218427 2.4220142 0.081281155 2.3509659e-38
2.8212323 2.4238424 0.09551239 2.3509661e-38
2.8220325 2.426496 0.12380642 2.3509664e-38
2.8205132 2.4293275 0.1432513 2.3509667e-38
2.8236969 2.4316988 0.17971587 2.350967e-38
2.8185358 2.4371066 0.2066153 2.3509673e-38
2.8202615 2.4394872 0.23656702 2.3509675e-38
2.8301673 2.4393098 0.27978134 2.3509678e-38
2.8281937 2.4437866 0.31246442 2.3509681e-38
2.8318846 2.4435022 0.32653353 2.3509684e-38
2.8383198 2.4430919 0.35186318 2.3509687e-38
2.8405347 2.4461091 0.3899453 2.3509689e-38
2.8410878 2.446907 0.39987284 2.3509692e-38
2.842566 2.4496458 0.43202528 2.3509695e-38
2.8478899 2.4501743 0.46105275 2.3509698e-38
2.8483152 2.4515128 0.47542477 2.3509701e-38
2.8678539 2.4446535 0.50014257 2.3509703e-38
2.879034 2.4392033 0.50010443 2.3509706e-38
2.9001188 2.4294946 0.50533497 2.3509709e-38
2.9065247 2.4244056 0.48703647 2.3509712e-38
2.9144266 2.4185319 0.46821731 2.3509715e-38
2.9142027 2.4137087 0.42236406 2.3509717e-38
2.9122777 2.4112728 0.3909893 2.350972e-38
2.9090958 2.4097347 0.36228591 2.3509723e-38
2.9041507 2.410656 0.34845632 2.3509726e-38
2.9037087 2.4059 0.30223235 2.3509729e-38
2.899327 2.4065418 0.28835341 2.3509731e-38
2.8981018 2.403708 0.25645998 2.3509734e-38
2.8951859 2.4036219 0.24245295 2.3509737e-38
2.8972931 2.3991334 0.21026826 2.350974e-38
2.8943634 2.3990541 0.19626236 2.3509743e-38
2.8942895 2.3956487 0.16426837 2.3509745e-38
2.8850937 2.3958232 0.12424171 2.3509748e-38
2.8852835 2.3940341 0.10846767 2.3509751e-38
2.8818731 2.3939223 0.091984957 2.3509754e-38
2.884017 2.3892899 0.058627486 2.3509757e-38
2.8858292 2.3867114 0.0428572 2.3509759e-38
2.8898559 2.3829544 0.026167065 2.3509762e-38
2.88696 2.3810868 -0.0043102503 2.3509765e-38
2.8863468 2.3785276 -0.030883014 2.3509768e-38
2.8833244 2.3762486 -0.065757215 2.3509771e-38
2.8860784 2.3712626 -0.099638045 2.3509774e-38
2.8835835 2.3714314 -0.1093697 2.3509776e-38
2.87993 2.3717921 -0.12256277 2.3509779e-38
2.8758459 2.372201 -0.13726139 2.3509782e-38
2.874866 2.3694224 -0.16752875 2.3509785e-38
2.8698945 2.3671679 -0.21100941 2.3509788e-38
2.8666272 2.3652947 -0.24321926 2.350979e-38
2.8708286 2.3613064 -0.26127648 2.3509793e-38
2.8683908 2.3594961 -0.28914052 2.3509796e-38
2.8680608 2.357446 -0.30969727 2.3509799e-38
2.8685808 2.3555865 -0.32463378 2.3509802e-38
2.8715711 2.3506136 -0.35732254 2.3509804e-38
2.8627901 2.3523254 -0.3811762 2.3509807e-38
2.8556097 2.3510954 -0.42513135 2.350981e-38
2.8544459 2.3499589 -0.4409712 2.3509813e-38
2.8534231 2.3470244 -0.47288224 2.3509816e-38
2.8478365 2.3482814 -0.48650086 2.3509818e-38
2.8445342 2.3484225 -0.50014293 2.3509821e-38
2.8446589 2.3448982 -0.53234386 2.3509824e-38
2.8484058 2.3410654 -0.55100548 2.3509827e-38
2.8415494 2.3413863 -0.57907617 2.350983e-38
2.8442392 2.3366568 -0.61086667 2.3509832e-38
2.8429656 2.3339152 -0.64211982 2.3509835e-38
2.8388553 2.3341854 -0.6582278 2.3509838e-38
2.8378563 2.3314986 -0.68772995 2.3509841e-38
2.8358564 2.3309903 -0.70151258 2.3509844e-38
2.8357158 2.3292079 -0.71871811 2.3509846e-38
2.8255887 2.3313982 -0.74422371 2.3509849e-38
2.8260517 2.3276083 -0.7773608 2.3509852e-38
2.8292232 2.3243108 -0.79365492 2.3509855e-38
2.8234725 2.3205028 -0.85510552 2.3509858e-38
2.8212936 2.3199844 -0.86979002 2.350986e-38
2.7990906 2.3261504 -0.91302407 2.3509863e-38
2.7847872 2.329025 -0.95107794 2.3509866e-38
2.7824576 2.3267398 -0.98287416 2.3509869e-38
2.7848313 2.3205738 -1.0294514 2.3509872e-38
2.7809863 2.3209176 -1.0436645 2.3509874e-38
2.7660499 2.3269227 -1.0554848 2.3509877e-38
2.7539711 2.3332145 -1.0516939 2.350988e-38
2.7534599 2.3353765 -1.0339112 2.3509883e-38
