# .PCD v0.7 - Point Cloud Data file format
VERSION 0.7
FIELDS x y z rgb
SIZE 4 4 4 4
TYPE F F F F
COUNT 1 1 1 1
WIDTH 332
HEIGHT 1
VIEWPOINT 0 0 0 1 0 0 0
POINTS 332
DATA ascii
2.879065 2.1255541 -1.116588 2.3509528e-38
2.8808858 2.1026413 -1.0977842 2.3509528e-38
2.8819509 2.0845413 -1.0888734 2.350953e-38
2.8824854 2.0694456 -1.0870872 2.3509531e-38
2.8840768 2.011456 -1.0875707 2.3509532e-38
2.8849144 1.9858322 -1.0856473 2.3509532e-38
2.8857074 1.9572518 -1.0857512 2.3509534e-38
2.8861532 1.931159 -1.0902709 2.3509535e-38
2.8872416 1.8917029 -1.0905144 2.3509537e-38
2.8884513 1.836422 -1.0958782 2.3509537e-38
2.8896499 1.8061841 -1.0902513 2.3509538e-38
2.8902805 1.7898498 -1.0874825 2.3509539e-38
2.8910677 1.7677617 -1.0847834 2.3509541e-38
2.8917644 1.7328877 -1.089223 2.3509541e-38
2.893734 1.6730884 -1.0844951 2.3509542e-38
2.894402 1.6364813 -1.0901576 2.3509544e-38
2.895056 1.6204478 -1.0868899 2.3509545e-38
2.8955195 1.6055318 -1.0861433 2.3509547e-38
2.8958983 1.5713782 -1.0953351 2.3509547e-38
2.8968203 1.5430608 -1.0932629 2.3509548e-38
2.8974197 1.5270784 -1.0908335 2.3509549e-38
2.8979366 1.5121245 -1.0892581 2.3509551e-38
2.8983114 1.499128 -1.0890793 2.3509551e-38
2.8989809 1.4819944 -1.0860482 2.3509552e-38
2.9000738 1.4304388 -1.0916107 2.3509554e-38
2.9008803 1.4065206 -1.0894141 2.3509555e-38
2.9014144 1.3957177 -1.0857197 2.3509555e-38
2.9021308 1.3577793 -1.0912125 2.3509556e-38
2.9032233 1.3271658 -1.0874459 2.3509558e-38
2.9041216 1.2991672 -1.0856087 2.3509559e-38
2.9045594 1.2841662 -1.0853195 2.3509561e-38
2.9051206 1.2503092 -1.0914732 2.3509561e-38
2.9054928 1.2383898 -1.0908587 2.3509562e-38
2.9058838 1.2226583 -1.0916311 2.3509563e-38
2.9067476 1.2011082 -1.0874741 2.3509565e-38
2.907311 1.1874183 -1.0846008 2.3509565e-38
2.9079452 1.156744 -1.0881624 2.3509566e-38
2.9090271 1.1193466 -1.087588 2.3509568e-38
2.9094696 1.1051369 -1.0868709 2.3509569e-38
2.9109087 1.0517223 -1.0877444 2.3509569e-38
2.9116046 1.0239911 -1.0890126 2.350957e-38
2.9124079 1.0061255 -1.0841746 2.3509572e-38
2.9132202 0.9589144 -1.0922709 2.3509573e-38
2.9139981 0.93865365 -1.0889089 2.3509575e-38
2.9148498 0.91379368 -1.0864154 2.3509575e-38
2.9156992 0.884893 -1.0857592 2.3509576e-38
2.9162853 0.8680833 -1.0839072 2.3509577e-38
2.9167123 0.85409224 -1.0833385 2.3509579e-38
2.9173093 0.82331467 -1.0875487 2.3509579e-38
2.9175968 0.79438323 -1.0958585 2.350958e-38
2.9183884 0.76328278 -1.097109 2.3509582e-38
2.9198084 0.73171145 -1.0885553 2.3509583e-38
2.9202557 0.71675473 -1.0880877 2.3509583e-38
2.9209023 0.6984185 -1.0859615 2.3509584e-38
2.9215651 0.68322122 -1.0821664 2.3509586e-38
2.9219697 0.66982269 -1.081691 2.3509587e-38
2.9225287 0.65437794 -1.0796673 2.3509589e-38
2.9229548 0.61825109 -1.0889754 2.3509589e-38
2.9232388 0.60545516 -1.0901603 2.350959e-38
2.9245541 0.55137122 -1.0933081 2.3509591e-38
2.9252 0.53640646 -1.0896775 2.3509593e-38
2.9263031 0.48577422 -1.0946639 2.3509593e-38
2.9274764 0.45256802 -1.0907667 2.3509594e-38
2.9276574 0.4392947 -1.093799 2.3509596e-38
2.9302363 0.37410358 -1.0817634 2.3509597e-38
2.9308228 0.33897045 -1.0880698 2.3509597e-38
2.9318812 0.30967814 -1.0842621 2.3509598e-38
2.9327221 0.29027829 -1.0795085 2.35096e-38
2.9338095 0.23789471 -1.0855262 2.3509601e-38
2.9342921 0.22542357 -1.0834011 2.3509601e-38
2.9352665 0.1944207 -1.0816815 2.3509603e-38
2.9357185 0.18038765 -1.0807378 2.3509604e-38
2.9363127 0.16542685 -1.077937 2.3509605e-38
2.9367962 0.13000071 -1.0860174 2.3509607e-38
2.9386561 0.058864545 -1.0880886 2.3509607e-38
2.9393511 0.021410439 -1.0937036 2.3509608e-38
2.9419453 -0.03570921 -1.0778222 2.350961e-38
2.9429274 -0.082176886 -1.0828882 2.3509611e-38
2.9434743 -0.098681219 -1.0815221 2.3509611e-38
2.944309 -0.12075422 -1.0780565 2.3509612e-38
2.9445424 -0.12586728 -1.0766221 2.3509614e-38
2.9453044 -0.15423352 -1.0771151 2.3509615e-38
2.9456921 -0.18173823 -1.0832028 2.3509615e-38
2.9460483 -0.19407731 -1.083029 2.3509617e-38
2.946542 -0.22961226 -1.0909971 2.3509618e-38
2.9479842 -0.27317744 -1.0874301 2.3509619e-38
2.9490356 -0.30323926 -1.0840708 2.3509621e-38
2.9493616 -0.31558084 -1.0843751 2.3509621e-38
2.9501061 -0.33499607 -1.0811729 2.3509622e-38
2.9506547 -0.34889132 -1.0786185 2.3509624e-38
2.9513068 -0.36749357 -1.0765133 2.3509625e-38
2.9523001 -0.41600576 -1.0823119 2.3509625e-38
2.9528193 -0.43366027 -1.0819056 2.3509626e-38
2.9534488 -0.46830755 -1.0873176 2.3509628e-38
2.9553118 -0.53901452 -1.0891458 2.3509629e-38
2.9557617 -0.55340463 -1.0883884 2.3509629e-38
2.9562347 -0.56685799 -1.086844 2.3509631e-38
2.9568825 -0.58353257 -1.0839514 2.3509632e-38
2.9574125 -0.59681183 -1.0814332 2.3509633e-38
2.9587877 -0.63303727 -1.0756561 2.3509635e-38
2.9598715 -0.68419868 -1.0811886 2.3509635e-38
2.9604254 -0.70004535 -1.079428 2.3509636e-38
2.9611082 -0.71724904 -1.0762144 2.3509638e-38
2.9616194 -0.73202729 -1.0746515 2.3509639e-38
2.9627209 -0.78242272 -1.0795573 2.3509639e-38
2.9635458 -0.80233622 -1.0752866 2.350964e-38
2.9642184 -0.82640976 -1.0753074 2.3509642e-38
2.9646513 -0.84014499 -1.074523 2.3509643e-38
2.9655166 -0.88847893 -1.0822825 2.3509643e-38
2.9660876 -0.90596133 -1.0809747 2.3509645e-38
2.9666395 -0.92134506 -1.0790344 2.3509646e-38
2.9671817 -0.93415326 -1.0760972 2.3509647e-38
2.9674761 -0.94182295 -1.0748267 2.3509649e-38
2.9681442 -0.96545976 -1.0747168 2.3509649e-38
2.9685085 -0.97981054 -1.0753078 2.350965e-38
2.9697852 -1.0245628 -1.07491 2.3509652e-38
2.9698484 -1.0355349 -1.0787929 2.3509653e-38
2.9715507 -1.0879972 -1.0750489 2.3509653e-38
2.9725337 -1.1242633 -1.075546 2.3509654e-38
2.9730365 -1.1371531 -1.0732815 2.3509656e-38
2.9734428 -1.1505773 -1.0727873 2.3509657e-38
2.9737394 -1.1625195 -1.0733868 2.3509657e-38
2.975477 -1.2187016 -1.070735 2.3509659e-38
2.9768574 -1.2735808 -1.073197 2.350966e-38
2.9778199 -1.3232863 -1.0800143 2.3509661e-38
2.9785078 -1.3393434 -1.0762099 2.3509663e-38
2.9791028 -1.3522167 -1.072463 2.3509663e-38
2.9802213 -1.4058285 -1.0785342 2.3509664e-38
2.9810929 -1.431365 -1.0760221 2.3509666e-38
2.9814653 -1.4411871 -1.0744671 2.3509667e-38
2.9821172 -1.4582176 -1.071669 2.3509667e-38
2.9831905 -1.5056019 -1.0756887 2.3509668e-38
2.9840424 -1.5247102 -1.070626 2.350967e-38
2.9845328 -1.5493393 -1.0737884 2.3509671e-38
2.9849789 -1.5720685 -1.0768111 2.3509671e-38
2.9863808 -1.604244 -1.0688071 2.3509673e-38
2.9869411 -1.6286871 -1.0707793 2.3509674e-38
2.9873831 -1.650825 -1.0735948 2.3509675e-38
2.9879205 -1.6789207 -1.0775584 2.3509675e-38
2.9891367 -1.7103229 -1.0721731 2.3509677e-38
2.990088 -1.7398763 -1.0701846 2.3509678e-38
2.99143 -1.8029628 -1.0769182 2.350968e-38
2.9919376 -1.816938 -1.0750537 2.3509681e-38
2.9924212 -1.8321555 -1.0741322 2.3509681e-38
2.9930065 -1.8479835 -1.071864 2.3509682e-38
2.9934425 -1.8614844 -1.0709256 2.3509684e-38
2.9938869 -1.8761766 -1.0703917 2.3509685e-38
2.9946735 -1.9016449 -1.069208 2.3509685e-38
2.9959028 -1.9477829 -1.070182 2.3509687e-38
2.9965403 -1.9727573 -1.0711586 2.3509688e-38
2.9968221 -1.9892688 -1.0740279 2.3509689e-38
2.9972713 -2.0112283 -1.0766634 2.3509689e-38
2.9981625 -2.0391316 -1.074896 2.3509691e-38
2.99878 -2.0563998 -1.0727475 2.3509692e-38
2.9996545 -2.0830815 -1.0707004 2.3509694e-38
3.0003142 -2.0987344 -1.0671654 2.3509695e-38
3.0011883 -2.1408942 -1.0720254 2.3509695e-38
3.00172 -2.167959 -1.0756204 2.3509696e-38
3.0011432 -2.1798398 -1.0901076 2.3509698e-38
3.0008121 -2.1786633 -1.0948658 2.3509699e-38
2.9998653 -2.1753416 -1.1084732 2.3509699e-38
2.998666 -2.171705 -1.1259667 2.3509701e-38
2.9984396 -2.1658287 -1.1269581 2.3509702e-38
2.9974754 -2.1292164 -1.126004 2.3509703e-38
2.9962554 -2.0718122 -1.119856 2.3509703e-38
2.995749 -2.0570869 -1.1213669 2.3509705e-38
2.9950631 -2.0301507 -1.1202888 2.3509706e-38
2.9946227 -2.0161655 -1.1210703 2.3509708e-38
2.9938314 -1.9985003 -1.1258131 2.3509709e-38
2.9932308 -1.9840486 -1.1289424 2.3509709e-38
2.9930885 -1.9707694 -1.12529 2.350971e-38
2.9917364 -1.923254 -1.1256592 2.3509712e-38
2.9910972 -1.9066985 -1.1284686 2.3509713e-38
2.9907608 -1.8942239 -1.1282623 2.3509713e-38
2.9902003 -1.8790952 -1.1304523 2.3509715e-38
2.9897332 -1.8515372 -1.1256167 2.3509716e-38
2.9895434 -1.8448594 -1.1256634 2.3509717e-38
2.9886992 -1.81355 -1.125163 2.3509717e-38
2.9881508 -1.79888 -1.1273689 2.3509719e-38
2.9871454 -1.768772 -1.12997 2.350972e-38
2.9863532 -1.7422065 -1.1307497 2.3509722e-38
2.9853296 -1.6994619 -1.128013 2.3509723e-38
2.9839878 -1.6558634 -1.1299664 2.3509723e-38
2.9835799 -1.6228895 -1.1217707 2.3509724e-38
2.9827862 -1.6013744 -1.124822 2.3509726e-38
2.9820681 -1.5860887 -1.1294576 2.3509727e-38
2.9814801 -1.5496639 -1.1225868 2.3509727e-38
2.9808629 -1.5314895 -1.1243232 2.3509729e-38
2.9803059 -1.5179511 -1.1271647 2.350973e-38
2.9796307 -1.5010405 -1.1303912 2.3509731e-38
2.9783187 -1.4411098 -1.1245892 2.3509731e-38
2.9779317 -1.4268535 -1.1243972 2.3509733e-38
2.9773073 -1.4087574 -1.1262867 2.3509734e-38
2.9767978 -1.3920786 -1.126976 2.3509736e-38
2.9762018 -1.3779756 -1.1301779 2.3509737e-38
2.9754744 -1.3366047 -1.1233383 2.3509737e-38
2.9750049 -1.3248495 -1.1255741 2.3509738e-38
2.9742129 -1.3028955 -1.1284124 2.350974e-38
2.9737396 -1.2919037 -1.1310614 2.3509741e-38
2.9732726 -1.2565665 -1.1227431 2.3509741e-38
2.9718707 -1.2231891 -1.1302099 2.3509743e-38
2.9716158 -1.2107737 -1.1287427 2.3509744e-38
2.969698 -1.1527698 -1.133454 2.3509745e-38
2.9691229 -1.1161492 -1.1262913 2.3509745e-38
2.9683328 -1.0893453 -1.1269332 2.3509747e-38
2.9678426 -1.0748802 -1.1282998 2.3509748e-38
2.9672182 -1.0585229 -1.1309587 2.350975e-38
2.966851 -1.0456233 -1.1310655 2.350975e-38
2.9665287 -1.0333312 -1.1307243 2.3509751e-38
2.9655254 -1.0044726 -1.1338516 2.3509752e-38
2.965426 -0.9981479 -1.1326123 2.3509754e-38
2.9645107 -0.9691481 -1.1342794 2.3509755e-38
2.9641218 -0.95596141 -1.1345983 2.3509755e-38
2.9639165 -0.94558841 -1.1332407 2.3509757e-38
2.963485 -0.9314974 -1.1338373 2.3509758e-38
2.9626338 -0.8904025 -1.1290839 2.3509759e-38
2.9618185 -0.8644951 -1.1305305 2.3509759e-38
2.9613032 -0.84920251 -1.131924 2.3509761e-38
2.9606936 -0.83303964 -1.1344388 2.3509762e-38
2.960247 -0.818308 -1.1349946 2.3509764e-38
2.9590063 -0.76558828 -1.1312628 2.3509764e-38
2.9585614 -0.7515555 -1.1320946 2.3509765e-38
2.9574742 -0.71822798 -1.1345685 2.3509767e-38
2.9567952 -0.68268156 -1.1295425 2.3509768e-38
2.9563184 -0.66831082 -1.1307349 2.3509769e-38
2.9559658 -0.65948552 -1.1324271 2.3509769e-38
2.9553306 -0.64530218 -1.1362253 2.3509771e-38
2.9545982 -0.59990084 -1.1276627 2.3509772e-38
2.9539421 -0.58339918 -1.1307629 2.3509774e-38
2.953392 -0.56804645 -1.1326801 2.3509774e-38
2.9529045 -0.55207473 -1.1333371 2.3509775e-38
2.9524167 -0.51896608 -1.1263503 2.3509776e-38
2.9517035 -0.49916202 -1.1288899 2.3509778e-38
2.9510803 -0.48400539 -1.1320653 2.3509778e-38
2.9506471 -0.47397345 -1.1345001 2.3509779e-38
2.9499457 -0.4528228 -1.1362519 2.3509781e-38
2.9487369 -0.40058336 -1.132229 2.3509782e-38
2.9477541 -0.37328896 -1.1357254 2.3509783e-38
2.94712 -0.33303466 -1.1278856 2.3509783e-38
2.9465988 -0.31783855 -1.1294224 2.3509785e-38
2.9454758 -0.28934112 -1.1346173 2.3509786e-38
2.9446621 -0.26585171 -1.1371112 2.3509788e-38
2.9440608 -0.24499822 -1.1374019 2.3509788e-38
2.9426439 -0.18891266 -1.1349831 2.3509789e-38
2.942245 -0.17449865 -1.1349183 2.350979e-38
2.9419148 -0.16403323 -1.1355176 2.3509792e-38
2.9412334 -0.14497998 -1.137877 2.3509792e-38
2.940958 -0.13331947 -1.1370697 2.3509793e-38
2.9406121 -0.10199087 -1.1286168 2.3509795e-38
2.9391038 -0.063307926 -1.1354148 2.3509796e-38
2.9387274 -0.052072577 -1.1364026 2.3509797e-38
2.9383154 -0.037027195 -1.1362621 2.3509797e-38
2.9380586 -0.025459938 -1.1352073 2.3509799e-38
2.9374604 0.0086728409 -1.1295218 2.35098e-38
2.937043 0.022689424 -1.1299273 2.3509802e-38
2.9365375 0.039981015 -1.1302792 2.3509802e-38
2.9359028 0.078075692 -1.1234075 2.3509803e-38
2.9354088 0.092185602 -1.1249951 2.3509804e-38
2.9336002 0.14039293 -1.1323329 2.3509806e-38
2.9330399 0.15738077 -1.1336879 2.3509806e-38
2.9326649 0.16855955 -1.1346802 2.3509807e-38
2.9318266 0.18876699 -1.1390299 2.3509809e-38
2.9314773 0.20096222 -1.1391656 2.350981e-38
2.9310575 0.23417899 -1.1310532 2.3509811e-38
2.9305387 0.25042984 -1.1320775 2.3509811e-38
2.9294538 0.30050856 -1.127041 2.3509813e-38
2.9285991 0.32046169 -1.1317685 2.3509814e-38
2.9278097 0.34008384 -1.1356046 2.3509816e-38
2.9274514 0.35416886 -1.1350317 2.3509816e-38
2.9269693 0.38742247 -1.12789 2.3509817e-38
2.9258788 0.42174971 -1.1299721 2.3509818e-38
2.9247723 0.44979334 -1.1351074 2.350982e-38
2.9241142 0.48863447 -1.1282787 2.350982e-38
2.9221647 0.55356485 -1.1304079 2.3509821e-38
2.9216092 0.5662868 -1.1335962 2.3509823e-38
2.9207277 0.59278899 -1.135824 2.3509824e-38
2.920181 0.60948396 -1.1370975 2.3509824e-38
2.9194872 0.63472819 -1.1369021 2.3509825e-38
2.918906 0.65120572 -1.1388233 2.3509827e-38
2.9182611 0.67136562 -1.1401167 2.3509828e-38
2.9175906 0.70524144 -1.1356969 2.350983e-38
2.916744 0.72625256 -1.139832 2.350983e-38
2.9163053 0.73833317 -1.1414295 2.3509831e-38
2.9154904 0.7653119 -1.1423966 2.3509832e-38
2.9143648 0.81753117 -1.1370535 2.3509834e-38
2.9135399 0.83762872 -1.1412462 2.3509834e-38
2.9128058 0.87040883 -1.1383395 2.3509835e-38
2.9115891 0.9026435 -1.1433595 2.3509837e-38
2.9111896 0.93026924 -1.1374072 2.3509838e-38
2.9104702 0.95571655 -1.1375293 2.3509838e-38
2.9099336 0.96980798 -1.1398023 2.3509839e-38
2.9079251 1.0354191 -1.1425704 2.3509841e-38
2.9076157 1.0608422 -1.136171 2.3509842e-38
2.9053352 1.128329 -1.1424297 2.3509844e-38
2.9048538 1.1475382 -1.1415391 2.3509844e-38
2.9041989 1.1687491 -1.1425208 2.3509845e-38
2.903712 1.183255 -1.1438129 2.3509846e-38
2.902606 1.2343886 -1.1386479 2.3509848e-38
2.9020059 1.2511859 -1.1407219 2.3509848e-38
2.9015672 1.2650464 -1.1415383 2.3509849e-38
2.9005947 1.2929091 -1.1446162 2.3509851e-38
2.9001627 1.3070183 -1.1452092 2.3509852e-38
2.899838 1.3397188 -1.1358135 2.3509852e-38
2.8981416 1.3818724 -1.1440599 2.3509853e-38
2.8977449 1.4151673 -1.1355401 2.3509855e-38
2.8958113 1.4642705 -1.1444654 2.3509856e-38
2.8953297 1.4789367 -1.1456069 2.3509858e-38
2.8945251 1.5249898 -1.1379011 2.3509858e-38
2.8938277 1.5438972 -1.1405933 2.3509859e-38
2.8927732 1.5732572 -1.1443058 2.350986e-38
2.8926063 1.5871139 -1.1407902 2.3509862e-38
2.8917267 1.6314321 -1.1350516 2.3509862e-38
2.8900237 1.6713951 -1.1443812 2.3509863e-38
2.8864965 1.7046504 -1.1857703 2.3509865e-38
2.8855703 1.7093153 -1.1984607 2.3509866e-38
2.8851502 1.7144079 -1.2028837 2.3509866e-38
2.8843427 1.7327621 -1.2075721 2.3509867e-38
2.8836257 1.7540712 -1.2094997 2.3509869e-38
2.8828924 1.7860701 -1.2069275 2.350987e-38
2.8834729 1.7893304 -1.1962163 2.3509872e-38
2.8858714 1.8258042 -1.141728 2.3509872e-38
2.8848445 1.877898 -1.1348741 2.3509873e-38
2.8834963 1.911314 -1.1414684 2.3509874e-38
2.8828011 1.9278624 -1.145172 2.3509876e-38
2.8821046 1.9487381 -1.1469672 2.3509876e-38
2.8773253 2.0219686 -1.1904968 2.3509877e-38
2.8741465 2.0705516 -1.2195092 2.3509879e-38
2.8736312 2.0904255 -1.2188587 2.350988e-38
2.8733051 2.1037757 -1.2181021 2.350988e-38
2.8731251 2.1160367 -1.2155039 2.3509881e-38
2.8725615 2.1587608 -1.2054409 2.3509883e-38
2.8733547 2.1571002 -1.1935482 2.3509884e-38
