# .PCD v0.7 - Point Cloud Data file format
VERSION 0.7
FIELDS x y z rgb
SIZE 4 4 4 4
TYPE F F F F
COUNT 1 1 1 1
WIDTH 135
HEIGHT 1
VIEWPOINT 0 0 0 1 0 0 0
POINTS 135
DATA ascii
2.4882078 2.8969765 -1.1065266 2.3509528e-38
2.5018845 2.8835902 -1.12306 2.350953e-38
2.4710121 2.8876004 -1.1158707 2.3509532e-38
2.3169711 2.9197414 -1.0660559 2.3509535e-38
2.1970272 2.907563 -1.070042 2.3509538e-38
2.093575 2.9172211 -1.0503001 2.3509541e-38
2.0799408 2.9189701 -1.0471513 2.3509544e-38
2.0400658 2.9051092 -1.0597578 2.3509547e-38
2.0263658 2.9039073 -1.0599957 2.3509549e-38
2.0406303 2.8813283 -1.087147 2.3509552e-38
2.0455639 2.8756921 -1.0940382 2.3509554e-38
2.0540121 2.8763263 -1.0940154 2.3509556e-38
2.1119461 2.888953 -1.0843349 2.3509559e-38
2.1401882 2.8875637 -1.0882905 2.3509562e-38
2.1544652 2.8867331 -1.0904381 2.3509565e-38
2.2080529 2.8868692 -1.0947552 2.3509568e-38
2.2434313 2.8830643 -1.1020838 2.350957e-38
2.2524343 2.883765 -1.1020296 2.3509573e-38
2.3622024 2.8902092 -1.1037869 2.3509576e-38
2.3777983 2.890553 -1.1046938 2.3509577e-38
2.3729706 2.8939278 -1.1004105 2.350958e-38
2.3625085 2.9031172 -1.088971 2.3509583e-38
2.3247678 2.9203455 -1.0660121 2.3509586e-38
-0.61896056 2.8277097 -0.92672622 2.3509589e-38
-0.52903199 2.8311291 -0.93030334 2.3509591e-38
-0.45903993 2.7928214 -0.98019141 2.3509594e-38
-0.39167762 2.8167429 -0.95831245 2.3509597e-38
-0.3797521 2.8199019 -0.95567602 2.35096e-38
-0.33521873 2.8127766 -0.96758682 2.3509601e-38
-0.31141642 2.8100247 -0.97273827 2.3509604e-38
-0.28738171 2.7942154 -0.99292153 2.3509607e-38
-0.2859275 2.7887528 -0.99932414 2.350961e-38
-0.31063247 2.780237 -1.0070516 2.3509612e-38
-0.34864229 2.7773967 -1.007144 2.3509615e-38
-0.36120924 2.7749658 -1.008889 2.3509618e-38
-0.40379342 2.7778709 -1.0019934 2.3509621e-38
-0.41595584 2.7775388 -1.0013603 2.3509624e-38
-0.45830879 2.7808127 -0.99405909 2.3509625e-38
-0.51400751 2.7803574 -0.98993206 2.3509628e-38
-0.53979123 2.7705626 -0.99904037 2.3509631e-38
-0.59029526 2.7814455 -0.98231113 2.3509633e-38
-0.63031363 2.779242 -0.98150319 2.3509636e-38
-0.66543883 2.7632413 -0.99696743 2.3509639e-38
-0.74280959 2.760956 -0.99313426 2.3509642e-38
-0.77988726 2.758378 -0.9930023 2.3509645e-38
-0.81714082 2.7535009 -0.99549979 2.3509647e-38
-0.83034807 2.7506881 -0.99763006 2.3509649e-38
-0.84995753 2.7496703 -0.99716341 2.3509652e-38
-0.90226722 2.7365434 -1.0078881 2.3509654e-38
-0.95221001 2.7343156 -1.0062792 2.3509657e-38
-0.96519077 2.7317834 -1.0081073 2.350966e-38
-0.98938042 2.7310567 -1.0069226 2.3509663e-38
-1.0078977 2.7314401 -1.004936 2.3509666e-38
-1.0294051 2.7316771 -1.0028675 2.3509668e-38
-1.0421872 2.729877 -1.0038702 2.3509671e-38
-1.063344 2.7300739 -1.0018772 2.3509673e-38
-1.0859305 2.727592 -1.0028452 2.3509675e-38
-1.1070211 2.7289939 -0.99947178 2.3509678e-38
-1.1326926 2.7255061 -1.0013378 2.3509681e-38
-1.1729574 2.7234097 -1.0003865 2.3509684e-38
-1.2016038 2.7185154 -1.0036224 2.3509687e-38
-1.2252839 2.717227 -1.0031265 2.3509689e-38
-1.2389035 2.7154412 -1.0040419 2.3509692e-38
-1.2519629 2.7131481 -1.0055878 2.3509695e-38
-1.2817125 2.7073178 -1.0098078 2.3509696e-38
-1.3091184 2.7091553 -1.0054069 2.3509699e-38
-1.3339658 2.7054913 -1.0075443 2.3509702e-38
-1.3674972 2.7012987 -1.0095646 2.3509705e-38
-1.4538759 2.6971245 -1.0071523 2.3509708e-38
-1.4638587 2.6917131 -1.0125406 2.350971e-38
-1.4716719 2.6869788 -1.0173312 2.3509713e-38
-1.4843291 2.6864009 -1.0169388 2.3509716e-38
-1.5207373 2.6868057 -1.0134335 2.3509719e-38
-1.5461466 2.684185 -1.0143249 2.350972e-38
-1.5756989 2.6819501 -1.0144268 2.3509723e-38
-1.5938873 2.6797431 -1.0154459 2.3509726e-38
-1.6071172 2.6801882 -1.013829 2.3509729e-38
-1.6267346 2.6832695 -1.0086486 2.3509731e-38
-1.6563227 2.6835434 -1.0058627 2.3509734e-38
-1.6602134 2.692385 -0.99537289 2.3509737e-38
-1.6313095 2.6974964 -0.99190944 2.350974e-38
-1.6018119 2.7035608 -0.98739946 2.3509743e-38
-1.5493791 2.6972489 -0.99903488 2.3509744e-38
-1.4850944 2.6983168 -1.0031749 2.3509747e-38
-1.4756181 2.7019262 -0.99981529 2.350975e-38
-1.4638546 2.7072246 -0.99470615 2.3509752e-38
-1.4585054 2.7102962 -0.9916212 2.3509755e-38
-1.4484003 2.7128048 -0.98958075 2.3509758e-38
-1.3575478 2.7091985 -1.0013131 2.3509761e-38
-1.3194556 2.7295051 -0.98114622 2.3509764e-38
-1.2876519 2.7358756 -0.9764781 2.3509767e-38
-1.2738124 2.7353587 -0.97822785 2.3509768e-38
-1.2589684 2.736464 -0.97819567 2.3509771e-38
-1.2194686 2.7489829 -0.96710044 2.3509774e-38
-1.1967068 2.7520266 -0.96550202 2.3509776e-38
-1.1758115 2.7598979 -0.95819694 2.3509779e-38
-1.1458433 2.7636266 -0.95641202 2.3509782e-38
-1.1203617 2.7673557 -0.95425224 2.3509785e-38
-1.1095811 2.7678223 -0.95461583 2.3509788e-38
-1.09565 2.7689953 -0.95443046 2.350979e-38
-1.0727185 2.7714453 -0.95352793 2.3509792e-38
-1.0440168 2.7827229 -0.94295794 2.3509795e-38
-1.0076233 2.7866807 -0.94144684 2.3509797e-38
-0.9744091 2.7982516 -0.93091613 2.35098e-38
-0.96437204 2.7987351 -0.93119824 2.3509803e-38
-0.92414325 2.8034661 -0.92911857 2.3509806e-38
-0.90499318 2.8095078 -0.92377055 2.3509809e-38
-0.87750578 2.8151329 -0.91959804 2.3509811e-38
-0.83931553 2.8103852 -0.92824578 2.3509814e-38
-0.80122006 2.8146427 -0.92653209 2.3509816e-38
-0.79244018 2.8161802 -0.92549729 2.3509818e-38
-0.75032485 2.8143015 -0.93117356 2.3509821e-38
-0.69891518 2.8066032 -0.9443171 2.3509824e-38
-0.63583267 2.8307085 -0.92186934 2.3509827e-38
1.5160971 2.8848505 -1.0393 2.350983e-38
1.5453804 2.8819525 -1.0450771 2.3509832e-38
1.5910236 2.8852518 -1.0450953 2.3509835e-38
1.6546898 2.8689337 -1.0691721 2.3509838e-38
1.5827796 2.8671978 -1.0651634 2.3509839e-38
1.5659336 2.8635209 -1.0679852 2.3509842e-38
1.513768 2.8639722 -1.0631099 2.3509845e-38
1.465692 2.8590796 -1.0647211 2.3509848e-38
1.4631367 2.8726416 -1.0489156 2.3509851e-38
1.4817131 2.8802028 -1.0417731 2.3509853e-38
1.7884033 2.8922911 -1.0534821 2.3509856e-38
1.7717335 2.8948493 -1.0491496 2.3509859e-38
1.6873848 2.8757055 -1.0641168 2.3509862e-38
1.7673646 2.8869977 -1.057812 2.3509863e-38
1.7799456 2.8842323 -1.0620413 2.3509866e-38
1.8549936 2.8924904 -1.0588136 2.3509869e-38
1.8889034 2.8936064 -1.0603617 2.3509872e-38
1.9031262 2.8969271 -1.0577314 2.3509874e-38
1.8924124 2.9001818 -1.0530947 2.3509877e-38
1.8855259 2.900291 -1.0523943 2.350988e-38
1.8584034 2.9008384 -1.0494996 2.3509883e-38
