# .PCD v0.7 - Point Cloud Data file format
VERSION 0.7
FIELDS x y z rgb
SIZE 4 4 4 4
TYPE F F F F
COUNT 1 1 1 1
WIDTH 70
HEIGHT 1
VIEWPOINT 0 0 0 1 0 0 0
POINTS 70
DATA ascii
1.6073537 1.01515 1.1346109 2.3509528e-38
1.631479 1.0191501 1.132049 2.3509532e-38
1.6549066 1.0232595 1.1295362 2.3509538e-38
1.672213 1.0255815 1.1277595 2.3509542e-38
1.6880515 1.0254197 1.1263884 2.3509548e-38
1.6986177 1.0318645 1.1247431 2.3509554e-38
1.7116897 1.0387146 1.1228328 2.3509558e-38
1.7428901 1.0716695 1.1164218 2.3509563e-38
1.7612252 1.0784478 1.1140581 2.3509569e-38
1.7772235 1.0882518 1.1115619 2.3509573e-38
1.7967367 1.1137934 1.1070025 2.3509579e-38
1.8041751 1.1340674 1.1040896 2.3509584e-38
1.8073703 1.1518764 1.1018236 2.3509589e-38
1.8100721 1.186533 1.0977223 2.3509594e-38
1.8243515 1.2262378 1.0920428 2.35096e-38
1.8140141 1.2549576 1.089747 2.3509604e-38
1.8115563 1.2701206 1.088272 2.350961e-38
1.7986362 1.2963083 1.0864848 2.3509614e-38
1.7962303 1.3280866 1.0831527 2.3509619e-38
1.7922058 1.3426781 1.0818785 2.3509625e-38
1.7860339 1.3555319 1.0809866 2.3509629e-38
1.7761651 1.368046 1.0804567 2.3509635e-38
1.7439396 1.3993243 1.0797954 2.350964e-38
1.7353446 1.4114254 1.0791997 2.3509645e-38
1.7785425 1.5316966 1.0620005 2.350965e-38
1.7977672 1.5335122 1.060112 2.3509656e-38
1.8122177 1.5328157 1.0589224 2.350966e-38
1.8266222 1.5402687 1.0568283 2.3509666e-38
1.8243897 1.6231099 1.0477868 2.3509671e-38
1.8350649 1.6435045 1.0445766 2.3509675e-38
1.8427341 1.6644883 1.0415642 2.3509681e-38
1.80525 1.7282422 1.0377427 2.3509685e-38
1.7968593 1.7735716 1.0334244 2.3509691e-38
1.7952067 1.808897 1.0296302 2.3509696e-38
1.7956719 1.840095 1.0261106 2.3509701e-38
1.8018764 1.8913786 1.0198483 2.3509706e-38
1.7812608 1.8976636 1.0209556 2.3509712e-38
1.7500927 1.833931 1.0307956 2.3509716e-38
1.7379313 1.8246647 1.0328952 2.3509722e-38
1.7131261 1.8119984 1.036483 2.3509727e-38
1.7163807 1.7975717 1.0378063 2.3509731e-38
1.7206508 1.7657394 1.0409813 2.3509737e-38
1.7067752 1.7259352 1.0466362 2.3509743e-38
1.7120008 1.6927264 1.0498809 2.3509747e-38
1.708714 1.6608107 1.053728 2.3509752e-38
1.7007192 1.6415586 1.056576 2.3509757e-38
1.6961929 1.6201456 1.0593603 2.3509762e-38
1.6893992 1.5655683 1.0660417 2.3509768e-38
1.6897011 1.5332985 1.0696135 2.3509772e-38
1.7118894 1.3993007 1.0826088 2.3509778e-38
1.6893762 1.3702338 1.0878243 2.3509783e-38
1.6542685 1.3379445 1.0945035 2.3509788e-38
1.6144793 1.2844908 1.1039535 2.3509793e-38
1.6038716 1.2773864 1.1056759 2.3509799e-38
1.5671836 1.2437861 1.1126399 2.3509803e-38
1.5489316 1.2174226 1.1171803 2.3509809e-38
1.5430198 1.1977472 1.1198927 2.3509814e-38
1.5113564 1.1644585 1.1263814 2.3509818e-38
1.4984293 1.1573722 1.1283053 2.3509824e-38
1.4909306 1.1376144 1.131166 2.3509828e-38
1.4866698 1.1192741 1.1335847 2.3509834e-38
1.4661595 1.056145 1.1424227 2.3509839e-38
1.4599603 1.0506643 1.1435775 2.3509844e-38
1.4663644 1.0443546 1.1437192 2.3509849e-38
1.4796408 1.0427923 1.1427289 2.3509855e-38
1.5194089 1.0361025 1.1399872 2.3509859e-38
1.5324867 1.0334954 1.1391312 2.3509865e-38
1.5457666 1.0313563 1.1382051 2.350987e-38
1.5714722 1.0202495 1.137189 2.3509874e-38
1.5957079 1.0106293 1.1361363 2.350988e-38
