# .PCD v0.7 - Point Cloud Data file format
VERSION 0.7
FIELDS x y z rgb
SIZE 4 4 4 4
TYPE F F F F
COUNT 1 1 1 1
WIDTH 111
HEIGHT 1
VIEWPOINT 0 0 0 1 0 0 0
POINTS 111
DATA ascii
-1.9640847 1.5380485 -1.1763921 2.3509528e-38
-1.9707475 1.5841091 -1.1769193 2.3509531e-38
-1.9906776 1.6232501 -1.1773907 2.3509534e-38
-2.0233922 1.7204957 -1.1785344 2.3509537e-38
-1.9343654 1.7515007 -1.1787384 2.3509541e-38
-1.9140106 1.745579 -1.1786391 2.3509544e-38
-1.8786013 1.7474066 -1.1786025 2.3509547e-38
-1.8557751 1.7405895 -1.1784891 2.3509551e-38
-1.824361 1.7426057 -1.178461 2.3509554e-38
-1.8031955 1.7363092 -1.1783561 2.3509556e-38
-1.7718353 1.7506826 -1.1784667 2.3509559e-38
-1.7218509 1.8124073 -1.1790783 2.3509563e-38
-1.6936698 1.8274919 -1.1792021 2.3509566e-38
-1.7446997 1.9323703 -1.180461 2.3509569e-38
-1.7355003 1.9536495 -1.1806848 2.3509573e-38
-1.7322838 2.0218246 -1.1814445 2.3509576e-38
-1.6909233 2.0592589 -1.1817976 2.3509579e-38
-1.6522471 2.0616205 -1.1817617 2.3509583e-38
-1.5568758 2.0791419 -1.1818042 2.3509586e-38
-1.5292462 2.0916991 -1.1819004 2.3509589e-38
-1.5160075 2.1006286 -1.1819792 2.3509591e-38
-1.5282347 2.1107345 -1.1821123 2.3509596e-38
-1.5705054 2.138447 -1.1824912 2.3509598e-38
-1.5787538 2.1525631 -1.1826631 2.3509601e-38
-1.5925379 2.1758633 -1.1829467 2.3509605e-38
-1.6610925 2.2068279 -1.1834049 2.3509608e-38
-1.6789677 2.2158425 -1.1835349 2.3509611e-38
-1.7253091 2.2397013 -1.1838772 2.3509615e-38
-1.7927026 2.2221251 -1.1837891 2.3509618e-38
-1.8348948 2.230711 -1.1839534 2.3509621e-38
-1.8732699 2.2452257 -1.1841782 2.3509624e-38
-1.9446174 2.2578716 -1.1844354 2.3509628e-38
-1.9534543 2.258342 -1.1844549 2.3509631e-38
-2.0035434 2.2543654 -1.1844913 2.3509633e-38
-2.0393183 2.2525766 -1.1845291 2.3509638e-38
-2.068326 2.2450643 -1.1844915 2.350964e-38
-2.0874126 2.2447574 -1.1845189 2.3509643e-38
-2.1501124 2.2655187 -1.1848531 2.3509647e-38
-2.1818416 2.2554944 -1.1847919 2.350965e-38
-2.2198391 2.2468183 -1.184756 2.3509653e-38
-2.2436321 2.2523389 -1.1848563 2.3509656e-38
-2.2651017 2.2568908 -1.1849421 2.350966e-38
-2.2817116 2.2644007 -1.1850532 2.3509663e-38
-2.3216972 2.2602661 -1.1850715 2.3509666e-38
-2.3872302 2.2593431 -1.185167 2.350967e-38
-2.4019871 2.2665336 -1.1852715 2.3509673e-38
-2.4397788 2.2981007 -1.1856867 2.3509675e-38
-2.4623435 2.2553353 -1.1852434 2.3509678e-38
-2.4675395 2.2508063 -1.1852009 2.3509682e-38
-2.4900043 2.2387905 -1.1851023 2.3509685e-38
-2.4826076 2.2235177 -1.184919 2.3509688e-38
-2.4788451 2.2116754 -1.1847801 2.3509692e-38
-2.4743402 2.1975317 -1.1846142 2.3509695e-38
-2.4734402 2.1670985 -1.1842713 2.3509698e-38
-2.4708836 2.1499801 -1.1840752 2.3509702e-38
-2.4714489 2.132966 -1.1838852 2.3509705e-38
-2.4678071 2.1018176 -1.1835302 2.3509708e-38
-2.4692862 2.0848155 -1.1833417 2.350971e-38
-2.4743288 2.0657153 -1.1831356 2.3509715e-38
-2.483552 2.0293753 -1.1827427 2.3509717e-38
-2.4878066 2.0093644 -1.1825252 2.350972e-38
-2.4789743 1.9422194 -1.1817577 2.3509724e-38
-2.4790709 1.9140017 -1.1814413 2.3509727e-38
-2.4770067 1.8990494 -1.1812702 2.350973e-38
-2.4650025 1.8720559 -1.180948 2.3509734e-38
-2.4530039 1.821465 -1.180361 2.3509737e-38
-2.4532208 1.8125486 -1.1802614 2.350974e-38
-2.4397051 1.7367454 -1.1793894 2.3509743e-38
-2.434473 1.6900982 -1.1788574 2.3509747e-38
-2.4344728 1.6581119 -1.1784986 2.350975e-38
-2.4427805 1.6363273 -1.178268 2.3509752e-38
-2.4614189 1.6081296 -1.1779815 2.3509757e-38
-2.4575386 1.5956931 -1.1778358 2.3509759e-38
-2.4495282 1.5502585 -1.1773131 2.3509762e-38
-2.4495673 1.5021945 -1.1767739 2.3509767e-38
-2.4933739 1.4563659 -1.1763308 2.3509769e-38
-2.4975977 1.4533192 -1.1763033 2.3509772e-38
-2.5020928 1.4412514 -1.1761752 2.3509775e-38
-2.496803 1.4332074 -1.1760767 2.3509779e-38
-2.4853368 1.4000196 -1.1756856 2.3509782e-38
-2.4620793 1.3365395 -1.1749358 2.3509785e-38
-2.4678435 1.3098378 -1.1746457 2.3509789e-38
-2.5278766 1.262006 -1.1742061 2.3509792e-38
-2.4955742 1.2294724 -1.1737889 2.3509795e-38
-2.4417665 1.1913747 -1.1732746 2.3509797e-38
-2.4327531 1.1464058 -1.1727556 2.3509802e-38
-2.4271281 1.1328858 -1.172595 2.3509804e-38
-2.4223552 1.1024269 -1.1722457 2.3509807e-38
-2.4283905 1.0662545 -1.1718495 2.3509811e-38
-2.4277802 1.0335156 -1.171481 2.3509814e-38
-2.4211674 0.98743194 -1.1709535 2.3509817e-38
-2.4141238 0.97457069 -1.1707979 2.3509821e-38
-2.4072261 0.96164191 -1.1706418 2.3509824e-38
-2.3867309 0.95578557 -1.170543 2.3509827e-38
-2.3647656 0.94938618 -1.1704358 2.350983e-38
-2.3521521 0.95722747 -1.1705035 2.3509834e-38
-2.3322785 0.9840439 -1.1707721 2.3509837e-38
-2.3083286 1.0120261 -1.1710471 2.3509839e-38
-2.3025298 1.0324589 -1.171267 2.3509844e-38
-2.2515974 1.0736554 -1.1716468 2.3509846e-38
-2.2240689 1.1213338 -1.1721374 2.3509849e-38
-2.1930082 1.1568501 -1.1724856 2.3509853e-38
-2.1619074 1.1722444 -1.172608 2.3509856e-38
-2.1548176 1.1915714 -1.1728134 2.3509859e-38
-2.1269324 1.2390594 -1.173301 2.3509862e-38
-2.1232829 1.2712836 -1.1736565 2.3509866e-38
-2.0689142 1.331874 -1.1742487 2.3509869e-38
-2.0618474 1.3388174 -1.174315 2.3509872e-38
-2.0427639 1.3817081 -1.1747652 2.3509876e-38
-2.0140109 1.4292022 -1.1752516 2.3509879e-38
-2.0207362 1.4426825 -1.1754136 2.3509881e-38
