# .PCD v0.7 - Point Cloud Data file format
VERSION 0.7
FIELDS x y z rgb
SIZE 4 4 4 4
TYPE F F F F
COUNT 1 1 1 1
WIDTH 78
HEIGHT 1
VIEWPOINT 0 0 0 1 0 0 0
POINTS 78
DATA ascii
0.93737864 2.2312829 -0.080338567 2.3509528e-38
0.97819126 2.2227643 -0.15185599 2.3509532e-38
0.99388093 2.2220342 -0.1436079 2.3509537e-38
1.0371728 2.2185466 -0.14154239 2.3509541e-38
1.0538667 2.2177832 -0.13257754 2.3509547e-38
1.0734937 2.2167625 -0.12376344 2.3509551e-38
1.0928288 2.2158012 -0.11446607 2.3509555e-38
1.12466 2.2135937 -0.10793351 2.3509559e-38
1.1450012 2.212508 -0.099195585 2.3509565e-38
1.1552019 2.2123828 -0.088922948 2.3509569e-38
1.1589171 2.213033 -0.075410575 2.3509573e-38
1.1637299 2.2136095 -0.061632454 2.3509577e-38
1.1619805 2.2147694 -0.047407448 2.3509583e-38
1.1633205 2.2157509 -0.032042608 2.3509587e-38
1.1645868 2.2167506 -0.016506806 2.3509591e-38
1.168794 2.2184963 0.012974381 2.3509597e-38
1.16302 2.2215352 0.048847213 2.3509601e-38
1.1679696 2.2241526 0.091446772 2.3509605e-38
1.1657658 2.2265964 0.1231717 2.350961e-38
1.126662 2.2294152 0.11664949 2.3509615e-38
1.0497262 2.2440505 0.23148192 2.3509619e-38
1.0544205 2.2446289 0.24514382 2.3509624e-38
1.0793389 2.2451727 0.28216726 2.3509628e-38
1.0844984 2.2456119 0.29441893 2.3509633e-38
1.0874014 2.2464311 0.3093493 2.3509638e-38
1.0904419 2.2471721 0.32334596 2.3509642e-38
1.0936842 2.2478948 0.33731776 2.3509647e-38
1.0965862 2.2486489 0.35133153 2.3509652e-38
1.1203094 2.2492564 0.38784003 2.3509656e-38
1.1394736 2.2484922 0.3997094 2.350966e-38
1.1470488 2.2488542 0.41372299 2.3509666e-38
1.1619625 2.2492864 0.43738484 2.350967e-38
1.1675069 2.2495432 0.44752634 2.3509674e-38
1.1737059 2.2510448 0.47592831 2.3509678e-38
1.176849 2.2517681 0.48979378 2.3509684e-38
1.1796906 2.2535338 0.51794899 2.3509688e-38
1.1807218 2.2556927 0.54948974 2.3509692e-38
1.1793866 2.2567835 0.56323373 2.3509696e-38
1.1829888 2.2590106 0.59875721 2.3509702e-38
1.1807191 2.2600996 0.61138266 2.3509706e-38
1.1852152 2.2629399 0.65657681 2.350971e-38
1.1853892 2.264055 0.67244512 2.3509716e-38
1.1817715 2.2645133 0.67461532 2.350972e-38
1.1747417 2.2654076 0.67888379 2.3509724e-38
1.1619003 2.2671254 0.68786913 2.3509729e-38
1.1518909 2.2682078 0.69126898 2.3509734e-38
1.136874 2.269757 0.69532019 2.3509738e-38
1.121817 2.2701132 0.68256658 2.3509743e-38
1.0812097 2.2722783 0.66508681 2.3509747e-38
1.0503571 2.273201 0.64166194 2.3509752e-38
0.99118304 2.2773347 0.62994421 2.3509757e-38
0.96933174 2.2775462 0.60713834 2.3509761e-38
0.96668708 2.276768 0.59309274 2.3509767e-38
0.9623214 2.2761495 0.57925946 2.3509771e-38
0.95828444 2.2755008 0.56538576 2.3509775e-38
0.95456469 2.2748225 0.55147284 2.3509779e-38
0.94852173 2.2743595 0.53784657 2.3509785e-38
0.97108006 2.2695286 0.49659449 2.3509789e-38
0.9765805 2.2667413 0.46393037 2.3509793e-38
0.98779488 2.2632139 0.42761442 2.3509797e-38
0.96994132 2.2590942 0.34869212 2.3509803e-38
0.94578242 2.258297 0.30900672 2.3509807e-38
0.93998903 2.2578096 0.29532737 2.3509811e-38
0.93523383 2.2573123 0.28273302 2.3509816e-38
0.93491948 2.2562799 0.267865 2.3509821e-38
0.93197292 2.2555299 0.25385687 2.3509825e-38
0.92962223 2.2518356 0.19919406 2.350983e-38
0.93103838 2.2510524 0.18986179 2.3509835e-38
0.93330795 2.2501802 0.18028958 2.3509839e-38
0.91927284 2.2463973 0.11060168 2.3509844e-38
0.91434592 2.2447555 0.081732601 2.3509848e-38
0.9093833 2.2441924 0.067973033 2.3509853e-38
0.90624762 2.2434602 0.053988129 2.3509858e-38
0.90330189 2.2427101 0.039979756 2.3509862e-38
0.90080482 2.2420418 0.027649611 2.3509866e-38
0.90367323 2.2392554 -0.0081030577 2.3509872e-38
0.9229365 2.2349675 -0.045615941 2.3509876e-38
0.92836434 2.2333229 -0.062310368 2.350988e-38
