# .PCD v0.7 - Point Cloud Data file format
VERSION 0.7
FIELDS x y z rgb
SIZE 4 4 4 4
TYPE F F F F
COUNT 1 1 1 1
WIDTH 227
HEIGHT 1
VIEWPOINT 0 0 0 1 0 0 0
POINTS 227
DATA ascii
-1.5362353 -4.9157391 0.99249667 2.3509528e-38
-1.5407484 -4.9162788 0.99439877 2.350953e-38
-1.5560429 -4.9151249 0.93765098 2.3509531e-38
-1.5614409 -4.9153442 0.93089801 2.3509532e-38
-1.5662673 -4.915185 0.91733021 2.3509534e-38
-1.5697943 -4.9149013 0.90389538 2.3509535e-38
-1.5714443 -4.9146466 0.89500457 2.3509537e-38
-1.5928209 -4.9133816 0.82306355 2.3509538e-38
-1.6288171 -4.9148178 0.77748257 2.3509539e-38
-1.6290691 -4.9140654 0.76101196 2.3509542e-38
-1.6305242 -4.9129539 0.73439753 2.3509544e-38
-1.6713252 -4.9131455 0.65229279 2.3509545e-38
-1.698642 -4.9147801 0.62923175 2.3509547e-38
-1.7115328 -4.9147692 0.60176283 2.3509548e-38
-1.7158556 -4.9145613 0.58824635 2.3509549e-38
-1.7188785 -4.9142308 0.5748632 2.3509551e-38
-1.7248032 -4.9140682 0.55889899 2.3509552e-38
-1.7316581 -4.9136472 0.53552544 2.3509555e-38
-1.7413592 -4.9138908 0.52018505 2.3509556e-38
-1.7707216 -4.9142098 0.46496588 2.3509558e-38
-1.7875744 -4.9139452 0.4237549 2.3509559e-38
-1.7995393 -4.9138584 0.39664698 2.3509561e-38
-1.801888 -4.9136143 0.38650793 2.3509562e-38
-1.8060381 -4.9120111 0.34379709 2.3509563e-38
-1.8457583 -4.9129319 0.27943134 2.3509565e-38
-1.8511167 -4.9131961 0.27370298 2.3509568e-38
-1.8519776 -4.9127398 0.2622107 2.3509569e-38
-1.858866 -4.9114623 0.22061461 2.350957e-38
-1.8640087 -4.9113331 0.20701438 2.3509572e-38
-1.8711494 -4.9114342 0.19408384 2.3509573e-38
-1.8868762 -4.9122343 0.17782655 2.3509575e-38
-1.8950446 -4.9117699 0.15073085 2.3509576e-38
-1.9006381 -4.9116898 0.13721916 2.3509577e-38
-1.9226782 -4.9126749 0.1115405 2.350958e-38
-1.9262077 -4.9121923 0.093881786 2.3509582e-38
-1.9238995 -4.9096069 0.043998092 2.3509583e-38
-1.9289465 -4.9090214 0.020922378 2.3509584e-38
-1.9607949 -4.9100337 -0.024892092 2.3509586e-38
-1.9698319 -4.9102616 -0.039146736 2.3509587e-38
-1.9948766 -4.9117041 -0.061475858 2.3509589e-38
-1.9864693 -4.9106011 -0.067096099 2.350959e-38
-1.9499321 -4.9068151 -0.070122391 2.3509593e-38
-1.9292698 -4.9044886 -0.075762168 2.3509594e-38
-1.9160985 -4.9032569 -0.074022457 2.3509596e-38
-1.9021071 -4.9020114 -0.070858493 2.3509597e-38
-1.8952503 -4.9014096 -0.069130838 2.3509598e-38
-1.8284469 -4.8936949 -0.091462031 2.35096e-38
-1.8182889 -4.88902 -0.16901648 2.3509601e-38
-1.8836044 -4.8921471 -0.24070679 2.3509603e-38
-1.9170045 -4.8950629 -0.24947807 2.3509605e-38
-1.9231589 -4.8955874 -0.25137961 2.3509607e-38
-1.9843324 -4.9011393 -0.2629596 2.3509608e-38
-2.0202982 -4.9051957 -0.25299591 2.350961e-38
-2.0537417 -4.9093342 -0.23598278 2.3509611e-38
-2.0611193 -4.9102874 -0.23136672 2.3509612e-38
-2.0722721 -4.9106622 -0.24698114 2.3509614e-38
-2.0838542 -4.9109826 -0.26465338 2.3509615e-38
-2.0851777 -4.9107103 -0.27320868 2.3509618e-38
-2.0888309 -4.9097571 -0.30110818 2.3509619e-38
-2.0948534 -4.909102 -0.32771522 2.3509621e-38
-2.1035345 -4.9082885 -0.36327636 2.3509622e-38
-2.112443 -4.9077415 -0.39366379 2.3509624e-38
-2.1537795 -4.910172 -0.42947507 2.3509625e-38
-2.1661754 -4.9097109 -0.46541876 2.3509626e-38
-2.1711297 -4.9089694 -0.49158907 2.3509628e-38
-2.1726253 -4.9085126 -0.50441492 2.3509631e-38
-2.1773341 -4.9076748 -0.53211957 2.3509632e-38
-2.1839988 -4.9077196 -0.54522622 2.3509633e-38
-2.1987553 -4.9078565 -0.57349086 2.3509635e-38
-2.2111435 -4.9063525 -0.63150978 2.3509636e-38
-2.2117991 -4.9048219 -0.66531038 2.3509638e-38
-2.2139308 -4.9043593 -0.67960566 2.3509639e-38
-2.2018845 -4.9028273 -0.68662602 2.350964e-38
-2.1832206 -4.9007549 -0.69109458 2.3509643e-38
-2.1642122 -4.8990054 -0.688012 2.3509645e-38
-2.0716953 -4.8871083 -0.74462152 2.3509646e-38
-2.0710018 -4.8861284 -0.76391113 2.3509647e-38
-2.0736802 -4.8857207 -0.77819872 2.3509649e-38
-2.0712636 -4.8840041 -0.80946207 2.350965e-38
-2.0504167 -4.8801594 -0.84689152 2.3509652e-38
-2.0228729 -4.8746505 -0.90536481 2.3509653e-38
-2.0219131 -4.8738546 -0.92020965 2.3509654e-38
-2.0191574 -4.8727989 -0.936755 2.3509657e-38
-2.022789 -4.8715954 -0.96992403 2.3509659e-38
-2.0260315 -4.8713007 -0.98300713 2.350966e-38
-2.020484 -4.8691039 -1.0178158 2.3509661e-38
-2.042655 -4.8681979 -1.0838253 2.3509663e-38
-2.0425348 -4.8674431 -1.0995629 2.3509664e-38
-2.035954 -4.866641 -1.1026424 2.3509666e-38
-2.0317781 -4.8662448 -1.1022147 2.3509667e-38
-1.998596 -4.8631682 -1.097331 2.350967e-38
-1.975702 -4.8606939 -1.1013718 2.3509671e-38
-1.9355396 -4.8561444 -1.1129054 2.3509673e-38
-1.8992202 -4.8530474 -1.1018236 2.3509674e-38
-1.8448484 -4.8474989 -1.1045237 2.3509675e-38
-1.826913 -4.8454785 -1.109428 2.3509677e-38
-1.7824919 -4.8412271 -1.1056759 2.3509678e-38
-1.7488807 -4.8380437 -1.1021153 2.350968e-38
-1.7267257 -4.8360806 -1.0969094 2.3509682e-38
-1.7119482 -4.8349805 -1.0890114 2.3509684e-38
-1.6845999 -4.8326097 -1.0814711 2.3509685e-38
-1.6580977 -4.8301215 -1.078209 2.3509687e-38
-1.6445026 -4.8289933 -1.0733941 2.3509688e-38
-1.5928127 -4.8234921 -1.0807412 2.3509689e-38
-1.5574399 -4.8200808 -1.0783008 2.3509691e-38
-1.5086598 -4.8147998 -1.0871269 2.3509692e-38
-1.4728024 -4.8116813 -1.0774784 2.3509695e-38
-1.4354001 -4.8082623 -1.0709007 2.3509696e-38
-1.4082071 -4.8051968 -1.0784171 2.3509698e-38
-1.3990422 -4.8044181 -1.0755589 2.3509699e-38
-1.3595636 -4.8005853 -1.0733551 2.3509701e-38
-1.3354157 -4.7982764 -1.0712562 2.3509702e-38
-1.2938985 -4.794003 -1.0741022 2.3509703e-38
-1.2912492 -4.793787 -1.0730821 2.3509705e-38
-1.2466201 -4.7900476 -1.058041 2.3509708e-38
-1.2241879 -4.7878981 -1.0561885 2.3509709e-38
-1.2097137 -4.7868986 -1.0468054 2.350971e-38
-1.1393619 -4.7799516 -1.0453733 2.3509712e-38
-1.1153125 -4.777658 -1.0431784 2.3509713e-38
-1.0934893 -4.775342 -1.0461282 2.3509715e-38
-1.076 -4.7737632 -1.0426404 2.3509716e-38
-1.0844294 -4.775568 -1.0222169 2.3509717e-38
-1.0993469 -4.7818022 -0.92168766 2.350972e-38
-1.0923464 -4.7814794 -0.91374427 2.3509722e-38
-1.0853958 -4.7814922 -0.89876962 2.3509723e-38
-1.0660539 -4.7806582 -0.8756032 2.3509724e-38
-1.0384612 -4.7794828 -0.8422417 2.3509726e-38
-1.0297147 -4.7793584 -0.82639205 2.3509727e-38
-1.0616508 -4.7846832 -0.7810539 2.3509729e-38
-1.06774 -4.7860632 -0.7646963 2.350973e-38
-1.085642 -4.7896414 -0.72668988 2.3509733e-38
-1.0908521 -4.790988 -0.70918596 2.3509734e-38
-1.0940727 -4.7921424 -0.69154888 2.3509736e-38
-1.0901235 -4.7955065 -0.61194336 2.3509737e-38
-1.093513 -4.7963114 -0.60205102 2.3509738e-38
-1.1171753 -4.7985425 -0.60477948 2.350974e-38
-1.2030563 -4.8071733 -0.60334241 2.3509741e-38
-1.204617 -4.8073311 -0.60329151 2.3509743e-38
-1.2252063 -4.8095155 -0.60049367 2.3509745e-38
-1.2356789 -4.8103485 -0.60498846 2.3509747e-38
-1.2832965 -4.8141117 -0.62581444 2.3509748e-38
-1.2937303 -4.8149571 -0.6299389 2.350975e-38
-1.3521072 -4.8198156 -0.65031302 2.3509751e-38
-1.3801683 -4.8227711 -0.64697611 2.3509752e-38
-1.4002275 -4.8245077 -0.65255582 2.3509754e-38
-1.5129251 -4.8372583 -0.62048298 2.3509755e-38
-1.516667 -4.8390331 -0.59080452 2.3509758e-38
-1.5194706 -4.8424459 -0.52443963 2.3509759e-38
-1.5163146 -4.8428149 -0.50994527 2.3509761e-38
-1.504673 -4.844645 -0.44661674 2.3509762e-38
-1.4419966 -4.8422527 -0.36492914 2.3509764e-38
-1.3652865 -4.8349729 -0.3571122 2.3509765e-38
-1.3372356 -4.8325682 -0.34882534 2.3509767e-38
-1.3216742 -4.831305 -0.34271398 2.3509768e-38
-1.2872347 -4.8278813 -0.34250385 2.3509769e-38
-1.2501103 -4.8238606 -0.34925961 2.3509772e-38
-1.2398214 -4.8229742 -0.34631264 2.3509774e-38
-1.2160996 -4.8209062 -0.34002304 2.3509775e-38
-1.2044265 -4.8201447 -0.33149606 2.3509776e-38
-1.1962405 -4.8198209 -0.32105699 2.3509778e-38
-1.1932367 -4.8197308 -0.31663305 2.3509779e-38
-1.1952038 -4.8211899 -0.28987518 2.3509781e-38
-1.1739711 -4.8211226 -0.24645929 2.3509782e-38
-1.176963 -4.8222799 -0.22828165 2.3509785e-38
-1.1480827 -4.8223233 -0.16636336 2.3509786e-38
-1.1406771 -4.8231673 -0.13284956 2.3509788e-38
-1.1435214 -4.826355 -0.071335807 2.3509789e-38
-1.1410346 -4.8266616 -0.059597 2.350979e-38
-1.1455326 -4.827786 -0.045289978 2.3509792e-38
-1.1474867 -4.829052 -0.022601619 2.3509793e-38
-1.1336906 -4.8297782 0.021910876 2.3509795e-38
-1.1290408 -4.8297553 0.031253219 2.3509797e-38
-1.1240116 -4.8296804 0.040278494 2.3509799e-38
-1.1298529 -4.8313446 0.063189685 2.35098e-38
-1.1379876 -4.8330588 0.082333356 2.3509802e-38
-1.1552436 -4.8350391 0.087834865 2.3509803e-38
-1.1584172 -4.8350115 0.080539703 2.3509804e-38
-1.162645 -4.834549 0.0618186 2.3509806e-38
-1.1698825 -4.8345819 0.047242135 2.3509807e-38
-1.2455511 -4.8393273 -0.012053505 2.350981e-38
-1.254037 -4.8401322 -0.012922227 2.3509811e-38
-1.2894553 -4.8438272 -0.0094518363 2.3509813e-38
-1.3240424 -4.8457999 -0.040703058 2.3509814e-38
-1.4140786 -4.8532147 -0.073786885 2.3509816e-38
-1.5059427 -4.8638577 -0.042377397 2.3509817e-38
-1.5129759 -4.8654404 -0.023705676 2.3509818e-38
-1.5242054 -4.869071 0.029482856 2.350982e-38
-1.5262461 -4.8701081 0.047140598 2.3509823e-38
-1.5197301 -4.8717265 0.095182478 2.3509824e-38
-1.5199038 -4.8723936 0.10893652 2.3509825e-38
-1.5173365 -4.8728256 0.12351725 2.3509827e-38
-1.5165907 -4.8741961 0.15411946 2.3509828e-38
-1.5129579 -4.8750677 0.18024299 2.350983e-38
-1.5322233 -4.8785877 0.21410581 2.3509831e-38
-1.5371727 -4.8814058 0.26334992 2.3509832e-38
-1.5329964 -4.8828435 0.3026073 2.3509835e-38
-1.5293583 -4.882998 0.3135578 2.3509837e-38
-1.5303912 -4.8834162 0.32024032 2.3509838e-38
-1.5249131 -4.8848825 0.36286932 2.3509839e-38
-1.5244403 -4.8849235 0.3647362 2.3509841e-38
-1.5185944 -4.8864441 0.40928096 2.3509842e-38
-1.5265293 -4.8881702 0.4290953 2.3509844e-38
-1.534106 -4.890799 0.46876323 2.3509845e-38
-1.5436256 -4.8934956 0.50577337 2.3509848e-38
-1.5417943 -4.8943324 0.527363 2.3509849e-38
-1.5438529 -4.8952022 0.54145384 2.3509851e-38
-1.5443985 -4.8960381 0.55798936 2.3509852e-38
-1.5417895 -4.8970037 0.58395183 2.3509853e-38
-1.5394039 -4.8973298 0.59589022 2.3509855e-38
-1.5379087 -4.8985343 0.62457693 2.3509856e-38
-1.5417101 -4.8995228 0.637474 2.3509858e-38
-1.5430715 -4.9000053 0.64481694 2.350986e-38
-1.5379581 -4.9016848 0.69118828 2.3509862e-38
-1.5445216 -4.9034872 0.71550661 2.3509863e-38
-1.544683 -4.9046731 0.74027187 2.3509865e-38
-1.5580781 -4.9072943 0.76750964 2.3509866e-38
-1.5555186 -4.909236 0.81404096 2.3509867e-38
-1.5363224 -4.9086008 0.84112066 2.3509869e-38
-1.5332794 -4.9111457 0.9014377 2.350987e-38
-1.5195804 -4.9110847 0.92907625 2.3509873e-38
-1.5281762 -4.9136758 0.96581393 2.3509874e-38
-1.529537 -4.9143887 0.97803658 2.3509876e-38
-1.5297067 -4.9145117 0.98029172 2.3509877e-38
-1.5326864 -4.9150944 0.98633987 2.3509879e-38
-1.2912115 -4.8082957 -0.7657187 2.350988e-38
-1.1673945 -4.7967944 -0.7478404 2.3509881e-38
-1.2233909 -4.7968597 -0.86469173 2.3509883e-38
