# .PCD v0.7 - Point Cloud Data file format
VERSION 0.7
FIELDS x y z rgb
SIZE 4 4 4 4
TYPE F F F F
COUNT 1 1 1 1
WIDTH 127
HEIGHT 1
VIEWPOINT 0 0 0 1 0 0 0
POINTS 127
DATA ascii
2.5151381 1.2054284 -1.1379275 2.3509528e-38
2.4340394 1.1301945 -1.137845 2.3509531e-38
2.3788707 1.1675855 -1.1385086 2.3509534e-38
2.3475394 1.1678122 -1.1387147 2.3509537e-38
2.3171215 1.18503 -1.1390529 2.3509539e-38
2.2347355 1.2743102 -1.1403154 2.3509542e-38
2.1530983 1.2968484 -1.1410308 2.3509545e-38
2.1451619 1.3111564 -1.1411988 2.3509548e-38
2.1388967 1.3896085 -1.1418771 2.3509551e-38
2.1325214 1.4331075 -1.142272 2.3509554e-38
2.0965714 1.4667429 -1.1427796 2.3509556e-38
2.0291615 1.4647113 -1.1432027 2.3509559e-38
2.0698879 1.5188819 -1.1433774 2.3509562e-38
2.0723264 1.5549423 -1.1436543 2.3509565e-38
2.0728192 1.6495961 -1.1444201 2.3509568e-38
2.0642633 1.6980497 -1.1448696 2.350957e-38
2.0695372 1.7829026 -1.1455245 2.3509573e-38
2.0623667 1.7957041 -1.1456753 2.3509576e-38
2.0557225 1.8124868 -1.1458548 2.3509579e-38
2.0523968 1.8563704 -1.1462332 2.3509582e-38
2.045831 1.8694544 -1.1463823 2.3509584e-38
2.0463004 1.9357196 -1.1469177 2.3509587e-38
1.9562085 2.0056739 -1.1480733 2.350959e-38
1.9077488 1.9628561 -1.1480415 2.3509593e-38
1.9010067 1.9758577 -1.148191 2.3509596e-38
1.8939437 1.9887093 -1.1483415 2.3509598e-38
1.887526 2.0018623 -1.1484901 2.3509601e-38
1.8668586 2.0406604 -1.1489402 2.3509604e-38
1.7563576 2.0823424 -1.1499993 2.3509607e-38
1.7422076 2.0751128 -1.1500329 2.350961e-38
1.6798426 2.0591462 -1.1503097 2.3509612e-38
1.5903705 2.1282444 -1.1514546 2.3509615e-38
1.5628211 2.146956 -1.1517861 2.3509618e-38
1.4784425 2.172471 -1.1525435 2.3509621e-38
1.4381673 2.1486101 -1.1526123 2.3509624e-38
1.4176449 2.1870406 -1.1530584 2.3509626e-38
1.4386916 2.2145734 -1.1531448 2.3509629e-38
1.459604 2.2419353 -1.1532309 2.3509632e-38
1.4722482 2.2485635 -1.1532022 2.3509635e-38
1.508443 2.2837846 -1.1532524 2.3509638e-38
1.5155712 2.3046751 -1.1533756 2.350964e-38
1.4467617 2.4003301 -1.1546013 2.3509643e-38
1.4058416 2.4127135 -1.1549687 2.3509646e-38
1.360005 2.4021757 -1.155182 2.3509649e-38
1.3487388 2.4155393 -1.155364 2.3509652e-38
1.2878509 2.4333861 -1.1559061 2.3509654e-38
1.2245435 2.4173777 -1.156189 2.3509657e-38
1.146615 2.4264646 -1.1567707 2.350966e-38
1.1346149 2.4189229 -1.1567878 2.3509663e-38
1.1276946 2.4328277 -1.1569459 2.3509666e-38
1.1209743 2.4468591 -1.1571037 2.3509668e-38
1.1264435 2.4651515 -1.1572165 2.3509671e-38
1.1579614 2.465446 -1.1570134 2.3509674e-38
1.1878567 2.4479494 -1.1566764 2.3509677e-38
1.2493074 2.4464209 -1.1562632 2.350968e-38
1.2942587 2.4543598 -1.1560347 2.3509682e-38
1.3033676 2.4580126 -1.156005 2.3509685e-38
1.3410125 2.4591467 -1.1557688 2.3509688e-38
1.3805894 2.4596031 -1.1555142 2.3509691e-38
1.4331561 2.4600992 -1.1551757 2.3509694e-38
1.50286 2.4951446 -1.1550061 2.3509696e-38
1.5555161 2.4920273 -1.1546372 2.3509699e-38
1.5638338 2.4941866 -1.1546006 2.3509702e-38
1.5978916 2.4955728 -1.1543897 2.3509705e-38
1.6617147 2.5614021 -1.1545085 2.3509708e-38
1.7486593 2.5241485 -1.1536387 2.350971e-38
1.8073367 2.5178263 -1.1532049 2.3509713e-38
1.8970063 2.5515099 -1.1528939 2.3509716e-38
1.9594239 2.5314901 -1.1523242 2.3509719e-38
1.9822656 2.5296741 -1.1521606 2.3509722e-38
2.0005424 2.5234373 -1.1519908 2.3509724e-38
2.0406935 2.5164151 -1.1516719 2.3509727e-38
2.1062272 2.5615923 -1.1516117 2.350973e-38
2.1110082 2.5521586 -1.1515039 2.3509733e-38
2.1642358 2.5084989 -1.1508023 2.3509736e-38
2.1843574 2.5025532 -1.1506226 2.3509738e-38
2.239536 2.4757152 -1.1500447 2.3509741e-38
2.2532313 2.4723468 -1.1499281 2.3509744e-38
2.3460488 2.3677521 -1.148473 2.3509747e-38
2.426039 2.3475864 -1.1477879 2.350975e-38
2.4326708 2.3498366 -1.1477628 2.3509752e-38
2.4640508 2.3444753 -1.1475148 2.3509755e-38
2.4978907 2.3523307 -1.1473578 2.3509758e-38
2.5213182 2.3642359 -1.1473018 2.3509761e-38
2.5568352 2.3657453 -1.1470824 2.3509764e-38
2.5960858 2.3617513 -1.1467942 2.3509767e-38
2.6172628 2.3652937 -1.1466846 2.3509769e-38
2.650094 2.3695064 -1.146505 2.3509772e-38
2.6822288 2.3845043 -1.1464173 2.3509775e-38
2.715461 2.3737197 -1.1461132 2.3509778e-38
2.7349381 2.3750143 -1.1459966 2.3509781e-38
2.7534912 2.3675034 -1.1458145 2.3509783e-38
2.7745633 2.3650205 -1.1456569 2.3509786e-38
2.7964823 2.3591225 -1.1454661 2.3509789e-38
2.7981315 2.3094182 -1.1450516 2.3509792e-38
2.8033471 2.2965477 -1.1449131 2.3509795e-38
2.817198 2.2707489 -1.1446129 2.3509797e-38
2.8244681 2.2580369 -1.1444622 2.35098e-38
2.8502147 2.205375 -1.1438667 2.3509803e-38
2.8915548 2.1402161 -1.1430676 2.3509806e-38
2.8951149 2.1101813 -1.1428006 2.3509809e-38
2.8818231 2.0731001 -1.142586 2.3509811e-38
2.8823011 2.0583048 -1.1424627 2.3509814e-38
2.8764873 2.0382199 -1.1423373 2.3509817e-38
2.8765817 2.0029914 -1.1420504 2.350982e-38
2.870647 1.9826748 -1.1419241 2.3509823e-38
2.8726122 1.9527378 -1.1416681 2.3509825e-38
2.8676882 1.8866445 -1.1411632 2.3509828e-38
2.8759444 1.8713061 -1.1409849 2.3509831e-38
2.8824561 1.842292 -1.1407067 2.3509834e-38
2.8737209 1.8050593 -1.1404611 2.3509837e-38
2.876102 1.7729886 -1.140185 2.3509839e-38
2.8806517 1.7606492 -1.1400549 2.3509842e-38
2.866333 1.702142 -1.139673 2.3509845e-38
2.8343577 1.6852235 -1.1397442 2.3509848e-38
2.8149636 1.6574315 -1.1396447 2.3509851e-38
2.8260214 1.5628781 -1.1388046 2.3509853e-38
2.8341148 1.5530732 -1.1386721 2.3509856e-38
2.8254797 1.4663378 -1.1380237 2.3509859e-38
2.8131716 1.3936203 -1.1375132 2.3509862e-38
2.7972286 1.3853298 -1.1375496 2.3509865e-38
2.7698898 1.3716651 -1.137617 2.3509867e-38
2.7347419 1.3363285 -1.1375592 2.350987e-38
2.7208657 1.3290854 -1.1375908 2.3509873e-38
2.6286047 1.2816192 -1.1378064 2.3509876e-38
2.6163039 1.2659733 -1.1377597 2.3509879e-38
2.5817053 1.1740842 -1.1372389 2.3509881e-38
