# .PCD v0.7 - Point Cloud Data file format
VERSION 0.7
FIELDS x y z rgb
SIZE 4 4 4 4
TYPE F F F F
COUNT 1 1 1 1
WIDTH 251
HEIGHT 1
VIEWPOINT 0 0 0 1 0 0 0
POINTS 251
DATA ascii
-1.3760254 -2.3609767 -0.55641013 2.3509528e-38
-1.3742942 -2.375073 -0.5734148 2.350953e-38
-1.3718224 -2.4071164 -0.57605338 2.3509531e-38
-1.3661163 -2.4692621 -0.60363102 2.3509532e-38
-1.364681 -2.4851477 -0.61010796 2.3509534e-38
-1.3620036 -2.5187867 -0.61491406 2.3509535e-38
-1.3603243 -2.5385425 -0.62036645 2.3509537e-38
-1.3593547 -2.5493445 -0.62461179 2.3509538e-38
-1.3570981 -2.5799751 -0.62452292 2.3509539e-38
-1.3542743 -2.62009 -0.62117195 2.3509541e-38
-1.3532028 -2.6327987 -0.62446976 2.3509542e-38
-1.3522995 -2.6428635 -0.62841856 2.3509544e-38
-1.3519807 -2.6466038 -0.62947327 2.3509545e-38
-1.3509663 -2.6601062 -0.62991893 2.3509547e-38
-1.3485419 -2.6905184 -0.6343593 2.3509548e-38
-1.3473413 -2.7069221 -0.63411742 2.3509549e-38
-1.3457999 -2.7269087 -0.63575536 2.3509551e-38
-1.3439395 -2.7482944 -0.6427027 2.3509552e-38
-1.3415383 -2.7774279 -0.64889205 2.3509554e-38
-1.3404046 -2.7945507 -0.64570504 2.3509555e-38
-1.3390919 -2.8201587 -0.63151526 2.3509556e-38
-1.3436888 -2.7903125 -0.57258701 2.3509558e-38
-1.3442817 -2.7930317 -0.55306011 2.3509559e-38
-1.3468701 -2.7897379 -0.49534804 2.3509561e-38
-1.3497885 -2.7770884 -0.44650391 2.3509562e-38
-1.3504127 -2.7927241 -0.4027617 2.3509563e-38
-1.3509817 -2.7993984 -0.37663969 2.3509565e-38
-1.3531772 -2.7912102 -0.33748254 2.3509566e-38
-1.3548461 -2.8052094 -0.27099726 2.3509568e-38
-1.35684 -2.806756 -0.21912992 2.3509569e-38
-1.3575264 -2.8070376 -0.20173137 2.350957e-38
-1.3578277 -2.8090272 -0.19070283 2.3509572e-38
-1.3582578 -2.8123662 -0.1740595 2.3509573e-38
-1.3588467 -2.812165 -0.15993398 2.3509575e-38
-1.3590806 -2.8123477 -0.15384957 2.3509576e-38
-1.3597833 -2.8102365 -0.14038584 2.3509577e-38
-1.3608439 -2.8065307 -0.1210188 2.3509579e-38
-1.362874 -2.8040736 -0.0755281 2.350958e-38
-1.3630627 -2.8116205 -0.057179295 2.3509582e-38
-1.363415 -2.8149836 -0.042406514 2.3509583e-38
-1.364337 -2.8277271 0.0034144223 2.3509584e-38
-1.3646245 -2.8309083 0.01626911 2.3509586e-38
-1.3665175 -2.8372734 0.074402675 2.3509587e-38
-1.3680135 -2.8422098 0.12017404 2.3509589e-38
-1.3694652 -2.8687496 0.20408204 2.350959e-38
-1.3719949 -2.8784134 0.28387541 2.3509591e-38
-1.3742689 -2.8652561 0.31594092 2.3509593e-38
-1.3757036 -2.8644636 0.34980422 2.3509594e-38
-1.3762369 -2.8647361 0.3634221 2.3509596e-38
-1.3776412 -2.8582697 0.38623327 2.3509597e-38
-1.3787376 -2.855664 0.40848282 2.3509598e-38
-1.3799405 -2.854176 0.43538001 2.35096e-38
-1.3808055 -2.8612018 0.46942425 2.3509601e-38
-1.3813351 -2.8632693 0.48620793 2.3509603e-38
-1.3819251 -2.8631699 0.50054508 2.3509604e-38
-1.3831598 -2.8644207 0.533198 2.3509605e-38
-1.3836371 -2.8685503 0.55243295 2.3509607e-38
-1.3841496 -2.8697326 0.56719249 2.3509608e-38
-1.3844025 -2.8840888 0.59948599 2.350961e-38
-1.3881097 -2.8661556 0.65814447 2.3509611e-38
-1.3902695 -2.8623309 0.70434195 2.3509612e-38
-1.3907591 -2.8832521 0.75437665 2.3509614e-38
-1.3939178 -2.8759117 0.81877452 2.3509615e-38
-1.3940802 -2.8768489 0.82446837 2.3509618e-38
-1.3952463 -2.8766632 0.85282916 2.3509619e-38
-1.3971416 -2.8767693 0.89965212 2.3509621e-38
-1.3973871 -2.8810544 0.91347563 2.3509622e-38
-1.3978952 -2.8847115 0.93261719 2.3509624e-38
-1.3971587 -2.9171982 0.9734782 2.3509625e-38
-1.3972092 -2.9209318 0.98150218 2.3509626e-38
-1.4024103 -2.8985803 1.0689006 2.3509628e-38
-1.4035819 -2.8942809 1.0899191 2.3509629e-38
-1.4043261 -2.8920283 1.1041402 2.3509631e-38
-1.4051199 -2.9083576 1.1533214 2.3509632e-38
-1.4067289 -2.9148674 1.2047294 2.3509633e-38
-1.4067769 -2.9173126 1.2103555 2.3509635e-38
-1.4070963 -2.9288704 1.2391939 2.3509636e-38
-1.4073565 -2.9429095 1.2710917 2.3509638e-38
-1.4078138 -2.947444 1.2905766 2.3509639e-38
-1.4093722 -2.9403348 1.3160155 2.350964e-38
-1.4102801 -2.9396136 1.3370461 2.3509642e-38
-1.4110644 -2.9426467 1.3618505 2.3509643e-38
-1.4112628 -2.9534075 1.386272 2.3509645e-38
-1.4117965 -2.9505582 1.3942283 2.3509646e-38
-1.4133445 -2.9373457 1.4083296 2.3509647e-38
-1.4139578 -2.9325647 1.4147439 2.3509649e-38
-1.4147984 -2.9205821 1.4136688 2.350965e-38
-1.415958 -2.9016371 1.407811 2.3509652e-38
-1.4170647 -2.8861327 1.4068846 2.3509653e-38
-1.4199263 -2.8520553 1.4154317 2.3509654e-38
-1.4210037 -2.8349521 1.4108851 2.3509656e-38
-1.422199 -2.8170938 1.407876 2.3509657e-38
-1.423205 -2.8031566 1.4073236 2.3509659e-38
-1.4270186 -2.7561848 1.4158807 2.350966e-38
-1.4294176 -2.7223127 1.413414 2.3509661e-38
-1.433198 -2.6730852 1.417057 2.3509663e-38
-1.4340996 -2.6589451 1.413566 2.3509664e-38
-1.4355128 -2.6369925 1.4084897 2.3509666e-38
-1.4392086 -2.5911267 1.4161516 2.3509667e-38
-1.4414964 -2.5583992 1.4130253 2.3509668e-38
-1.4425503 -2.5436733 1.4122208 2.350967e-38
-1.4436034 -2.5283303 1.4102801 2.3509671e-38
-1.4446642 -2.5119886 1.4067156 2.3509673e-38
-1.4460582 -2.4914496 1.4037181 2.3509674e-38
-1.4479285 -2.464628 1.4010421 2.3509675e-38
-1.4492161 -2.4460082 1.3989191 2.3509677e-38
-1.4504551 -2.4182017 1.3789238 2.3509678e-38
-1.4584841 -2.3166521 1.3921139 2.350968e-38
-1.460052 -2.3017478 1.4036295 2.3509681e-38
-1.462268 -2.2692711 1.3991996 2.3509682e-38
-1.466782 -2.2123718 1.4069601 2.3509684e-38
-1.4682462 -2.1900551 1.402472 2.3509685e-38
-1.469362 -2.1739566 1.4006997 2.3509687e-38
-1.4687824 -2.1723285 1.3834822 2.3509688e-38
-1.4679941 -2.1743286 1.3677144 2.3509689e-38
-1.4672242 -2.177949 1.3553455 2.3509691e-38
-1.4655983 -2.1709418 1.3026104 2.3509692e-38
-1.4663728 -2.1374569 1.2608781 2.3509694e-38
-1.4671184 -2.1201429 1.2477844 2.3509695e-38
-1.4672523 -2.1108699 1.2342441 2.3509696e-38
-1.4662957 -2.1066771 1.2030954 2.3509698e-38
-1.4674618 -2.0584319 1.1441917 2.3509699e-38
-1.4681128 -2.0406418 1.1279113 2.3509701e-38
-1.4676553 -2.0393364 1.1142844 2.3509702e-38
-1.4668987 -2.0391517 1.095332 2.3509703e-38
-1.4663854 -2.0383024 1.0811633 2.3509705e-38
-1.464025 -2.0519142 1.0477977 2.3509708e-38
-1.4628094 -2.0427144 1.0011854 2.3509709e-38
-1.4619441 -2.0366254 0.96883404 2.350971e-38
-1.4590212 -2.0507023 0.92247385 2.3509712e-38
-1.4567665 -2.0638354 0.89083552 2.3509713e-38
-1.4561114 -2.0646396 0.87617439 2.3509715e-38
-1.4546369 -2.0314474 0.77962846 2.3509716e-38
-1.4552748 -2.0149367 0.76535141 2.3509717e-38
-1.4560394 -1.9974364 0.75238782 2.3509719e-38
-1.4556696 -1.9958495 0.74041015 2.350972e-38
-1.4548526 -1.9981093 0.72440767 2.3509722e-38
-1.4540945 -1.9984003 0.70628619 2.3509723e-38
-1.4535409 -1.9966122 0.68941438 2.3509724e-38
-1.4528748 -1.9974424 0.67453295 2.3509726e-38
-1.4514897 -2.0063419 0.65660441 2.3509727e-38
-1.4477364 -2.0579782 0.65800053 2.3509729e-38
-1.4463464 -2.0761006 0.65670353 2.350973e-38
-1.445518 -2.0883777 0.6586082 2.3509731e-38
-1.4439162 -2.112056 0.66218531 2.3509733e-38
-1.4421146 -2.1364305 0.66210526 2.3509734e-38
-1.4393601 -2.1674221 0.65060496 2.3509736e-38
-1.4389098 -2.1718619 0.64757627 2.3509737e-38
-1.4352251 -2.2198899 0.64411068 2.3509738e-38
-1.4339812 -2.2483921 0.66525573 2.350974e-38
-1.4236571 -2.3684838 0.62925696 2.3509741e-38
-1.4345438 -2.2479129 0.67822599 2.3509743e-38
-1.436667 -2.2354679 0.70787823 2.3509744e-38
-1.4406685 -2.1888158 0.72163594 2.3509745e-38
-1.442353 -2.1721768 0.73287916 2.3509747e-38
-1.4450634 -2.1438925 0.74821579 2.3509748e-38
-1.4474604 -2.1249306 0.77276826 2.350975e-38
-1.4522595 -2.1110177 0.8655991 2.3509751e-38
-1.4487284 -2.1918368 0.92544544 2.3509752e-38
-1.4483542 -2.1986308 0.92857218 2.3509754e-38
-1.4494523 -2.2017152 0.96119094 2.3509755e-38
-1.450276 -2.1979966 0.9747088 2.3509757e-38
-1.4514638 -2.1998799 1.0073562 2.3509758e-38
-1.451874 -2.2136991 1.0425389 2.3509759e-38
-1.4536077 -2.2167768 1.0907876 2.3509761e-38
-1.4541955 -2.2157986 1.1034777 2.3509762e-38
-1.4549955 -2.214644 1.1210632 2.3509764e-38
-1.4555632 -2.2157276 1.1369981 2.3509765e-38
-1.4568186 -2.2178004 1.1716555 2.3509767e-38
-1.4574167 -2.2178471 1.1864557 2.3509768e-38
-1.4578228 -2.2206705 1.2015744 2.3509769e-38
-1.4585477 -2.2295275 1.2354963 2.3509771e-38
-1.4558353 -2.3190689 1.3313243 2.3509772e-38
-1.445502 -2.4165804 1.2541035 2.3509774e-38
-1.4440504 -2.4110796 1.2083957 2.3509775e-38
-1.4440082 -2.4011717 1.1893687 2.3509776e-38
-1.44367 -2.3920405 1.1644688 2.3509778e-38
-1.4419342 -2.4006684 1.1374263 2.3509779e-38
-1.4412131 -2.4030166 1.1239408 2.3509781e-38
-1.4403089 -2.4005857 1.0972824 2.3509782e-38
-1.4389471 -2.3977845 1.058681 2.3509783e-38
-1.4388011 -2.3939111 1.048058 2.3509785e-38
-1.4383485 -2.3880148 1.0262209 2.3509786e-38
-1.4378908 -2.3868387 1.0128193 2.3509788e-38
-1.4363267 -2.3892655 0.97874022 2.3509789e-38
-1.4360255 -2.3867188 0.96670067 2.350979e-38
-1.4357506 -2.3827894 0.95280755 2.3509792e-38
-1.434458 -2.3794401 0.91491908 2.3509793e-38
-1.4341276 -2.3773701 0.90303189 2.3509795e-38
-1.4332176 -2.3782575 0.88225514 2.3509797e-38
-1.4329041 -2.3792775 0.87638628 2.3509799e-38
-1.4319516 -2.3799057 0.85409266 2.35098e-38
-1.4317485 -2.3801386 0.84951836 2.3509802e-38
-1.4310584 -2.3948457 0.85923702 2.3509803e-38
-1.4306488 -2.4087958 0.87449014 2.3509804e-38
-1.4204791 -2.5235488 0.8325969 2.3509806e-38
-1.4197583 -2.5249596 0.81741816 2.3509807e-38
-1.4190975 -2.5055578 0.76593965 2.3509809e-38
-1.4196163 -2.4876957 0.74626875 2.350981e-38
-1.4190147 -2.4866886 0.7296381 2.3509811e-38
-1.4185013 -2.485724 0.71525371 2.3509813e-38
-1.4176419 -2.4684436 0.66273713 2.3509814e-38
-1.4230187 -2.37885 0.63237071 2.3509816e-38
-1.3900081 -2.3557911 -0.22176455 2.3509817e-38
-1.3913046 -2.3551152 -0.19108827 2.3509818e-38
-1.3919302 -2.3547342 -0.17638698 2.350982e-38
-1.3925171 -2.3562541 -0.15918463 2.3509821e-38
-1.3931656 -2.3555348 -0.14453316 2.3509823e-38
-1.3938098 -2.3566198 -0.12671384 2.3509824e-38
-1.3943444 -2.3581963 -0.11069717 2.3509825e-38
-1.395008 -2.3570962 -0.096367925 2.3509827e-38
-1.3956907 -2.3564272 -0.080776371 2.3509828e-38
-1.3963056 -2.3600605 -0.059053667 2.350983e-38
-1.3967924 -2.3605506 -0.046186268 2.3509831e-38
-1.397396 -2.3614128 -0.029767178 2.3509832e-38
-1.3978778 -2.3613942 -0.017947182 2.3509834e-38
-1.3986948 -2.3601365 -0.0001244247 2.3509835e-38
-1.3993165 -2.3617203 0.018043362 2.3509837e-38
-1.3998964 -2.3620503 0.032915182 2.3509838e-38
-1.4005308 -2.3619025 0.048258618 2.3509839e-38
-1.4012065 -2.3621054 0.065253183 2.3509841e-38
-1.4024066 -2.3623683 0.095257282 2.3509842e-38
-1.4034579 -2.3744648 0.14309558 2.3509844e-38
-1.4052669 -2.3670514 0.17414238 2.3509845e-38
-1.4078422 -2.3571613 0.21955536 2.3509846e-38
-1.4085646 -2.3548007 0.23304102 2.3509848e-38
-1.409973 -2.353729 0.26575851 2.3509849e-38
-1.4103528 -2.3559492 0.27913535 2.3509851e-38
-1.4106506 -2.3592477 0.29244775 2.3509852e-38
-1.4131014 -2.3515594 0.33879068 2.3509853e-38
-1.4136852 -2.3510506 0.35223231 2.3509855e-38
-1.415463 -2.3523428 0.39832324 2.3509856e-38
-1.4165899 -2.347739 0.41769493 2.3509858e-38
-1.4169052 -2.3508222 0.43105131 2.3509859e-38
-1.4180995 -2.3526187 0.46370068 2.350986e-38
-1.4189044 -2.3700986 0.51524019 2.3509862e-38
-1.4195476 -2.3687956 0.52870065 2.3509863e-38
-1.4205865 -2.366487 0.55007845 2.3509865e-38
-1.421033 -2.3691421 0.56587911 2.3509866e-38
-1.4223388 -2.3684809 0.59681755 2.3509867e-38
-1.4229789 -2.3695934 0.61458695 2.3509869e-38
-1.3801378 -2.3489382 -0.47707647 2.350987e-38
-1.3796519 -2.3469911 -0.49256539 2.3509872e-38
-1.3789383 -2.3469555 -0.51018959 2.3509873e-38
-1.3782369 -2.3477762 -0.52596378 2.3509874e-38
-1.3807623 -2.3491163 -0.46138629 2.3509876e-38
-1.3811612 -2.3790429 -0.39723355 2.3509877e-38
-1.3817577 -2.3807032 -0.37954277 2.3509879e-38
-1.3823858 -2.3811054 -0.36335576 2.350988e-38
-1.3878777 -2.3687789 -0.25060546 2.3509881e-38
-1.3760254 -2.3609767 -0.55641013 2.3509883e-38
