# .PCD v0.7 - Point Cloud Data file format
VERSION 0.7
FIELDS x y z rgb
SIZE 4 4 4 4
TYPE F F F F
COUNT 1 1 1 1
WIDTH 156
HEIGHT 1
VIEWPOINT 0 0 0 1 0 0 0
POINTS 156
DATA ascii
-1.354504 -2.3606184 -0.4743658 2.3509528e-38
-1.3639497 -2.3508708 -0.44724366 2.350953e-38
-1.3659706 -2.349504 -0.43594223 2.3509532e-38
-1.3671629 -2.3502851 -0.4171313 2.3509534e-38
-1.3779589 -2.3410106 -0.37185311 2.3509537e-38
-1.3783631 -2.3426454 -0.3549937 2.3509539e-38
-1.380034 -2.3423057 -0.3396045 2.3509541e-38
-1.383498 -2.3456957 -0.27637705 2.3509544e-38
-1.3848634 -2.3458498 -0.26049954 2.3509547e-38
-1.3855312 -2.3470764 -0.24392477 2.3509548e-38
-1.3810833 -2.3602312 -0.19117618 2.3509551e-38
-1.3824279 -2.3602531 -0.17653149 2.3509552e-38
-1.3836746 -2.3607569 -0.15925521 2.3509555e-38
-1.3843923 -2.3616428 -0.14475095 2.3509558e-38
-1.3866692 -2.360785 -0.12680113 2.3509559e-38
-1.3868711 -2.3625929 -0.11079568 2.3509562e-38
-1.3874388 -2.363642 -0.096658379 2.3509565e-38
-1.3891475 -2.3632681 -0.081122339 2.3509566e-38
-1.3901789 -2.3646812 -0.059209228 2.3509569e-38
-1.3910086 -2.3651943 -0.046353266 2.3509572e-38
-1.3921185 -2.3657799 -0.029923111 2.3509573e-38
-1.3927791 -2.3663871 -0.018164635 2.3509576e-38
-1.3935094 -2.3676596 -0.00056856871 2.3509577e-38
-1.3948734 -2.368125 0.017680123 2.350958e-38
-1.3957815 -2.3687863 0.032512963 2.3509583e-38
-1.3966122 -2.3696105 0.04776302 2.3509584e-38
-1.3969573 -2.3713298 0.064629823 2.3509587e-38
-1.3979797 -2.3715103 0.077018127 2.350959e-38
-1.3993562 -2.3718681 0.094575495 2.3509591e-38
-1.4000028 -2.3725591 0.10682668 2.3509594e-38
-1.400805 -2.3736982 0.12417577 2.3509597e-38
-1.401557 -2.3745899 0.13909057 2.3509598e-38
-1.4026498 -2.3748412 0.15277895 2.3509601e-38
-1.402024 -2.3784044 0.17330024 2.3509603e-38
-1.4052892 -2.377537 0.20182137 2.3509605e-38
-1.4015174 -2.3893075 0.25126076 2.3509608e-38
-1.4026426 -2.3902221 0.27036664 2.350961e-38
-1.4047905 -2.3918104 0.30564195 2.3509612e-38
-1.4073012 -2.3922954 0.33638465 2.3509615e-38
-1.4079082 -2.3937583 0.35410881 2.3509617e-38
-1.4084831 -2.3943057 0.36448681 2.3509619e-38
-1.4113389 -2.3946381 0.39777434 2.3509622e-38
-1.4150156 -2.3941989 0.4339962 2.3509624e-38
-1.4151781 -2.3984487 0.46826267 2.3509626e-38
-1.4243258 -2.390419 0.50531578 2.3509628e-38
-1.4313712 -2.3833513 0.52709734 2.3509631e-38
-1.4378575 -2.3784142 0.55915844 2.3509633e-38
-1.4450376 -2.3726447 0.59232247 2.3509635e-38
-1.4480362 -2.3706818 0.60958874 2.3509638e-38
-1.4594619 -2.362493 0.66995597 2.350964e-38
-1.4828398 -2.3338063 0.70217955 2.3509642e-38
-1.4984059 -2.3180096 0.74891835 2.3509645e-38
-1.5064049 -2.3093722 0.76895642 2.3509647e-38
-1.5093824 -2.3112581 0.8154403 2.3509649e-38
-1.5085797 -2.3153744 0.83828878 2.3509652e-38
-1.5058789 -2.3217547 0.85802269 2.3509653e-38
-1.4914076 -2.3498285 0.91699398 2.3509656e-38
-1.4934745 -2.3492742 0.93500412 2.3509659e-38
-1.4949696 -2.3490822 0.94963312 2.350966e-38
-1.4963586 -2.3496668 0.96905959 2.3509663e-38
-1.4985443 -2.3508587 1.0017097 2.3509666e-38
-1.4990077 -2.3517361 1.0134091 2.3509667e-38
-1.4988687 -2.3537238 1.0271183 2.350967e-38
-1.4992535 -2.3539331 1.0328633 2.3509671e-38
-1.5006022 -2.3555946 1.0600977 2.3509674e-38
-1.5021925 -2.3552141 1.074309 2.3509677e-38
-1.4980621 -2.3704233 1.1461911 2.3509678e-38
-1.5003452 -2.3702147 1.1691737 2.3509681e-38
-1.5063305 -2.367244 1.2108846 2.3509684e-38
-1.504407 -2.3718801 1.225643 2.3509685e-38
-1.5045244 -2.375536 1.2548773 2.3509688e-38
-1.5018075 -2.3813431 1.2700497 2.3509691e-38
-1.4615034 -2.4409807 1.2923726 2.3509692e-38
-1.4528153 -2.4539063 1.29772 2.3509695e-38
-1.443874 -2.4658141 1.2925526 2.3509696e-38
-1.4322443 -2.4774814 1.2566044 2.3509699e-38
-1.4231389 -2.486845 1.2302119 2.3509702e-38
-1.422531 -2.4858305 1.2159051 2.3509703e-38
-1.4217902 -2.4845786 1.1983519 2.3509706e-38
-1.4203875 -2.4845939 1.1833663 2.3509709e-38
-1.4189166 -2.4846053 1.1676219 2.350971e-38
-1.4173638 -2.4842324 1.1480491 2.3509713e-38
-1.4170943 -2.4828508 1.1345774 2.3509716e-38
-1.4153404 -2.4827526 1.1149433 2.3509717e-38
-1.4150478 -2.4814668 1.1019547 2.350972e-38
-1.414325 -2.4798779 1.0820208 2.3509722e-38
-1.4105853 -2.4826918 1.0632874 2.3509724e-38
-1.4103954 -2.4808588 1.0472186 2.3509727e-38
-1.4095521 -2.4800448 1.0319171 2.3509729e-38
-1.4080333 -2.4803519 1.0179077 2.3509731e-38
-1.405216 -2.4798067 0.98340821 2.3509734e-38
-1.4043336 -2.4771831 0.95383775 2.3509736e-38
-1.4012463 -2.4788625 0.93344629 2.3509738e-38
-1.4007142 -2.4750414 0.89848638 2.3509741e-38
-1.3985685 -2.4739399 0.86695898 2.3509743e-38
-1.3984146 -2.4700367 0.83544254 2.3509745e-38
-1.401581 -2.459193 0.78657526 2.3509747e-38
-1.4004979 -2.4584022 0.76886576 2.350975e-38
-1.3991753 -2.4566464 0.74119306 2.3509752e-38
-1.4032996 -2.4461343 0.70517933 2.3509754e-38
-1.403176 -2.4439735 0.6873163 2.3509757e-38
-1.4026265 -2.4424844 0.67001283 2.3509759e-38
-1.4009149 -2.443275 0.65763378 2.3509761e-38
-1.4011885 -2.4410696 0.64370298 2.3509764e-38
-1.4001703 -2.4404051 0.62766218 2.3509767e-38
-1.3955444 -2.4431601 0.59893095 2.3509768e-38
-1.3890431 -2.4481285 0.5669477 2.3509771e-38
-1.3887923 -2.4465284 0.55200577 2.3509772e-38
-1.3856012 -2.4453049 0.50828904 2.3509775e-38
-1.3900774 -2.4329817 0.46220744 2.3509778e-38
-1.3861172 -2.4358969 0.44187492 2.3509779e-38
-1.3866657 -2.4304671 0.40624285 2.3509782e-38
-1.3847249 -2.4290576 0.37456095 2.3509785e-38
-1.3837082 -2.428143 0.35662115 2.3509786e-38
-1.3811911 -2.4299057 0.34300554 2.3509789e-38
-1.3817369 -2.4270084 0.32671642 2.350979e-38
-1.3809919 -2.4260035 0.31100833 2.3509793e-38
-1.3793017 -2.4244866 0.28121012 2.3509796e-38
-1.3777926 -2.4229391 0.25312272 2.3509797e-38
-1.3763661 -2.4221423 0.23167008 2.35098e-38
-1.375196 -2.4218588 0.21690169 2.3509803e-38
-1.3735915 -2.4204736 0.18903312 2.3509804e-38
-1.3718375 -2.4198384 0.16528685 2.3509807e-38
-1.370357 -2.4204187 0.15378933 2.350981e-38
-1.3704908 -2.4182086 0.1383222 2.3509811e-38
-1.3689091 -2.416492 0.10816064 2.3509814e-38
-1.3673728 -2.4159296 0.087317586 2.3509816e-38
-1.36638 -2.4155848 0.073992193 2.3509818e-38
-1.3655241 -2.414782 0.058635801 2.3509821e-38
-1.3642508 -2.4145901 0.043459624 2.3509823e-38
-1.3632131 -2.4136884 0.025390059 2.3509825e-38
-1.3616366 -2.4119673 -0.0047494471 2.3509828e-38
-1.3616519 -2.4095211 -0.023298472 2.350983e-38
-1.3598704 -2.4079432 -0.054548919 2.3509832e-38
-1.358119 -2.408469 -0.069382131 2.3509835e-38
-1.3571658 -2.4081171 -0.08233732 2.3509837e-38
-1.3559122 -2.4073069 -0.10203069 2.3509839e-38
-1.3550576 -2.4068501 -0.11472565 2.3509841e-38
-1.3541628 -2.4054618 -0.13498014 2.3509844e-38
-1.3520415 -2.4048252 -0.1626891 2.3509846e-38
-1.3502163 -2.4033165 -0.1938805 2.3509848e-38
-1.3491952 -2.4026546 -0.20993525 2.3509851e-38
-1.3481091 -2.4024134 -0.22347492 2.3509853e-38
-1.346594 -2.4017653 -0.24474059 2.3509855e-38
-1.3510355 -2.3927922 -0.26557323 2.3509858e-38
-1.3516347 -2.389782 -0.28215134 2.350986e-38
-1.3507674 -2.389122 -0.29653549 2.3509862e-38
-1.3498561 -2.3882334 -0.31314513 2.3509865e-38
-1.3441002 -2.3924794 -0.34263068 2.3509866e-38
-1.3452491 -2.3866973 -0.37449628 2.3509869e-38
-1.3452649 -2.3844862 -0.39124244 2.3509872e-38
-1.3446227 -2.3835006 -0.40569514 2.3509873e-38
-1.3436185 -2.3831146 -0.4194589 2.3509876e-38
-1.3429108 -2.3818953 -0.43640694 2.3509879e-38
-1.3424131 -2.3801043 -0.45546746 2.350988e-38
-1.348217 -2.3692584 -0.47595322 2.3509883e-38
