# .PCD v0.7 - Point Cloud Data file format
VERSION 0.7
FIELDS x y z rgb
SIZE 4 4 4 4
TYPE F F F F
COUNT 1 1 1 1
WIDTH 215
HEIGHT 1
VIEWPOINT 0 0 0 1 0 0 0
POINTS 215
DATA ascii
-2.5824041 1.0433125 0.65439397 2.3509528e-38
-2.5691621 1.0454816 0.67692053 2.350953e-38
-2.5585601 1.0295151 0.69326288 2.3509531e-38
-2.5567698 1.0150652 0.69489771 2.3509532e-38
-2.551486 0.96669364 0.69917595 2.3509534e-38
-2.5518584 0.92399204 0.69446391 2.3509535e-38
-2.5508738 0.90451139 0.6942603 2.3509538e-38
-2.5485671 0.88856792 0.69662267 2.3509539e-38
-2.546685 0.86857051 0.69788301 2.3509541e-38
-2.5452011 0.85458505 0.6990453 2.3509542e-38
-2.5470307 0.82414496 0.69304997 2.3509544e-38
-2.5508482 0.7900852 0.68335855 2.3509547e-38
-2.5525579 0.75994176 0.67759371 2.3509548e-38
-2.5555236 0.72741026 0.6694833 2.3509549e-38
-2.557091 0.67938274 0.66224682 2.3509551e-38
-2.5548282 0.66044778 0.6642499 2.3509552e-38
-2.5507534 0.62726724 0.66794389 2.3509554e-38
-2.5513504 0.57714158 0.66214353 2.3509556e-38
-2.5499873 0.56336528 0.66312313 2.3509558e-38
-2.5468245 0.54614437 0.66680568 2.3509559e-38
-2.541214 0.52843982 0.67456865 2.3509561e-38
-2.5351257 0.48723808 0.68088865 2.3509562e-38
-2.5325823 0.45634696 0.68222088 2.3509565e-38
-2.5303073 0.4430874 0.68478757 2.3509566e-38
-2.526186 0.39174217 0.68682206 2.3509568e-38
-2.5255573 0.37605673 0.6863814 2.3509569e-38
-2.5255704 0.34507692 0.68339586 2.350957e-38
-2.5245032 0.32911199 0.68366748 2.3509573e-38
-2.5193572 0.26351708 0.68606657 2.3509575e-38
-2.5187035 0.23550506 0.68448871 2.3509576e-38
-2.5168269 0.21693335 0.68587554 2.3509577e-38
-2.5067635 0.17738786 0.69905472 2.3509579e-38
-2.5052183 0.16154498 0.70014244 2.350958e-38
-2.5039685 0.12909953 0.69914603 2.3509583e-38
-2.5006714 0.09863922 0.70178944 2.3509584e-38
-2.4989245 0.080639392 0.70301193 2.3509586e-38
-2.4990239 0.041760273 0.69912601 2.3509587e-38
-2.4987636 0.032225646 0.69865257 2.3509589e-38
-2.4971142 0.016428545 0.69992137 2.3509591e-38
-2.4948287 0.0032581687 0.70251346 2.3509593e-38
-2.491802 -0.01213643 0.70614231 2.3509594e-38
-2.4941196 -0.063582301 0.69731486 2.3509596e-38
-2.4925828 -0.078297503 0.69849795 2.3509597e-38
-2.495878 -0.11482942 0.68944901 2.35096e-38
-2.4982312 -0.14595866 0.68250489 2.3509601e-38
-2.5014453 -0.17691135 0.67412806 2.3509603e-38
-2.5055852 -0.19388527 0.66552645 2.3509604e-38
-2.5075109 -0.20829745 0.66090208 2.3509605e-38
-2.5085402 -0.22301403 0.65776008 2.3509607e-38
-2.514575 -0.24265018 0.64570963 2.350961e-38
-2.5186491 -0.27925229 0.63534147 2.3509611e-38
-2.5208607 -0.31191012 0.62849045 2.3509612e-38
-2.5207012 -0.33301538 0.62673986 2.3509614e-38
-2.5197487 -0.38110858 0.62374544 2.3509615e-38
-2.5209985 -0.4311837 0.61684901 2.3509618e-38
-2.5198734 -0.44217548 0.61769342 2.3509619e-38
-2.5210769 -0.49230134 0.61087084 2.3509621e-38
-2.5215435 -0.50917798 0.60847026 2.3509622e-38
-2.5247135 -0.53256929 0.60088897 2.3509624e-38
-2.5293152 -0.57863164 0.58872747 2.3509625e-38
-2.5309353 -0.55110502 0.58863002 2.3509628e-38
-2.5330157 -0.53232181 0.58692038 2.3509629e-38
-2.5456166 -0.47265145 0.57139003 2.3509631e-38
-2.5484917 -0.45970589 0.56778222 2.3509632e-38
-2.5488832 -0.44258121 0.56876105 2.3509633e-38
-2.5467803 -0.40937668 0.57548082 2.3509636e-38
-2.5477295 -0.38918388 0.57581258 2.3509638e-38
-2.5391035 -0.35822612 0.59331334 2.3509639e-38
-2.5378182 -0.31865394 0.59926474 2.350964e-38
-2.5391235 -0.3022404 0.59863394 2.3509642e-38
-2.5373502 -0.29040414 0.60275525 2.3509645e-38
-2.5390055 -0.24650952 0.60416389 2.3509646e-38
-2.5383782 -0.23066965 0.60673618 2.3509647e-38
-2.5382142 -0.20482327 0.60948509 2.3509649e-38
-2.5357912 -0.1868837 0.61528522 2.350965e-38
-2.5315063 -0.16043511 0.62503678 2.3509652e-38
-2.5283265 -0.13677785 0.63265944 2.3509654e-38
-2.5241339 -0.11826186 0.64149672 2.3509656e-38
-2.519942 -0.07623218 0.65258253 2.3509657e-38
-2.522707 -0.050005466 0.65043098 2.3509659e-38
-2.5140233 0.003843978 0.67021745 2.350966e-38
-2.5201073 0.050674275 0.66444314 2.3509663e-38
-2.5235662 0.06416139 0.65990299 2.3509664e-38
-2.5256033 0.082780704 0.65825069 2.3509666e-38
-2.529398 0.11278167 0.65472454 2.3509667e-38
-2.5318377 0.12558255 0.65183705 2.3509668e-38
-2.534795 0.14082852 0.64831209 2.3509671e-38
-2.5405068 0.16646603 0.64113706 2.3509673e-38
-2.5466368 0.18777706 0.63284296 2.3509674e-38
-2.5455747 0.23029555 0.63870013 2.3509675e-38
-2.5481815 0.24718741 0.63592291 2.3509677e-38
-2.5503871 0.26106375 0.63353211 2.3509678e-38
-2.5518239 0.2753593 0.63247842 2.3509681e-38
-2.5511045 0.32782882 0.63870931 2.3509682e-38
-2.5533614 0.34125209 0.63618922 2.3509684e-38
-2.5552177 0.35644332 0.63451421 2.3509685e-38
-2.5569067 0.37671292 0.63360602 2.3509687e-38
-2.5565693 0.43008864 0.63928008 2.3509689e-38
-2.557404 0.44543627 0.63934112 2.3509691e-38
-2.5554676 0.47725809 0.64564961 2.3509692e-38
-2.552705 0.51396966 0.65381676 2.3509694e-38
-2.5649514 0.57425946 0.63894308 2.3509695e-38
-2.5687685 0.58498693 0.63353556 2.3509696e-38
-2.5698268 0.59520018 0.63272828 2.3509699e-38
-2.5785029 0.63155687 0.62158269 2.3509701e-38
-2.5832179 0.64743507 0.61515546 2.3509702e-38
-2.5850267 0.66408324 0.61369842 2.3509703e-38
-2.5899739 0.69169801 0.60800278 2.3509705e-38
-2.5925043 0.70268321 0.60478777 2.3509708e-38
-2.5949738 0.71616739 0.60191554 2.3509709e-38
-2.5980647 0.74669313 0.59962595 2.350971e-38
-2.6003067 0.76118541 0.59723437 2.3509712e-38
-2.602416 0.78867537 0.59630805 2.3509713e-38
-2.6044004 0.8020317 0.59423965 2.3509716e-38
-2.6118522 0.83308899 0.58465129 2.3509717e-38
-2.6470835 0.89101154 0.53081191 2.3509719e-38
-2.6512747 0.89227301 0.52386886 2.350972e-38
-2.6606097 0.89696449 0.50858319 2.3509722e-38
-2.67871 0.89991599 0.47835875 2.3509723e-38
-2.6998601 0.91646338 0.44429266 2.3509726e-38
-2.7145424 0.91674846 0.41957396 2.3509727e-38
-2.7214553 0.92928129 0.40912157 2.3509729e-38
-2.7243962 0.93678153 0.40488148 2.350973e-38
-2.7283835 0.94944423 0.39937383 2.3509731e-38
-2.6933768 0.95162827 0.45858425 2.3509734e-38
-2.675992 0.98958236 0.49151587 2.3509736e-38
-2.6730018 0.99433434 0.49701005 2.3509737e-38
-2.6690352 0.99263376 0.5035333 2.3509738e-38
-2.6197724 0.99253362 0.58655435 2.350974e-38
-2.6172957 0.99693841 0.59115005 2.3509743e-38
-2.6119201 1.0034438 0.60083252 2.3509744e-38
-2.6087196 1.0064964 0.60651839 2.3509745e-38
-2.6018836 1.0123388 0.6185993 2.3509747e-38
-2.5983443 1.0163378 0.62494677 2.3509748e-38
-2.4405458 -1.5005101 0.65016377 2.350975e-38
-2.4393728 -1.4504266 0.65693128 2.3509752e-38
-2.4414864 -1.43573 0.65477449 2.3509754e-38
-2.4400907 -1.3883944 0.66165483 2.3509755e-38
-2.4448977 -1.3492912 0.65729332 2.3509757e-38
-2.4480963 -1.3208809 0.65462041 2.3509758e-38
-2.4483137 -1.3089142 0.65539783 2.3509761e-38
-2.4476635 -1.2743378 0.6598016 2.3509762e-38
-2.4499485 -1.2558839 0.65771502 2.3509764e-38
-2.4518576 -1.2369521 0.65630829 2.3509765e-38
-2.4489725 -1.2039578 0.66432661 2.3509767e-38
-2.4499633 -1.1892066 0.66406798 2.3509768e-38
-2.4466081 -1.1552022 0.67297506 2.3509771e-38
-2.4460037 -1.106205 0.67868143 2.3509772e-38
-2.4467559 -1.0881414 0.67914158 2.3509774e-38
-2.4483309 -1.0730147 0.67793375 2.3509775e-38
-2.4512026 -1.0559235 0.67472833 2.3509776e-38
-2.4559097 -1.0104671 0.67114311 2.3509779e-38
-2.4552453 -0.98120248 0.67506152 2.3509781e-38
-2.4628482 -0.95133698 0.66510451 2.3509782e-38
-2.4641244 -0.93637854 0.66438407 2.3509783e-38
-2.4664598 -0.92365235 0.66166526 2.3509785e-38
-2.4686527 -0.90966475 0.65930641 2.3509788e-38
-2.4696276 -0.89544439 0.65902436 2.3509789e-38
-2.47312 -0.8755852 0.65503728 2.350979e-38
-2.4830101 -0.83912092 0.64185637 2.3509792e-38
-2.4848349 -0.82665235 0.63997322 2.3509793e-38
-2.4864321 -0.79982334 0.63984811 2.3509795e-38
-2.4879282 -0.78499717 0.63874465 2.3509797e-38
-2.4981732 -0.74849409 0.62496865 2.3509799e-38
-2.5006094 -0.72904634 0.62272197 2.35098e-38
-2.5110726 -0.69632834 0.60821652 2.3509802e-38
-2.5134919 -0.68538803 0.60518569 2.3509803e-38
-2.5158694 -0.66915691 0.60273087 2.3509806e-38
-2.5167894 -0.64997172 0.60301536 2.3509807e-38
-2.5190611 -0.63671476 0.60045457 2.3509809e-38
-2.475615 -1.5813119 0.58332664 2.350981e-38
-2.4774566 -1.5642623 0.58185363 2.3509811e-38
-2.4735017 -1.5220798 0.59255415 2.3509814e-38
-2.4717968 -1.4680805 0.60059339 2.3509816e-38
-2.4727023 -1.4406357 0.60169166 2.3509817e-38
-2.4730604 -1.4082683 0.6041851 2.3509818e-38
-2.4760566 -1.3912652 0.600761 2.350982e-38
-2.4736111 -1.3379589 0.60998195 2.3509821e-38
-2.4808147 -1.3092544 0.60058635 2.3509824e-38
-2.4814837 -1.2946134 0.60085928 2.3509825e-38
-2.4819663 -1.2782855 0.60160798 2.3509827e-38
-2.4801564 -1.223317 0.60991579 2.3509828e-38
-2.4818702 -1.2029588 0.60897547 2.350983e-38
-2.4799459 -1.1737818 0.61500925 2.3509832e-38
-2.4809158 -1.1561441 0.61506188 2.3509834e-38
-2.4831281 -1.1423273 0.61265415 2.3509835e-38
-2.4805946 -1.105638 0.62043399 2.3509837e-38
-2.4817219 -1.0901684 0.62001354 2.3509838e-38
-2.4798505 -1.0547489 0.62655574 2.3509839e-38
-2.4809062 -1.0432649 0.6258744 2.3509842e-38
-2.4816291 -0.99771714 0.6290133 2.3509844e-38
-2.489059 -0.95824212 0.62026674 2.3509845e-38
-2.4914927 -0.91583842 0.62022132 2.3509846e-38
-2.49301 -0.90133423 0.6190505 2.3509848e-38
-2.4948502 -0.88765424 0.61725771 2.3509851e-38
-2.4996419 -0.86248612 0.61158895 2.3509852e-38
-2.5015521 -0.84880424 0.60967827 2.3509853e-38
-2.5061009 -0.81713206 0.60504079 2.3509855e-38
-2.5119345 -0.7705456 0.59966409 2.3509856e-38
-2.5139565 -0.75771236 0.59748369 2.3509859e-38
-2.5155923 -0.74268144 0.59616506 2.350986e-38
-2.5165219 -0.73141104 0.5956763 2.3509862e-38
-2.5236614 -0.69420975 0.5872013 2.3509863e-38
-2.5200367 -0.66649902 0.59596199 2.3509865e-38
-2.5199878 -0.65789592 0.59686619 2.3509866e-38
-2.5195191 -0.64233345 0.59914577 2.3509869e-38
-2.4732454 -1.5871209 0.58676481 2.350987e-38
-2.4630344 -1.6056029 0.60220706 2.3509872e-38
-2.4561627 -1.6075008 0.61360759 2.3509873e-38
-2.4501224 -1.6107743 0.62347507 2.3509874e-38
-2.4445529 -1.6052762 0.63338852 2.3509877e-38
-2.4450457 -1.5904534 0.63397539 2.3509879e-38
-2.4425955 -1.5583934 0.64117187 2.350988e-38
-2.4380963 -1.5362309 0.6508745 2.3509881e-38
-2.4382415 -1.5259848 0.65161037 2.3509883e-38
