# .PCD v0.7 - Point Cloud Data file format
VERSION 0.7
FIELDS x y z rgb
SIZE 4 4 4 4
TYPE F F F F
COUNT 1 1 1 1
WIDTH 69
HEIGHT 1
VIEWPOINT 0 0 0 1 0 0 0
POINTS 69
DATA ascii
-2.5528014 2.3048429 1.4541056 2.3509528e-38
-2.5657072 2.2959118 1.453966 2.3509532e-38
-2.5683928 2.2639108 1.4539522 2.3509538e-38
-2.5682702 2.2308309 1.4539703 2.3509544e-38
-2.5701153 2.1969206 1.4539666 2.3509548e-38
-2.5689614 2.1644568 1.4539958 2.3509554e-38
-2.5680563 2.1002233 1.4540383 2.3509559e-38
-2.568347 2.0656922 1.4540524 2.3509563e-38
-2.558722 2.0529764 1.4541663 2.3509569e-38
-2.5258329 2.0216873 1.4545494 2.3509575e-38
-2.5075221 2.0476851 1.4547408 2.3509579e-38
-2.4130759 2.0471349 1.4557956 2.3509584e-38
-2.3784242 2.0169468 1.4561979 2.350959e-38
-2.3639205 2.0230989 1.4563566 2.3509596e-38
-2.347358 2.0317242 1.4565371 2.35096e-38
-2.3433537 2.0494153 1.4565731 2.3509605e-38
-2.3512936 2.0645304 1.4564769 2.3509611e-38
-2.3629909 2.0874894 1.4563347 2.3509615e-38
-2.3698318 2.1191328 1.4562423 2.3509621e-38
-2.3728931 2.1340435 1.4562006 2.3509626e-38
-2.2687922 2.2068603 1.4573265 2.3509631e-38
-2.2437646 2.1975315 1.4576107 2.3509636e-38
-2.1953588 2.2091093 1.4581454 2.3509642e-38
-2.1200335 2.1661711 1.4590083 2.3509647e-38
-2.1135304 2.153053 1.4590874 2.3509652e-38
-2.0931444 2.147141 1.459318 2.3509657e-38
-2.0790558 2.154834 1.4594713 2.3509663e-38
-2.0714505 2.17488 1.4595464 2.3509667e-38
-2.0741482 2.2064536 1.4595004 2.3509673e-38
-2.0829606 2.2325604 1.4593887 2.3509678e-38
-2.051425 2.3018146 1.4597061 2.3509682e-38
-2.0092196 2.3227632 1.4601669 2.3509688e-38
-1.9090279 2.3416398 1.4612762 2.3509694e-38
-1.8730766 2.3438199 1.4616765 2.3509698e-38
-1.8668801 2.3634989 1.461736 2.3509703e-38
-1.8615726 2.4497228 1.4617518 2.3509709e-38
-1.7988231 2.5017591 1.4624262 2.3509715e-38
-1.7503847 2.5049915 1.4629655 2.3509719e-38
-1.7263116 2.5354626 1.4632192 2.3509724e-38
-1.7359847 2.5469944 1.4631052 2.350973e-38
-1.7482312 2.5732617 1.4629552 2.3509734e-38
-1.7608018 2.6001716 1.4628013 2.350974e-38
-1.765053 2.6144593 1.4627466 2.3509745e-38
-1.7726243 2.6406436 1.462649 2.350975e-38
-1.7825611 2.6377566 1.4625394 2.3509755e-38
-1.7886573 2.6354318 1.4624726 2.3509761e-38
-1.8037432 2.6271112 1.4623083 2.3509767e-38
-1.8780468 2.5397031 1.4615226 2.3509771e-38
-1.9193558 2.5197954 1.4610711 2.3509776e-38
-1.9240522 2.4991925 1.4610291 2.3509782e-38
-1.929324 2.4792244 1.4609803 2.3509786e-38
-1.9448051 2.4560101 1.4608191 2.3509792e-38
-1.9450099 2.4383459 1.4608257 2.3509797e-38
-2.0026042 2.3776195 1.4602131 2.3509802e-38
-2.0397947 2.3755603 1.4597989 2.3509807e-38
-2.051141 2.3670533 1.4596764 2.3509813e-38
-2.0717933 2.3398213 1.4594594 2.3509817e-38
-2.154968 2.296638 1.4585525 2.3509823e-38
-2.2105894 2.3007898 1.4579291 2.3509828e-38
-2.2236955 2.2940314 1.4577862 2.3509834e-38
-2.2391 2.2890241 1.4576167 2.3509838e-38
-2.252578 2.2790065 1.4574711 2.3509844e-38
-2.2907097 2.2427096 1.4570637 2.3509849e-38
-2.3920164 2.2726939 1.4559174 2.3509853e-38
-2.3989589 2.2870224 1.4558326 2.3509859e-38
-2.4619408 2.2952886 1.4551251 2.3509865e-38
-2.4775076 2.2937741 1.454952 2.3509869e-38
-2.5222213 2.3043578 1.4544474 2.3509874e-38
-2.5422254 2.3104541 1.4542208 2.350988e-38
