# .PCD v0.7 - Point Cloud Data file format
VERSION 0.7
FIELDS x y z rgb
SIZE 4 4 4 4
TYPE F F F F
COUNT 1 1 1 1
WIDTH 205
HEIGHT 1
VIEWPOINT 0 0 0 1 0 0 0
POINTS 205
DATA ascii
1.2563493 2.5186098 -0.31540084 2.3509528e-38
1.261265 2.5195208 -0.3017422 2.350953e-38
1.2522346 2.5212021 -0.269398 2.3509531e-38
1.234925 2.5213521 -0.26000896 2.3509532e-38
1.211354 2.5222635 -0.2351104 2.3509534e-38
1.2060724 2.5227547 -0.22462225 2.3509537e-38
1.1432564 2.5235581 -0.18609506 2.3509538e-38
1.1023949 2.5227771 -0.18336192 2.3509539e-38
1.085443 2.5225656 -0.18029992 2.3509541e-38
1.061856 2.5219004 -0.18238305 2.3509544e-38
1.0333169 2.5215318 -0.17744902 2.3509545e-38
0.98203516 2.5213666 -0.1600531 2.3509547e-38
0.96643364 2.5212185 -0.15644285 2.3509548e-38
0.93426651 2.5202551 -0.16024919 2.3509551e-38
0.85014898 2.5221124 -0.095295124 2.3509552e-38
0.85202426 2.5248322 -0.049472749 2.3509554e-38
0.8440603 2.5270867 -0.0077372491 2.3509555e-38
0.84378487 2.5281723 0.010954738 2.3509558e-38
0.84331828 2.5299985 0.042406335 2.3509559e-38
0.84276372 2.5306971 0.054581851 2.3509561e-38
0.8418873 2.5310144 0.060359061 2.3509562e-38
0.84124029 2.5317307 0.072875276 2.3509565e-38
0.84332407 2.5337698 0.10696477 2.3509566e-38
0.84184849 2.536587 0.15577677 2.3509568e-38
0.85390544 2.5385671 0.184919 2.3509569e-38
0.84884727 2.5391169 0.19632022 2.3509572e-38
0.85147601 2.5428758 0.25964588 2.3509573e-38
0.8541342 2.5446043 0.28818509 2.3509575e-38
0.84917921 2.5472109 0.33476153 2.3509576e-38
0.83371168 2.5500026 0.38864979 2.3509579e-38
0.84195799 2.5518072 0.41628981 2.350958e-38
0.84086561 2.5526838 0.43173251 2.3509582e-38
0.83861029 2.5536773 0.44962329 2.3509583e-38
0.85237235 2.5564528 0.49171096 2.3509586e-38
0.8557933 2.5573649 0.5059849 2.3509587e-38
0.85458475 2.5577481 0.51301908 2.3509589e-38
0.85087901 2.5582619 0.5232743 2.350959e-38
0.83703429 2.5609252 0.57432765 2.3509593e-38
0.84181184 2.5627403 0.6035198 2.3509594e-38
0.84453589 2.5654562 0.64893925 2.3509596e-38
0.84527475 2.5663202 0.66344035 2.3509597e-38
0.82175338 2.5680163 0.70174569 2.35096e-38
0.81611562 2.5689144 0.71934325 2.3509601e-38
0.80830538 2.5697429 0.73660558 2.3509603e-38
0.78104699 2.5696378 0.74555463 2.3509604e-38
0.76077366 2.5686741 0.73704869 2.3509605e-38
0.6571607 2.5646634 0.70923758 2.3509608e-38
0.64518106 2.5640128 0.70282108 2.350961e-38
0.60084754 2.5619862 0.6856097 2.3509611e-38
0.53970683 2.5591309 0.660833 2.3509612e-38
0.46623689 2.55901 0.68772602 2.3509615e-38
0.4164474 2.5595174 0.71604455 2.3509617e-38
0.39091837 2.5613413 0.75732887 2.3509618e-38
0.38673401 2.5619493 0.76939023 2.3509619e-38
0.35579735 2.5612755 0.77004766 2.3509622e-38
0.30534667 2.5603714 0.77445972 2.3509624e-38
0.26274464 2.5637195 0.84857881 2.3509625e-38
0.2560463 2.5645909 0.86613232 2.3509626e-38
0.25124726 2.5645378 0.86712086 2.3509629e-38
0.16643108 2.5624952 0.86558861 2.3509631e-38
0.15390228 2.5625048 0.87069076 2.3509632e-38
0.12871568 2.5612528 0.85918742 2.3509633e-38
0.10906942 2.560498 0.85400796 2.3509636e-38
0.091069058 2.560039 0.85325116 2.3509638e-38
0.059848756 2.5598993 0.86317182 2.3509639e-38
0.036963984 2.5594022 0.86367959 2.350964e-38
0.024827987 2.5590203 0.8619259 2.3509643e-38
-0.0097592995 2.5584185 0.86525983 2.3509645e-38
-0.06011235 2.5580225 0.8783344 2.3509646e-38
-0.071828082 2.5581975 0.88594717 2.3509647e-38
-0.089956947 2.5580051 0.8897993 2.350965e-38
-0.13996781 2.5568073 0.88900989 2.3509652e-38
-0.14388213 2.5558357 0.8739199 2.3509653e-38
-0.14341545 2.5549822 0.85912633 2.3509654e-38
-0.14406946 2.55407 0.84376395 2.3509657e-38
-0.14639515 2.5530949 0.8279891 2.3509659e-38
-0.14351141 2.5522451 0.81230468 2.350966e-38
-0.14195372 2.5513492 0.79635221 2.3509661e-38
-0.13951525 2.5504203 0.7794925 2.3509664e-38
-0.13908342 2.5495255 0.76400149 2.3509666e-38
-0.14470568 2.547683 0.73467511 2.3509667e-38
-0.13690439 2.5466671 0.71420759 2.3509668e-38
-0.1353607 2.5450447 0.68582416 2.3509671e-38
-0.13826191 2.5441322 0.67134577 2.3509673e-38
-0.14284261 2.543046 0.65456164 2.3509674e-38
-0.14016581 2.5423069 0.64085507 2.3509675e-38
-0.13775149 2.5413792 0.62402117 2.3509677e-38
-0.13539997 2.5404828 0.60774022 2.350968e-38
-0.13534808 2.5395107 0.59107924 2.3509681e-38
-0.13585275 2.5386577 0.57667875 2.3509682e-38
-0.13803947 2.537745 0.56191921 2.3509684e-38
-0.13917884 2.5366368 0.54339707 2.3509687e-38
-0.13760358 2.5359204 0.53050804 2.3509688e-38
-0.13893439 2.5339808 0.49783167 2.3509689e-38
-0.13323489 2.5314417 0.45211324 2.3509691e-38
-0.13610375 2.528657 0.40556985 2.3509694e-38
-0.12929448 2.5250885 0.34179848 2.3509695e-38
-0.13454306 2.5241342 0.32752889 2.3509696e-38
-0.13238919 2.5232456 0.31146348 2.3509698e-38
-0.12514779 2.5224302 0.29465219 2.3509701e-38
-0.12021462 2.5205996 0.26137215 2.3509702e-38
-0.12009463 2.5187919 0.23037526 2.3509703e-38
-0.12333257 2.5179908 0.21794309 2.3509705e-38
-0.12408554 2.5169573 0.20054266 2.3509708e-38
-0.12237407 2.5159161 0.18204436 2.3509709e-38
-0.15731017 2.5115356 0.12082291 2.350971e-38
-0.16657902 2.5105548 0.10768798 2.3509712e-38
-0.16499716 2.5097089 0.092582241 2.3509715e-38
-0.16300565 2.5078409 0.059819236 2.3509716e-38
-0.16014366 2.5070591 0.045305431 2.3509717e-38
-0.15822375 2.5060449 0.02718772 2.3509719e-38
-0.15405151 2.5041826 -0.0063454211 2.3509722e-38
-0.15152691 2.5004635 -0.071001619 2.3509723e-38
-0.15343922 2.4998314 -0.081068926 2.3509724e-38
-0.15448532 2.4988909 -0.096760496 2.3509726e-38
-0.15186644 2.4969845 -0.13042894 2.3509729e-38
-0.15352586 2.4955306 -0.15466264 2.350973e-38
-0.1566592 2.4936855 -0.18501267 2.3509731e-38
-0.1611682 2.4926414 -0.20111249 2.3509733e-38
-0.15923816 2.4906495 -0.23597306 2.3509736e-38
-0.16853979 2.4889817 -0.26085281 2.3509737e-38
-0.17190653 2.4871705 -0.29053384 2.3509738e-38
-0.18607217 2.4841256 -0.33708009 2.350974e-38
-0.16356429 2.4827776 -0.36903045 2.3509743e-38
-0.14752796 2.4824078 -0.38168371 2.3509744e-38
-0.12780203 2.4815066 -0.4048875 2.3509745e-38
-0.12299572 2.4780192 -0.46648446 2.3509747e-38
-0.12086411 2.475282 -0.51418275 2.3509748e-38
-0.12135087 2.4734571 -0.54523104 2.3509751e-38
-0.12263459 2.4725447 -0.56034583 2.3509752e-38
-0.12210199 2.4707201 -0.59179509 2.3509754e-38
-0.12269798 2.4698074 -0.60718048 2.3509755e-38
-0.12271722 2.4691007 -0.61927086 2.3509758e-38
-0.11511211 2.4671941 -0.65491414 2.3509759e-38
-0.11652677 2.4653444 -0.68602264 2.3509761e-38
-0.11696094 2.4644806 -0.70063889 2.3509762e-38
-0.11645828 2.4635196 -0.71728921 2.3509765e-38
-0.11801289 2.4626071 -0.73229742 2.3509767e-38
-0.12160778 2.4616942 -0.74650288 2.3509768e-38
-0.12076724 2.4609907 -0.75888079 2.3509769e-38
-0.11943577 2.459657 -0.78224087 2.3509772e-38
-0.11659393 2.4578443 -0.81439602 2.3509774e-38
-0.11746292 2.4562201 -0.84185296 2.3509775e-38
-0.10859271 2.4528825 -0.90249145 2.3509776e-38
-0.10791363 2.451757 -0.92202407 2.3509779e-38
-0.11012271 2.4508448 -0.93677485 2.3509781e-38
-0.11192772 2.4499407 -0.95153821 2.3509782e-38
-0.10935818 2.4480217 -0.98540044 2.3509783e-38
-0.11182082 2.4471951 -0.99858618 2.3509786e-38
-0.116713 2.4453697 -1.0279013 2.3509788e-38
-0.10621903 2.4454417 -1.0308092 2.3509789e-38
-0.072352588 2.4464259 -1.0273093 2.350979e-38
-0.032094516 2.4474735 -1.0252452 2.3509793e-38
-0.017960664 2.4475367 -1.0297308 2.3509795e-38
0.017308425 2.4485428 -1.0264164 2.3509796e-38
0.034648415 2.4486907 -1.0307239 2.3509797e-38
0.071228549 2.4496467 -1.0287757 2.35098e-38
0.10736699 2.450666 -1.0255758 2.3509802e-38
0.1453511 2.4517133 -1.0226196 2.3509803e-38
0.16066 2.451844 -1.0264188 2.3509804e-38
0.21378973 2.4528587 -1.0299922 2.3509807e-38
0.25593835 2.4539671 -1.0276349 2.3509809e-38
0.28995174 2.4549499 -1.0242202 2.350981e-38
0.34195539 2.4559777 -1.0271283 2.3509811e-38
0.38931349 2.4570282 -1.0278199 2.3509814e-38
0.43085247 2.4582133 -1.0239023 2.3509816e-38
0.46493155 2.458936 -1.0249668 2.3509817e-38
0.48110271 2.4591775 -1.0272077 2.3509818e-38
0.51393527 2.4601684 -1.0231931 2.350982e-38
0.55954623 2.4611225 -1.0248346 2.3509823e-38
0.59051627 2.4620864 -1.0205412 2.3509824e-38
0.64997047 2.4631615 -1.0255798 2.3509825e-38
0.6972881 2.4642539 -1.0255302 2.3509827e-38
0.73091751 2.4652348 -1.0219992 2.350983e-38
0.76830173 2.4662731 -1.0189638 2.3509831e-38
0.82325602 2.4681869 -1.0078633 2.3509832e-38
0.84065992 2.4683125 -1.0125748 2.3509834e-38
0.85446107 2.4682915 -1.0183789 2.3509837e-38
0.87432361 2.4684246 -1.0239264 2.3509838e-38
0.91179794 2.4694924 -1.0204188 2.3509839e-38
0.92781293 2.4696591 -1.0238793 2.3509841e-38
0.96505284 2.4705863 -1.0226903 2.3509844e-38
0.99910355 2.4715734 -1.019215 2.3509845e-38
1.0530444 2.4727104 -1.0210211 2.3509846e-38
1.0892744 2.4736998 -1.0183623 2.3509848e-38
1.1260331 2.4747093 -1.015579 2.3509851e-38
1.1448994 2.4748132 -1.0212321 2.3509852e-38
1.1809247 2.4748158 -1.0353898 2.3509853e-38
1.1824203 2.4757252 -1.0204114 2.3509855e-38
1.1800888 2.4775147 -0.98886049 2.3509858e-38
1.191148 2.4811523 -0.93094444 2.3509859e-38
1.1964453 2.482157 -0.91583669 2.350986e-38
1.1997476 2.4839344 -0.88670385 2.3509862e-38
1.2046345 2.4866879 -0.84149408 2.3509865e-38
1.236577 2.4916718 -0.76876575 2.3509866e-38
1.2344166 2.4938519 -0.73059523 2.3509867e-38
1.2419027 2.4968989 -0.68138492 2.3509869e-38
1.2446852 2.5004578 -0.62155169 2.3509872e-38
1.2213329 2.5014644 -0.59511477 2.3509873e-38
1.2138764 2.5041139 -0.5468148 2.3509874e-38
1.211715 2.5059633 -0.51430368 2.3509876e-38
1.2202491 2.5076516 -0.48876742 2.3509879e-38
1.2239906 2.5085154 -0.47545558 2.350988e-38
1.2354299 2.5105078 -0.44585568 2.3509881e-38
1.2273706 2.5132456 -0.39580896 2.3509883e-38
