# .PCD v0.7 - Point Cloud Data file format
VERSION 0.7
FIELDS x y z rgb
SIZE 4 4 4 4
TYPE F F F F
COUNT 1 1 1 1
WIDTH 80
HEIGHT 1
VIEWPOINT 0 0 0 1 0 0 0
POINTS 80
DATA ascii
3.1161151 -2.236634 0.4588021 2.3509528e-38
3.1169522 -2.2255695 0.44143975 2.3509532e-38
3.112951 -2.2198138 0.41071236 2.3509537e-38
3.11059 -2.2090583 0.37830502 2.3509541e-38
3.1052275 -2.2070966 0.34827876 2.3509545e-38
3.1041954 -2.1836491 0.29775977 2.3509549e-38
3.0999916 -2.1872854 0.28425103 2.3509555e-38
3.0932765 -2.1801302 0.23753738 2.3509559e-38
3.0934334 -2.17172 0.22199315 2.3509563e-38
3.0855026 -2.1677029 0.17541927 2.3509568e-38
3.0825932 -2.1673732 0.16055214 2.3509572e-38
3.079634 -2.1586194 0.12910438 2.3509577e-38
3.0775621 -2.1557865 0.11347616 2.3509582e-38
3.0763917 -2.1519184 0.10025138 2.3509586e-38
3.0733531 -2.1501951 0.082052708 2.350959e-38
3.0717833 -2.1477458 0.06962657 2.3509594e-38
3.0697641 -2.1425261 0.049628258 2.35096e-38
3.0681882 -2.1299248 0.017483294 2.3509604e-38
3.0661943 -2.1273682 0.0027737617 2.3509608e-38
3.0646234 -2.1244395 -0.010586381 2.3509612e-38
3.0604906 -2.1171155 -0.045000553 2.3509617e-38
3.0566864 -2.1110103 -0.075444758 2.3509621e-38
3.0530264 -2.104301 -0.10635656 2.3509626e-38
3.05071 -2.1023183 -0.1215294 2.3509631e-38
3.0422227 -2.1092248 -0.14964187 2.3509635e-38
3.0360467 -2.1077373 -0.18273014 2.3509639e-38
3.0295186 -2.1083996 -0.21337232 2.3509643e-38
3.0264542 -2.1038728 -0.23713577 2.3509649e-38
3.0252786 -2.0970473 -0.25612327 2.3509653e-38
3.0196476 -2.0951517 -0.28733605 2.3509657e-38
3.0188258 -2.0889363 -0.30340818 2.3509661e-38
3.012933 -2.0886576 -0.3327682 2.3509666e-38
3.0086527 -2.0836625 -0.36338454 2.3509671e-38
2.9979496 -2.0799904 -0.4228521 2.3509675e-38
2.9918218 -2.0801184 -0.45257193 2.350968e-38
2.9882643 -2.079941 -0.47031024 2.3509684e-38
2.9779024 -2.0852458 -0.51070094 2.3509688e-38
2.9738014 -2.0882108 -0.52500534 2.3509692e-38
2.96592 -2.0931833 -0.55390698 2.3509698e-38
2.9586427 -2.097111 -0.58188057 2.3509702e-38
2.9609718 -2.1103983 -0.54472011 2.3509706e-38
2.9583898 -2.1267226 -0.52569324 2.350971e-38
2.9545944 -2.1433735 -0.51196533 2.3509715e-38
2.955375 -2.1510892 -0.49318367 2.350972e-38
2.9626813 -2.1458588 -0.46759486 2.3509724e-38
2.9651794 -2.1443574 -0.45829096 2.3509729e-38
2.9691989 -2.1457884 -0.43585706 2.3509733e-38
2.9709911 -2.1485541 -0.42173138 2.3509737e-38
2.9721038 -2.1547902 -0.40419638 2.3509743e-38
2.9777467 -2.1722374 -0.34276411 2.3509747e-38
2.9818559 -2.1703672 -0.32629722 2.3509751e-38
2.9864624 -2.1740682 -0.29658887 2.3509755e-38
2.9954255 -2.1744318 -0.25205171 2.3509759e-38
3.0043848 -2.1698921 -0.21704102 2.3509764e-38
3.0093408 -2.1784806 -0.17614806 2.3509769e-38
3.0122633 -2.1861606 -0.14696127 2.3509774e-38
3.0208595 -2.181622 -0.11372298 2.3509778e-38
3.0246863 -2.1868153 -0.084937394 2.3509782e-38
3.0280943 -2.1942399 -0.053871453 2.3509786e-38
3.0297031 -2.2063472 -0.022526979 2.3509792e-38
3.0319178 -2.217485 0.0099029541 2.3509796e-38
3.0429447 -2.2205093 0.069693744 2.35098e-38
3.0428958 -2.2242458 0.07670176 2.3509804e-38
3.0429337 -2.2285998 0.085329175 2.3509809e-38
3.0456815 -2.2298985 0.10128528 2.3509814e-38
3.0516264 -2.2301555 0.13085949 2.3509818e-38
3.0571654 -2.2299085 0.15746808 2.3509823e-38
3.0601711 -2.2317069 0.17565364 2.3509827e-38
3.0630219 -2.2322152 0.1905821 2.3509831e-38
3.0660205 -2.2319186 0.20467007 2.3509835e-38
3.0746913 -2.2341328 0.2513696 2.3509841e-38
3.0791061 -2.2383099 0.28105891 2.3509845e-38
3.0799427 -2.2444701 0.29709911 2.3509849e-38
3.0900788 -2.2417476 0.34139001 2.3509853e-38
3.0917788 -2.2456088 0.357189 2.3509858e-38
3.0968022 -2.2409954 0.37281108 2.3509863e-38
3.1003697 -2.2391956 0.38676858 2.3509867e-38
3.1057746 -2.2408993 0.41650367 2.3509872e-38
3.1066804 -2.2638698 0.46547925 2.3509876e-38
3.1132116 -2.2532234 0.4767729 2.350988e-38
