# .PCD v0.7 - Point Cloud Data file format
VERSION 0.7
FIELDS x y z rgb
SIZE 4 4 4 4
TYPE F F F F
COUNT 1 1 1 1
WIDTH 69
HEIGHT 1
VIEWPOINT 0 0 0 1 0 0 0
POINTS 69
DATA ascii
-1.6926218 -2.0054352 0.64423591 2.3509528e-38
-1.6744614 -2.0044992 0.63799089 2.3509532e-38
-1.6586622 -2.0038326 0.63761568 2.3509538e-38
-1.6448805 -2.0033607 0.64107263 2.3509544e-38
-1.6086047 -2.0019946 0.64588046 2.3509548e-38
-1.6121678 -2.0041766 0.71569216 2.3509554e-38
-1.6184795 -2.0049896 0.73459876 2.3509559e-38
-1.6202692 -2.0056531 0.75482416 2.3509563e-38
-1.6294146 -2.006556 0.77278167 2.3509569e-38
-1.6327299 -2.0082281 0.82544321 2.3509575e-38
-1.6384257 -2.0094242 0.8583796 2.3509579e-38
-1.6401359 -2.0103154 0.8865301 2.3509584e-38
-1.63894 -2.0113187 0.92266053 2.350959e-38
-1.6357639 -2.0115809 0.93620276 2.3509596e-38
-1.6302297 -2.011749 0.94985944 2.35096e-38
-1.6247463 -2.0123329 0.97771758 2.3509605e-38
-1.6319362 -2.0131857 0.99673253 2.3509611e-38
-1.6352626 -2.0138593 1.0151063 2.3509615e-38
-1.6392859 -2.0149746 1.0476567 2.3509621e-38
-1.6444387 -2.0161943 1.0821809 2.3509626e-38
-1.6517632 -2.0169098 1.096303 2.3509631e-38
-1.6555709 -2.0181344 1.1328995 2.3509636e-38
-1.6551667 -2.0185487 1.1476883 2.3509642e-38
-1.6538032 -2.0189829 1.1645464 2.3509647e-38
-1.6481607 -2.0194991 1.1903087 2.3509652e-38
-1.6462464 -2.01985 1.2050774 2.3509657e-38
-1.6378706 -2.0202942 1.2322601 2.3509663e-38
-1.6352439 -2.0205889 1.2461044 2.3509667e-38
-1.6374323 -2.0210874 1.2601039 2.3509673e-38
-1.6410974 -2.0221329 1.2907695 2.3509678e-38
-1.644998 -2.0228782 1.3107934 2.3509682e-38
-1.6519021 -2.0237195 1.3298156 2.3509688e-38
-1.6572932 -2.0244997 1.3489115 2.3509694e-38
-1.6742586 -2.025918 1.3734151 2.3509698e-38
-1.6795892 -2.0266955 1.3925138 2.3509703e-38
-1.6975913 -2.0280666 1.413918 2.3509709e-38
-1.7371204 -2.0298729 1.4195689 2.3509715e-38
-1.756309 -2.0305073 1.414008 2.3509719e-38
-1.7625116 -2.0297208 1.3781723 2.3509724e-38
-1.7679952 -2.0295508 1.364518 2.350973e-38
-1.7681192 -2.0286491 1.3333963 2.3509734e-38
-1.7667947 -2.0259969 1.244247 2.350974e-38
-1.7862107 -2.0262489 1.2252333 2.3509745e-38
-1.8070855 -2.0265093 1.204416 2.350975e-38
-1.8248312 -2.0265856 1.1817453 2.3509755e-38
-1.8302393 -2.0264001 1.1676708 2.3509761e-38
-1.8355982 -2.0262334 1.1543155 2.3509767e-38
-1.8328464 -2.0256259 1.1373833 2.3509771e-38
-1.8301504 -2.0241108 1.0892199 2.3509776e-38
-1.8385524 -2.0236673 1.0620359 2.3509782e-38
-1.8405606 -2.0233018 1.0466233 2.3509786e-38
-1.8368521 -2.0226529 1.0296236 2.3509792e-38
-1.8259952 -2.0207124 0.97849959 2.3509797e-38
-1.8295949 -2.0204461 0.96423393 2.3509802e-38
-1.8279275 -2.0193837 0.93014503 2.3509807e-38
-1.8206259 -2.0180073 0.89329797 2.3509813e-38
-1.8216678 -2.0176561 0.87977004 2.3509817e-38
-1.7970694 -2.0157578 0.84966755 2.3509823e-38
-1.7840308 -2.0150604 0.84433091 2.3509828e-38
-1.7699983 -2.0143239 0.83904248 2.3509834e-38
-1.7107087 -2.0102961 0.78529668 2.3509838e-38
-1.7041037 -2.0085125 0.73348927 2.3509844e-38
-1.7001281 -2.0077901 0.71434969 2.3509849e-38
0.43958777 -1.9169555 0.64610779 2.3509853e-38
0.44271392 -1.9166532 0.64018774 2.3509859e-38
0.44033888 -1.9166735 0.63750577 2.3509865e-38
0.41964245 -1.9169886 0.61882132 2.3509869e-38
0.41643274 -1.9177043 0.63881457 2.3509874e-38
0.42484358 -1.9176012 0.64726329 2.350988e-38
