# .PCD v0.7 - Point Cloud Data file format
VERSION 0.7
FIELDS x y z rgb
SIZE 4 4 4 4
TYPE F F F F
COUNT 1 1 1 1
WIDTH 101
HEIGHT 1
VIEWPOINT 0 0 0 1 0 0 0
POINTS 101
DATA ascii
-1.4556313 2.762686 -0.72712636 2.3509528e-38
-1.3599621 2.7669542 -0.68302882 2.3509531e-38
-1.447023 2.7650986 -0.76808715 2.3509535e-38
-1.4465882 2.7651997 -0.76968455 2.3509538e-38
-1.446082 2.766331 -0.79400218 2.3509542e-38
-1.4516501 2.7679806 -0.83861029 2.3509545e-38
-1.3134588 2.7766337 -0.82997906 2.3509549e-38
-1.28785 2.777827 -0.81930363 2.3509552e-38
-1.2826487 2.7781308 -0.81849277 2.3509556e-38
-1.2622955 2.779314 -0.8152048 2.3509559e-38
-1.2381977 2.7810674 -0.81911165 2.3509563e-38
-1.2014816 2.7836182 -0.82238817 2.3509566e-38
-1.1876596 2.7845221 -0.82238376 2.350957e-38
-1.1518726 2.7865999 -0.81653923 2.3509573e-38
-1.0965176 2.7905414 -0.82361627 2.3509577e-38
-1.0596551 2.792804 -0.82030231 2.350958e-38
-1.0188495 2.7954156 -0.81900394 2.3509584e-38
-1.0056678 2.7964597 -0.82303101 2.3509587e-38
-1.0455333 2.7939274 -0.82471293 2.3509591e-38
-1.0800636 2.7918653 -0.82909203 2.3509594e-38
-1.1195539 2.7899983 -0.84496868 2.3509598e-38
-1.1292045 2.7897696 -0.85388321 2.3509603e-38
-1.1463143 2.7895088 -0.87289673 2.3509605e-38
-1.1719679 2.7883103 -0.88352948 2.350961e-38
-1.2047963 2.7862687 -0.88588566 2.3509612e-38
-1.2267976 2.7852871 -0.89602822 2.3509617e-38
-1.2540307 2.7836759 -0.89981049 2.3509619e-38
-1.2769136 2.7821443 -0.89905912 2.3509624e-38
-1.3279054 2.7793059 -0.91008055 2.3509626e-38
-1.4573184 2.7699084 -0.88950437 2.3509631e-38
-1.4913334 2.771009 -0.96316499 2.3509633e-38
-1.6069479 2.760339 -0.89441258 2.3509638e-38
-1.6429658 2.7584651 -0.90509796 2.350964e-38
-1.6692066 2.7569015 -0.90850776 2.3509645e-38
-1.6695714 2.756557 -0.90139556 2.3509647e-38
-1.6648573 2.7551792 -0.86406636 2.3509652e-38
-1.6662644 2.7537935 -0.83542043 2.3509654e-38
-1.6635982 2.7524869 -0.80262452 2.3509659e-38
-1.6647747 2.7512848 -0.77770776 2.3509661e-38
-1.666003 2.7509503 -0.77207863 2.3509666e-38
-1.6744542 2.7485728 -0.73168367 2.3509668e-38
-1.6710321 2.7467401 -0.68614036 2.3509673e-38
-1.6740311 2.7450686 -0.6534763 2.3509677e-38
-1.6720048 2.7445529 -0.63911611 2.350968e-38
-1.6746271 2.7429025 -0.60637271 2.3509684e-38
-1.6775936 2.7412472 -0.57401145 2.3509687e-38
-1.6822641 2.7388105 -0.52683109 2.3509691e-38
-1.6829075 2.7373719 -0.4959015 2.3509694e-38
-1.6805197 2.7369621 -0.48337722 2.3509698e-38
-1.6815743 2.7353032 -0.44817126 2.3509701e-38
-1.6694281 2.7348397 -0.4203071 2.3509705e-38
-1.6676913 2.7342799 -0.40538564 2.3509708e-38
-1.6591712 2.7314377 -0.33011061 2.3509712e-38
-1.6649067 2.7302685 -0.31252927 2.3509715e-38
-1.6736624 2.7278526 -0.27173039 2.3509719e-38
-1.6723412 2.7254736 -0.21712893 2.3509722e-38
-1.6792921 2.7242532 -0.20017391 2.3509726e-38
-1.6780208 2.7230718 -0.1721787 2.3509729e-38
-1.6792862 2.7208257 -0.12427689 2.3509733e-38
-1.6868727 2.7195733 -0.10752991 2.3509736e-38
-1.6900026 2.7179058 -0.075142682 2.350974e-38
-1.6922067 2.7170329 -0.059009582 2.3509744e-38
-1.6943954 2.7162058 -0.043867961 2.3509747e-38
-1.6892312 2.715162 -0.013271526 2.3509751e-38
-1.693881 2.7133503 0.020111978 2.3509754e-38
-1.6868054 2.7125363 0.048384614 2.3509758e-38
-1.6934234 2.7098489 0.098304428 2.3509761e-38
-1.6947803 2.7090402 0.11425159 2.3509765e-38
-1.6710727 2.7087801 0.15435363 2.3509768e-38
-1.6549591 2.7099659 0.15143619 2.3509772e-38
-1.6324854 2.7122581 0.1332494 2.3509775e-38
-1.6451346 2.7135575 0.086145103 2.3509779e-38
-1.63486 2.715677 0.054105528 2.3509782e-38
-1.6318258 2.7179313 0.0085754916 2.3509786e-38
-1.6285651 2.7189226 -0.0086463094 2.3509789e-38
-1.6247041 2.7198563 -0.023720667 2.3509793e-38
-1.6238525 2.7213092 -0.054657549 2.3509796e-38
-1.6252811 2.7218742 -0.069242567 2.35098e-38
-1.6314929 2.7236297 -0.11711884 2.3509803e-38
-1.6477293 2.724628 -0.16274612 2.3509807e-38
-1.645938 2.7255104 -0.17969197 2.350981e-38
-1.6540699 2.7276504 -0.23886095 2.3509814e-38
-1.625627 2.7325561 -0.30627525 2.3509818e-38
-1.62102 2.7343221 -0.33870876 2.3509821e-38
-1.5461789 2.7414894 -0.38897002 2.3509825e-38
-1.553898 2.7410755 -0.39099681 2.3509828e-38
-1.6077061 2.7416646 -0.48200315 2.3509832e-38
-1.5699099 2.746156 -0.52668691 2.3509835e-38
-1.5676134 2.747057 -0.54331177 2.3509839e-38
-1.5957372 2.7469289 -0.58122075 2.3509842e-38
-1.60523 2.748142 -0.6218437 2.3509846e-38
-1.5921181 2.7509305 -0.66458958 2.3509849e-38
-1.5901686 2.75179 -0.68079627 2.3509853e-38
-1.6057585 2.751857 -0.70486778 2.3509856e-38
-1.6135164 2.7536209 -0.75516719 2.350986e-38
-1.6073463 2.7556303 -0.79071909 2.3509863e-38
-1.5993215 2.7569346 -0.80796993 2.3509867e-38
-1.5809999 2.7595119 -0.83849841 2.350987e-38
-1.4732219 2.7659924 -0.82584107 2.3509874e-38
-1.4626119 2.7638991 -0.76411515 2.3509877e-38
-1.4641422 2.7622395 -0.72957265 2.3509881e-38
