# .PCD v0.7 - Point Cloud Data file format
VERSION 0.7
FIELDS x y z rgb
SIZE 4 4 4 4
TYPE F F F F
COUNT 1 1 1 1
WIDTH 64
HEIGHT 1
VIEWPOINT 0 0 0 1 0 0 0
POINTS 64
DATA ascii
1.6626905 2.6524317 0.18721132 2.3509528e-38
1.6642251 2.6528447 0.17783724 2.3509532e-38
1.6580148 2.6581929 0.1668639 2.3509538e-38
1.642249 2.6645296 0.18944804 2.3509544e-38
1.6329787 2.6683972 0.20174068 2.3509549e-38
1.6410112 2.6630177 0.20521575 2.3509555e-38
2.2319496 2.4671576 -0.93148077 2.3509561e-38
2.2367015 2.4664121 -0.94639826 2.3509566e-38
2.2400513 2.4633341 -0.93913054 2.3509572e-38
2.2387919 2.462019 -0.92463803 2.3509577e-38
2.2340612 2.462275 -0.90639842 2.3509583e-38
2.2230208 2.46804 -0.89983201 2.3509589e-38
1.4679974 2.8726549 -0.5230298 2.3509594e-38
1.4638613 2.8819346 -0.57017875 2.35096e-38
1.4681611 2.8850048 -0.60976672 2.3509605e-38
1.47088 2.8870602 -0.63559425 2.3509611e-38
1.4740143 2.8905802 -0.67338574 2.3509617e-38
1.4725708 2.8933837 -0.68680847 2.3509622e-38
1.4840958 2.8884737 -0.70138001 2.3509628e-38
1.4951847 2.8834586 -0.71337712 2.3509633e-38
1.507094 2.8778393 -0.72463405 2.3509639e-38
1.5397822 2.8614888 -0.74907982 2.3509645e-38
1.5523012 2.8547406 -0.75505543 2.350965e-38
1.5675449 2.8454895 -0.75512421 2.3509656e-38
1.5959761 2.8296351 -0.76500332 2.3509661e-38
1.6086397 2.8214815 -0.76179886 2.3509667e-38
1.6141618 2.8174739 -0.75725102 2.3509673e-38
1.6443214 2.7953925 -0.73106408 2.3509678e-38
1.6354157 2.7978802 -0.71069968 2.3509684e-38
1.6286871 2.7964196 -0.67204297 2.3509689e-38
1.6197498 2.7972214 -0.63980377 2.3509695e-38
1.6245887 2.7879586 -0.59574878 2.3509701e-38
1.620788 2.7877471 -0.57818925 2.3509706e-38
1.6209348 2.7810695 -0.53228343 2.3509712e-38
1.623517 2.7761347 -0.50883347 2.3509717e-38
1.6208249 2.7752628 -0.491364 2.3509723e-38
1.6212566 2.7718246 -0.46923721 2.3509729e-38
1.6182207 2.7706354 -0.4481037 2.3509734e-38
1.5769056 2.7838969 -0.36561996 2.350974e-38
1.5859421 2.7743061 -0.33704817 2.3509745e-38
1.5883512 2.7714891 -0.32762209 2.3509751e-38
1.5952387 2.7595882 -0.27386001 2.3509757e-38
1.595763 2.7572622 -0.25987306 2.3509762e-38
1.5904636 2.7541516 -0.21576852 2.3509768e-38
1.5926605 2.7511146 -0.20391122 2.3509774e-38
1.5864991 2.7521172 -0.1848152 2.3509779e-38
1.5774705 2.755775 -0.17208254 2.3509785e-38
1.5708028 2.7609553 -0.17995444 2.350979e-38
1.4647263 2.8224056 -0.15908858 2.3509796e-38
1.4466442 2.830709 -0.14040253 2.3509802e-38
1.4451272 2.8334813 -0.15329975 2.3509807e-38
1.456493 2.8349931 -0.21194354 2.3509813e-38
1.4560707 2.8369877 -0.22404823 2.3509818e-38
1.4531544 2.8434241 -0.25655058 2.3509824e-38
1.4625953 2.8408935 -0.27887911 2.350983e-38
1.467854 2.8413901 -0.30460033 2.3509835e-38
1.4677902 2.8455873 -0.33356988 2.3509841e-38
1.4585994 2.8551676 -0.36141708 2.3509846e-38
1.4560379 2.857693 -0.36816475 2.3509852e-38
1.4648767 2.8596654 -0.41931984 2.3509858e-38
1.462695 2.8629434 -0.43292481 2.3509863e-38
1.4578695 2.8687234 -0.45277205 2.3509869e-38
1.4610875 2.8698487 -0.47423294 2.3509874e-38
1.4618913 2.87236 -0.49513152 2.350988e-38
