# .PCD v0.7 - Point Cloud Data file format
VERSION 0.7
FIELDS x y z rgb
SIZE 4 4 4 4
TYPE F F F F
COUNT 1 1 1 1
WIDTH 966
HEIGHT 1
VIEWPOINT 0 0 0 1 0 0 0
POINTS 966
DATA ascii
-1.5819526 2.6761904 1.4877579 2.3509528e-38
-1.5329537 2.6945477 1.4877586 2.3509528e-38
-1.4956567 2.6718526 1.4881705 2.3509528e-38
-1.4747605 2.6661787 1.4883221 2.3509528e-38
-1.4074358 2.6946771 1.4882867 2.350953e-38
-1.3652701 2.6732829 1.4887047 2.350953e-38
-1.3076301 2.6864195 1.4888002 2.350953e-38
-1.2983148 2.6911273 1.4887868 2.350953e-38
-1.1900264 2.6592658 1.4896011 2.3509531e-38
-1.0803485 2.7053537 1.4895468 2.3509531e-38
-1.0757101 2.699285 1.4896343 2.3509531e-38
-1.0681933 2.6803725 1.4898782 2.3509531e-38
-0.94975263 2.6577063 1.4906322 2.3509532e-38
-0.91770208 2.6580851 1.4907631 2.3509532e-38
-0.89526659 2.6530983 1.4909137 2.3509532e-38
-0.86264944 2.6536655 1.4910449 2.3509532e-38
-0.82448673 2.6566343 1.4911727 2.3509534e-38
-0.81340802 2.6600652 1.4911809 2.3509534e-38
-0.79889113 2.667763 1.4911559 2.3509534e-38
-0.72817153 2.673708 1.4913874 2.3509535e-38
-0.71553558 2.6770883 1.4914027 2.3509535e-38
-0.6367957 2.7045937 1.4914266 2.3509535e-38
-0.60578752 2.7070177 1.4915301 2.3509535e-38
-0.59105223 2.7121999 1.491534 2.3509537e-38
-0.58440679 2.7093179 1.4915944 2.3509537e-38
-0.547126 2.6971469 1.4918884 2.3509537e-38
-0.47769263 2.70418 1.4921024 2.3509537e-38
-0.46455386 2.7114308 1.4920765 2.3509538e-38
-0.38113672 2.730716 1.4922119 2.3509538e-38
-0.32156032 2.7274604 1.4924998 2.3509538e-38
-0.31359354 2.7010944 1.4928292 2.3509538e-38
-0.31225482 2.6907957 1.4929503 2.3509539e-38
-0.31527859 2.673481 1.4931319 2.3509539e-38
-0.32907808 2.6160133 1.4937181 2.3509539e-38
-0.33205801 2.5844371 1.4940598 2.3509539e-38
-0.33792716 2.5455723 1.494471 2.3509541e-38
-0.33548987 2.5300033 1.4946557 2.3509541e-38
-0.33502838 2.4971557 1.4950262 2.3509541e-38
-0.33965656 2.4618118 1.4954033 2.3509542e-38
-0.36431751 2.4192314 1.4957767 2.3509542e-38
-0.38911217 2.3701673 1.4962225 2.3509542e-38
-0.40435389 2.3317933 1.4965886 2.3509542e-38
-0.41203752 2.3087342 1.4968147 2.3509544e-38
-0.41739473 2.2910349 1.4969908 2.3509544e-38
-0.41838342 2.2723534 1.4971961 2.3509544e-38
-0.41907039 2.2646496 1.4972795 2.3509544e-38
-0.40276876 2.1987007 1.4980881 2.3509545e-38
-0.39419878 2.1843021 1.4982858 2.3509545e-38
-0.37259939 2.1522522 1.4987365 2.3509545e-38
-0.35794452 2.1070442 1.4993052 2.3509545e-38
-0.35607934 2.0709989 1.4997174 2.3509547e-38
-0.36382553 2.0552461 1.4998614 2.3509547e-38
-0.37269962 2.0318103 1.5000867 2.3509547e-38
-0.37551764 2.0159574 1.5002526 2.3509547e-38
-0.38482526 1.9977797 1.5004172 2.3509548e-38
-0.39627019 1.9535099 1.5008657 2.3509548e-38
-0.39394572 1.9234916 1.5012122 2.3509548e-38
-0.39036956 1.8743657 1.5017781 2.3509549e-38
-0.38330859 1.8615226 1.5019522 2.3509549e-38
-0.39343882 1.8228736 1.5023429 2.3509549e-38
-0.40255406 1.8028609 1.502529 2.3509549e-38
-0.49112603 1.7722842 1.5024983 2.3509551e-38
-0.51265782 1.777608 1.5023477 2.3509551e-38
-0.54448164 1.7775064 1.5022147 2.3509551e-38
-0.58111084 1.7585678 1.5022726 2.3509551e-38
-0.58937484 1.7543153 1.5022852 2.3509552e-38
-0.60940063 1.7439288 1.5023174 2.3509552e-38
-0.6185146 1.7432659 1.5022864 2.3509552e-38
-0.66198933 1.7334 1.5022137 2.3509552e-38
-0.6809721 1.7210168 1.5022724 2.3509554e-38
-0.69651914 1.7143308 1.5022819 2.3509554e-38
-0.710154 1.7075696 1.5023001 2.3509554e-38
-0.75536686 1.701169 1.5021813 2.3509555e-38
-0.78379601 1.690873 1.5021769 2.3509555e-38
-0.80198979 1.6848379 1.5021677 2.3509555e-38
-0.84594482 1.6393915 1.5024921 2.3509555e-38
-0.89112639 1.6141549 1.5025845 2.3509556e-38
-0.92134583 1.565616 1.5030015 2.3509556e-38
-0.93136358 1.5603939 1.5030175 2.3509556e-38
-0.9445799 1.5535135 1.503039 2.3509556e-38
-0.99362743 1.5115831 1.5033026 2.3509558e-38
-1.0687321 1.4560831 1.5036083 2.3509558e-38
-1.0869699 1.4474676 1.503628 2.3509558e-38
-1.112888 1.4331199 1.5036796 2.3509558e-38
-1.1265255 1.4261267 1.5037005 2.3509559e-38
-1.1393495 1.4202853 1.5037119 2.3509559e-38
-1.1524723 1.4126024 1.5037427 2.3509559e-38
-1.1684344 1.4029508 1.5037837 2.3509559e-38
-1.2040063 1.369366 1.5040103 2.3509561e-38
-1.2348367 1.3369159 1.5042442 2.3509561e-38
-1.2514966 1.3282591 1.504271 2.3509561e-38
-1.2767172 1.3151604 1.5043114 2.3509562e-38
-1.299243 1.2869986 1.5045323 2.3509562e-38
-1.3350897 1.2518433 1.5047753 2.3509562e-38
-1.3438714 1.2308693 1.5049736 2.3509562e-38
-1.3502178 1.2114307 1.5051647 2.3509563e-38
-1.3802261 1.1624366 1.5055879 2.3509563e-38
-1.3999307 1.1370659 1.5057893 2.3509563e-38
-1.4078414 1.1168541 1.5059826 2.3509563e-38
-1.4286542 1.0878284 1.5062203 2.3509565e-38
-1.4354593 1.0743729 1.5063424 2.3509565e-38
-1.4445519 1.0466235 1.5066155 2.3509565e-38
-1.4921608 0.98880976 1.5070632 2.3509565e-38
-1.5372279 0.9159416 1.5076903 2.3509566e-38
-1.5567858 0.88934261 1.5079062 2.3509566e-38
-1.566293 0.88241017 1.5079437 2.3509566e-38
-1.594238 0.83821821 1.5083216 2.3509566e-38
-1.5975742 0.80220199 1.5087115 2.3509568e-38
-1.6264213 0.75420469 1.5091281 2.3509568e-38
-1.652452 0.70768595 1.5095401 2.3509568e-38
-1.6601603 0.68719095 1.5097375 2.3509569e-38
-1.6657934 0.66508436 1.5099617 2.3509569e-38
-1.6822767 0.6297825 1.5102882 2.3509569e-38
-1.685571 0.57499188 1.5108888 2.3509569e-38
-1.695681 0.55323273 1.5110903 2.350957e-38
-1.6974757 0.51962048 1.5114596 2.350957e-38
-1.709269 0.48014221 1.5118527 2.350957e-38
-1.72071 0.47101969 1.5119067 2.350957e-38
-1.7539538 0.39102277 1.512664 2.3509572e-38
-1.7407024 0.33440876 1.5133547 2.3509572e-38
-1.7468891 0.31214818 1.5135783 2.3509572e-38
-1.7661602 0.28468084 1.513805 2.3509572e-38
-1.7760637 0.23102474 1.5143651 2.3509573e-38
-1.7670648 0.20267774 1.514721 2.3509573e-38
-1.7787483 0.1635187 1.5151109 2.3509573e-38
-1.779593 0.13026449 1.5154804 2.3509573e-38
-1.7765781 0.1153836 1.5156602 2.3509575e-38
-1.7794602 0.097352095 1.5158502 2.3509575e-38
-1.7885085 0.08334399 1.5159692 2.3509575e-38
-1.8044981 0.05121712 1.5162618 2.3509576e-38
-1.8066469 0.033680212 1.5164495 2.3509576e-38
-1.8086915 0.018693177 1.5166091 2.3509576e-38
-1.8118482 -0.0021059588 1.5168291 2.3509576e-38
-1.8082312 -0.033105265 1.5171919 2.3509577e-38
-1.8098446 -0.083346218 1.5177488 2.3509577e-38
-1.8207622 -0.096530572 1.5178506 2.3509577e-38
-1.8351068 -0.14602567 1.5183451 2.3509577e-38
-1.8372804 -0.1636872 1.5185341 2.3509579e-38
-1.8444231 -0.18392695 1.5187311 2.3509579e-38
-1.8496481 -0.21633767 1.5190727 2.3509579e-38
-1.8523028 -0.23721659 1.5192956 2.3509579e-38
-1.8449097 -0.28320754 1.5198427 2.350958e-38
-1.8382404 -0.29624504 1.5200169 2.350958e-38
-1.831418 -0.30920821 1.5201912 2.350958e-38
-1.8247457 -0.32224399 1.5203656 2.3509582e-38
-1.8189523 -0.33570749 1.520541 2.3509582e-38
-1.809056 -0.35109118 1.5207553 2.3509582e-38
-1.792022 -0.38383529 1.5211943 2.3509582e-38
-1.7820718 -0.4030872 1.5214522 2.3509583e-38
-1.7723595 -0.42311135 1.521718 2.3509583e-38
-1.7675326 -0.43702921 1.5218945 2.3509583e-38
-1.7553513 -0.46780851 1.5222911 2.3509583e-38
-1.7418623 -0.49381036 1.5226395 2.3509584e-38
-1.7351232 -0.506814 1.5228138 2.3509584e-38
-1.7148864 -0.54581517 1.5233366 2.3509584e-38
-1.6946595 -0.58482152 1.5238595 2.3509584e-38
-1.6879129 -0.59782124 1.5240338 2.3509586e-38
-1.6849 -0.6127547 1.524214 2.3509586e-38
-1.6839111 -0.62056357 1.5243057 2.3509586e-38
-1.6729357 -0.65611011 1.5247506 2.3509586e-38
-1.6661873 -0.66910881 1.5249249 2.3509587e-38
-1.6594284 -0.68210208 1.5250993 2.3509587e-38
-1.6526799 -0.6951012 1.5252736 2.3509587e-38
-1.645925 -0.70809662 1.5254478 2.3509589e-38
-1.6391788 -0.72109652 1.525622 2.3509589e-38
-1.6324263 -0.73409319 1.5257964 2.3509589e-38
-1.625746 -0.74712789 1.5259707 2.3509589e-38
-1.6189306 -0.76009172 1.5261449 2.350959e-38
-1.6122316 -0.77311635 1.5263194 2.350959e-38
-1.60544 -0.7860927 1.5264935 2.350959e-38
-1.5987225 -0.79910779 1.5266677 2.350959e-38
-1.5717154 -0.85109615 1.5273649 2.3509591e-38
-1.5649928 -0.86410856 1.527539 2.3509591e-38
-1.5355682 -0.9064371 1.528138 2.3509591e-38
-1.5295171 -0.91164732 1.5282218 2.3509591e-38
-1.5192978 -0.92284286 1.5283905 2.3509593e-38
-1.5057991 -0.94883966 1.5287392 2.3509593e-38
-1.5027463 -0.96375209 1.5289193 2.3509593e-38
-1.497539 -0.99411333 1.5292819 2.3509593e-38
-1.4620687 -1.0416555 1.5299649 2.3509594e-38
-1.4518055 -1.0528274 1.5301335 2.3509594e-38
-1.4450604 -1.0658281 1.5303078 2.3509594e-38
-1.438308 -1.0788249 1.5304819 2.3509596e-38
-1.4315629 -1.0918254 1.5306562 2.3509596e-38
-1.4241951 -1.1183552 1.5309849 2.3509596e-38
-1.4174316 -1.1341001 1.5311899 2.3509596e-38
-1.3820605 -1.1652131 1.5316882 2.3509597e-38
-1.3735723 -1.1785293 1.5318733 2.3509597e-38
-1.3536751 -1.2000093 1.5321982 2.3509597e-38
-1.3409119 -1.2124166 1.5323913 2.3509597e-38
-1.3040164 -1.2417134 1.5328754 2.3509598e-38
-1.2838342 -1.2628081 1.533197 2.3509598e-38
-1.270547 -1.2755994 1.5333966 2.3509598e-38
-1.2503881 -1.2948914 1.5336982 2.3509598e-38
-1.2380142 -1.3086089 1.5339043 2.35096e-38
-1.2248578 -1.3225513 1.5341163 2.35096e-38
-1.1804737 -1.3576515 1.5346969 2.35096e-38
-1.1703269 -1.367907 1.5348548 2.3509601e-38
-1.1615292 -1.3831943 1.5350636 2.3509601e-38
-1.1451528 -1.4054614 1.5353823 2.3509601e-38
-1.1227996 -1.426699 1.5357149 2.3509601e-38
-1.1064107 -1.434772 1.5358746 2.3509603e-38
-1.0912632 -1.4599056 1.5362202 2.3509603e-38
-1.0706394 -1.4822839 1.5365583 2.3509603e-38
-1.0435748 -1.5012306 1.536885 2.3509603e-38
-1.0217464 -1.5130359 1.5371095 2.3509604e-38
-0.99916357 -1.5275692 1.5373678 2.3509604e-38
-0.98960602 -1.5411235 1.5375605 2.3509604e-38
-0.94773418 -1.5874959 1.5382569 2.3509604e-38
-0.89203733 -1.603428 1.5386707 2.3509605e-38
-0.88188255 -1.6125746 1.5388161 2.3509605e-38
-0.85288203 -1.6332541 1.5391704 2.3509605e-38
-0.82976109 -1.639611 1.5393393 2.3509605e-38
-0.81197268 -1.6455772 1.5394812 2.3509607e-38
-0.79744941 -1.6539332 1.539636 2.3509607e-38
-0.74474883 -1.6757942 1.5401037 2.3509607e-38
-0.72594798 -1.6827685 1.5402611 2.3509608e-38
-0.6962499 -1.6839527 1.5403998 2.3509608e-38
-0.65293008 -1.7110406 1.5408863 2.3509608e-38
-0.63574278 -1.7185733 1.5410433 2.3509608e-38
-0.55399823 -1.742053 1.5416514 2.350961e-38
-0.52125198 -1.774698 1.5421559 2.350961e-38
-0.48556945 -1.7923177 1.5425041 2.350961e-38
-0.44731131 -1.8009204 1.5427619 2.350961e-38
-0.38885203 -1.8214067 1.5432382 2.3509611e-38
-0.30812281 -1.8351223 1.5437326 2.3509611e-38
-0.2983579 -1.8314283 1.5437323 2.3509611e-38
-0.28617671 -1.8251574 1.5437133 2.3509611e-38
-0.27822921 -1.8295969 1.5437968 2.3509612e-38
-0.18810824 -1.849229 1.5443974 2.3509612e-38
-0.18224829 -1.8460511 1.5443864 2.3509612e-38
-0.16839281 -1.838805 1.5443635 2.3509612e-38
-0.089190997 -1.8807321 1.5451678 2.3509614e-38
-0.019891974 -1.9105445 1.5457947 2.3509614e-38
0.019046763 -1.9197046 1.5460616 2.3509614e-38
0.031943623 -1.9184979 1.5461025 2.3509615e-38
0.085554704 -1.872313 1.5458107 2.3509615e-38
0.11810924 -1.9049155 1.5463136 2.3509615e-38
0.20224336 -1.8943189 1.5465496 2.3509615e-38
0.21411812 -1.8880389 1.5465293 2.3509617e-38
0.23126161 -1.8791684 1.5465021 2.3509617e-38
0.24415496 -1.8792018 1.5465571 2.3509617e-38
0.27958238 -1.8871368 1.5467952 2.3509617e-38
0.30274695 -1.8917074 1.5469444 2.3509618e-38
0.33942953 -1.8890656 1.5470695 2.3509618e-38
0.37398985 -1.8888046 1.5472124 2.3509618e-38
0.40835494 -1.8840262 1.5473038 2.3509618e-38
0.42067447 -1.8798901 1.5473094 2.3509619e-38
0.45251215 -1.8661714 1.5472897 2.3509619e-38
0.46512371 -1.8568926 1.5472388 2.3509619e-38
0.49942374 -1.8572032 1.5473871 2.3509619e-38
0.52893329 -1.8424644 1.5473464 2.3509621e-38
0.54151148 -1.8337584 1.5473017 2.3509621e-38
0.55448484 -1.826972 1.5472803 2.3509621e-38
0.56855255 -1.818261 1.5472419 2.3509622e-38
0.65103728 -1.8087876 1.5474837 2.3509622e-38
0.68473786 -1.7757827 1.5472555 2.3509622e-38
0.69557011 -1.7554651 1.5470734 2.3509622e-38
0.71363556 -1.7606568 1.5472078 2.3509624e-38
0.73509735 -1.7671876 1.5473717 2.3509624e-38
0.76852828 -1.7654433 1.5474932 2.3509624e-38
0.88419884 -1.7384431 1.5476784 2.3509624e-38
0.94435495 -1.7237525 1.5477672 2.3509625e-38
0.95748782 -1.7168925 1.5477457 2.3509625e-38
0.98843169 -1.6678454 1.5473261 2.3509625e-38
1.0475645 -1.6536187 1.5474161 2.3509625e-38
1.0691481 -1.6241111 1.547176 2.3509626e-38
1.0833342 -1.6186031 1.5471741 2.3509626e-38
1.1586101 -1.5629582 1.5468675 2.3509626e-38
1.172353 -1.5559013 1.5468462 2.3509628e-38
1.2903273 -1.5441173 1.5472119 2.3509628e-38
1.30443 -1.5388985 1.5472128 2.3509628e-38
1.347476 -1.447904 1.5463737 2.3509628e-38
1.4302671 -1.4715484 1.5469882 2.3509629e-38
1.4791539 -1.4627032 1.5470952 2.3509629e-38
1.5210562 -1.4079461 1.5466577 2.3509629e-38
1.5206976 -1.3750882 1.5462879 2.3509629e-38
1.5165467 -1.3314102 1.5457804 2.3509631e-38
1.507549 -1.3159091 1.5455685 2.3509631e-38
1.49932 -1.3035936 1.5453955 2.3509631e-38
1.4906478 -1.2903236 1.5452102 2.3509631e-38
1.4816523 -1.2795208 1.5450511 2.3509632e-38
1.4856791 -1.2607496 1.5448574 2.3509632e-38
1.491473 -1.2579092 1.5448501 2.3509632e-38
1.508734 -1.2656752 1.5450101 2.3509632e-38
1.6157503 -1.2267509 1.5450249 2.3509633e-38
1.6262758 -1.2047926 1.5448232 2.3509633e-38
1.618443 -1.1270862 1.5439184 2.3509633e-38
1.6107633 -1.1136799 1.5437356 2.3509635e-38
1.6087594 -1.1023154 1.5435997 2.3509635e-38
1.6139406 -1.0869695 1.5434493 2.3509635e-38
1.6248717 -1.0782906 1.5433981 2.3509635e-38
1.6497269 -1.0788319 1.5435091 2.3509636e-38
1.7526174 -1.056337 1.5436907 2.3509636e-38
1.7526536 -0.97335863 1.5427603 2.3509636e-38
1.7465291 -0.96361816 1.5426253 2.3509636e-38
1.7603889 -0.96955091 1.5427502 2.3509638e-38
1.7986445 -0.98311353 1.5430638 2.3509638e-38
1.8887852 -1.0024203 1.5436606 2.3509638e-38
1.9018483 -0.99559355 1.5436391 2.3509638e-38
1.9666245 -0.97861803 1.5437219 2.3509639e-38
1.9799302 -0.97167856 1.5437002 2.3509639e-38
2.0172486 -0.95101911 1.543626 2.3509639e-38
2.0313077 -0.94505405 1.5436183 2.3509639e-38
2.0504911 -0.93512148 1.5435878 2.350964e-38
2.0856276 -0.88348293 1.5431569 2.350964e-38
2.1167665 -0.88404489 1.5432947 2.350964e-38
2.1581602 -0.87908995 1.5434136 2.3509642e-38
2.1735187 -0.87115484 1.5433893 2.3509642e-38
2.2105892 -0.78544569 1.5425845 2.3509642e-38
2.2236576 -0.77877086 1.5425647 2.3509642e-38
2.2335021 -0.77388251 1.5425515 2.3509643e-38
2.2745733 -0.76966357 1.5426774 2.3509643e-38
2.3208704 -0.76134497 1.5427792 2.3509643e-38
2.3380041 -0.75266814 1.5427543 2.3509643e-38
2.3573763 -0.74314177 1.5427293 2.3509645e-38
2.3768716 -0.7487644 1.5428745 2.3509645e-38
2.3901038 -0.75841773 1.5430385 2.3509645e-38
2.4272952 -0.77254814 1.5433539 2.3509645e-38
2.4470878 -0.77805692 1.5434992 2.3509646e-38
2.4712043 -0.78224242 1.543648 2.3509646e-38
2.49382 -0.78712004 1.543798 2.3509646e-38
2.5226035 -0.78900653 1.5439407 2.3509647e-38
2.5368774 -0.79222202 1.544037 2.3509647e-38
2.5097921 -0.86256832 1.5447117 2.3509647e-38
2.5136943 -0.8754155 1.5448722 2.3509647e-38
2.5295651 -0.90037161 1.5452191 2.3509649e-38
2.5481369 -0.92634726 1.5455886 2.3509649e-38
2.5528212 -0.93804568 1.5457399 2.3509649e-38
2.5573843 -0.95072651 1.5459014 2.3509649e-38
2.56232 -0.9989177 1.5464627 2.350965e-38
2.6081069 -1.0425513 1.547145 2.350965e-38
2.6378107 -1.0613173 1.5474811 2.350965e-38
2.6753547 -1.0753328 1.5477967 2.350965e-38
2.6920979 -1.0804178 1.5479243 2.3509652e-38
2.7147515 -1.0853394 1.548075 2.3509652e-38
2.7264259 -1.0867183 1.5481397 2.3509652e-38
2.7346761 -1.0926484 1.548241 2.3509652e-38
2.7766454 -1.1190577 1.5487143 2.3509653e-38
2.7785537 -1.1276785 1.5488191 2.3509653e-38
2.752878 -1.1334963 1.548776 2.3509653e-38
2.73441 -1.1260428 1.5486145 2.3509654e-38
2.6707458 -1.1404934 1.548508 2.3509654e-38
2.6586268 -1.146795 1.5485276 2.3509654e-38
2.6215172 -1.1825192 1.5487717 2.3509654e-38
2.5728362 -1.2573156 1.5494053 2.3509656e-38
2.5595586 -1.2642425 1.549427 2.3509656e-38
2.5419881 -1.2733352 1.5494549 2.3509656e-38
2.5033343 -1.293381 1.5495166 2.3509656e-38
2.4147203 -1.3231601 1.5494769 2.3509657e-38
2.406038 -1.3438777 1.5496726 2.3509657e-38
2.3090897 -1.3942109 1.5498282 2.3509657e-38
2.3000584 -1.4471895 1.5503843 2.3509657e-38
2.2873902 -1.4549578 1.5504179 2.3509659e-38
2.3201797 -1.5867494 1.5520346 2.3509659e-38
2.3139937 -1.670782 1.552951 2.3509659e-38
2.3236845 -1.6838862 1.5531389 2.3509659e-38
2.3317394 -1.694553 1.5532925 2.350966e-38
2.354908 -1.7170126 1.5536422 2.350966e-38
2.3903918 -1.74808 1.5541403 2.350966e-38
2.3856745 -1.767204 1.554335 2.3509661e-38
2.3727527 -1.757443 1.554171 2.3509661e-38
2.3552561 -1.7498752 1.5540123 2.3509661e-38
2.3219197 -1.7194923 1.5535308 2.3509661e-38
2.2249718 -1.7022111 1.552928 2.3509663e-38
2.2104456 -1.7095114 1.5529487 2.3509663e-38
2.1958802 -1.7168301 1.5529691 2.3509663e-38
2.112993 -1.7270535 1.5527343 2.3509663e-38
2.1011033 -1.7333404 1.5527546 2.3509664e-38
2.0887151 -1.7398571 1.5527754 2.3509664e-38
2.0725162 -1.7318029 1.5526168 2.3509664e-38
1.9759032 -1.7655715 1.5525881 2.3509664e-38
1.9716499 -1.8172464 1.5531496 2.3509666e-38
1.9507771 -1.8933001 1.5539145 2.3509666e-38
1.9523242 -1.9029105 1.554029 2.3509666e-38
1.948041 -1.9607354 1.5546595 2.3509666e-38
1.9376426 -1.9750793 1.5547763 2.3509667e-38
1.9297004 -2.0362909 1.5554296 2.3509667e-38
1.942153 -2.0659258 1.5558145 2.3509667e-38
1.9497042 -2.0754077 1.5559527 2.3509668e-38
1.9379075 -2.1295357 1.55651 2.3509668e-38
1.9073358 -2.1469786 1.5565766 2.3509668e-38
1.8829449 -2.2091656 1.5571715 2.3509668e-38
1.7821013 -2.2793276 1.557533 2.350967e-38
1.7666727 -2.287293 1.5575572 2.350967e-38
1.7121549 -2.3076689 1.5575558 2.350967e-38
1.6903555 -2.3111889 1.5575033 2.350967e-38
1.6206321 -2.3301971 1.5574225 2.3509671e-38
1.6164244 -2.3326368 1.5574321 2.3509671e-38
1.6066747 -2.3356409 1.5574248 2.3509671e-38
1.5577941 -2.3230095 1.5570767 2.3509671e-38
1.5347867 -2.3256078 1.5570087 2.3509673e-38
1.5173476 -2.3328178 1.5570161 2.3509673e-38
1.5145042 -2.3342502 1.5570201 2.3509673e-38
1.4753742 -2.3379548 1.5568966 2.3509674e-38
1.4109874 -2.3384862 1.5566308 2.3509674e-38
1.378314 -2.3389597 1.5564985 2.3509674e-38
1.337379 -2.3435297 1.5563769 2.3509674e-38
1.3038518 -2.3450193 1.5562522 2.3509675e-38
1.2802837 -2.339844 1.5560948 2.3509675e-38
1.2414521 -2.3438451 1.5559759 2.3509675e-38
1.2113147 -2.3442583 1.5558532 2.3509675e-38
1.1785893 -2.3436511 1.5557084 2.3509677e-38
1.1428351 -2.3454373 1.5555778 2.3509677e-38
1.1068672 -2.3478296 1.5554528 2.3509677e-38
1.1017201 -2.3483691 1.5554371 2.3509677e-38
1.0795497 -2.3455288 1.5553118 2.3509678e-38
1.0479975 -2.3450437 1.5551732 2.3509678e-38
1.0325644 -2.345268 1.5551106 2.3509678e-38
1.0214441 -2.3466187 1.5550787 2.3509678e-38
1.0057688 -2.3506937 1.5550585 2.350968e-38
0.98438084 -2.3429425 1.5548812 2.350968e-38
0.95012742 -2.3393536 1.5546963 2.350968e-38
0.9320851 -2.3224783 1.5544311 2.3509681e-38
0.83559096 -2.3246338 1.5540483 2.3509681e-38
0.77997667 -2.3205843 1.5537682 2.3509681e-38
0.75100666 -2.3017926 1.5534351 2.3509681e-38
0.73042953 -2.2960227 1.5532836 2.3509682e-38
0.66977513 -2.3110511 1.5531963 2.3509682e-38
0.65220028 -2.3201118 1.5532236 2.3509682e-38
0.6067034 -2.3295834 1.5531381 2.3509682e-38
0.53122795 -2.3169317 1.5526779 2.3509684e-38
0.51569152 -2.3228717 1.5526789 2.3509684e-38
0.44290841 -2.3626776 1.5528183 2.3509684e-38
0.43283305 -2.3686905 1.5528432 2.3509684e-38
0.37708333 -2.4149089 1.5531263 2.3509685e-38
0.37508863 -2.3837857 1.5527689 2.3509685e-38
0.37069553 -2.3675828 1.5525688 2.3509685e-38
0.369192 -2.3353465 1.5522008 2.3509685e-38
0.36427331 -2.3214114 1.5520238 2.3509687e-38
0.35811913 -2.3081396 1.5518489 2.3509687e-38
0.35097557 -2.262301 1.5513045 2.3509687e-38
0.34269318 -2.2500103 1.5511318 2.3509688e-38
0.33282557 -2.2140455 1.5506868 2.3509688e-38
0.33484691 -2.2052455 1.5505966 2.3509688e-38
0.31900263 -2.1468763 1.549875 2.3509688e-38
0.31234431 -2.133831 1.5497005 2.3509689e-38
0.26072475 -2.096473 1.549064 2.3509689e-38
0.25756791 -2.0952172 1.5490365 2.3509689e-38
0.23731337 -2.0901566 1.5488942 2.3509689e-38
0.21329403 -2.0860817 1.5487472 2.3509691e-38
0.19913048 -2.0866563 1.5486939 2.3509691e-38
0.14887962 -2.1087976 1.5487303 2.3509691e-38
0.13419169 -2.1214926 1.5488107 2.3509691e-38
0.13044816 -2.1255341 1.5488403 2.3509692e-38
0.11911163 -2.1345594 1.5488937 2.3509692e-38
0.099155165 -2.1626689 1.549125 2.3509692e-38
0.095295057 -2.2130129 1.5496732 2.3509692e-38
0.093098454 -2.2473068 1.5500486 2.3509694e-38
0.093543537 -2.2553859 1.5501411 2.3509694e-38
0.094501182 -2.2629447 1.5502299 2.3509694e-38
0.088987939 -2.2854989 1.5504596 2.3509695e-38
0.093940645 -2.3292491 1.5509713 2.3509695e-38
0.088095404 -2.3488584 1.5511665 2.3509695e-38
0.087418623 -2.3828375 1.5515448 2.3509695e-38
0.024856701 -2.3651967 1.551083 2.3509696e-38
0.0077742613 -2.357528 1.550925 2.3509696e-38
-0.036326103 -2.3472946 1.550624 2.3509696e-38
-0.070082217 -2.3520069 1.5505345 2.3509696e-38
-0.079221621 -2.353173 1.5505091 2.3509698e-38
-0.14052552 -2.351965 1.5502367 2.3509698e-38
-0.15594171 -2.3596008 1.5502574 2.3509698e-38
-0.17100427 -2.3512883 1.5501007 2.3509698e-38
-0.21697646 -2.342258 1.5498055 2.3509699e-38
-0.30130088 -2.3527896 1.5495679 2.3509699e-38
-0.32447881 -2.3803787 1.5497795 2.3509699e-38
-0.33467901 -2.3880944 1.549823 2.3509701e-38
-0.43049225 -2.4031246 1.5495874 2.3509701e-38
-0.43719587 -2.4074395 1.5496075 2.3509701e-38
-0.51938063 -2.452986 1.5497719 2.3509701e-38
-0.52765006 -2.4696829 1.549924 2.3509702e-38
-0.53241658 -2.5310242 1.5505921 2.3509702e-38
-0.54027134 -2.5919709 1.5512426 2.3509702e-38
-0.54972243 -2.6388881 1.551729 2.3509702e-38
-0.55441755 -2.6652389 1.5520048 2.3509703e-38
-0.55634344 -2.6963313 1.5523454 2.3509703e-38
-0.56207019 -2.7186725 1.5525718 2.3509703e-38
-0.5683881 -2.7424359 1.5528115 2.3509703e-38
-0.57368731 -2.7589633 1.5529747 2.3509705e-38
-0.57641906 -2.7920511 1.5533341 2.3509705e-38
-0.61442691 -2.8283038 1.5535805 2.3509705e-38
-0.63686883 -2.9223874 1.5545412 2.3509705e-38
-0.64897352 -2.9286633 1.5545605 2.3509706e-38
-0.67527974 -2.9518163 1.5547093 2.3509706e-38
-0.70889056 -2.9593127 1.5546515 2.3509706e-38
-0.81223387 -2.9638009 1.554266 2.3509708e-38
-0.83363593 -2.9952495 1.5545282 2.3509708e-38
-0.86091667 -2.9725308 1.5541584 2.3509708e-38
-0.89572769 -2.9439642 1.5536913 2.3509708e-38
-0.95312768 -2.9048817 1.5530107 2.3509709e-38
-1.0787736 -2.887095 1.5522813 2.3509709e-38
-1.1174924 -2.8911083 1.5521629 2.3509709e-38
-1.1678054 -2.8346996 1.5513177 2.3509709e-38
-1.2549045 -2.7973952 1.550532 2.350971e-38
-1.3732965 -2.8092663 1.5501657 2.350971e-38
-1.4127173 -2.7636883 1.5494881 2.350971e-38
-1.4187281 -2.717469 1.5489445 2.350971e-38
-1.4156842 -2.6510818 1.5482124 2.3509712e-38
-1.4072323 -2.5994542 1.5476692 2.3509712e-38
-1.4100213 -2.5643656 1.5472639 2.3509712e-38
-1.4160404 -2.5513651 1.5470926 2.3509712e-38
-1.4545798 -2.5059793 1.5464208 2.3509713e-38
-1.4695642 -2.4969764 1.5462567 2.3509713e-38
-1.4566696 -2.4804001 1.5461252 2.3509713e-38
-1.453615 -2.4749794 1.5460773 2.3509715e-38
-1.4453857 -2.4507616 1.5458404 2.3509715e-38
-1.4453411 -2.4308777 1.5456176 2.3509715e-38
-1.442863 -2.416512 1.5454669 2.3509715e-38
-1.50959 -2.3024921 1.5439066 2.3509716e-38
-1.5607882 -2.2802839 1.5434414 2.3509716e-38
-1.5504503 -2.2413316 1.543048 2.3509716e-38
-1.5482361 -2.1879382 1.5424585 2.3509716e-38
-1.5518103 -2.1760607 1.5423104 2.3509717e-38
-1.5527842 -2.1458011 1.5419667 2.3509717e-38
-1.5989238 -2.0520887 1.5407211 2.3509717e-38
-1.6913111 -2.0504761 1.5403131 2.3509717e-38
-1.7126977 -2.0450735 1.5401623 2.3509719e-38
-1.816855 -2.0165958 1.5394036 2.3509719e-38
-1.8862492 -2.0525329 1.5395137 2.3509719e-38
-1.9012241 -2.0932839 1.5399076 2.350972e-38
-1.9230655 -2.1211057 1.5401275 2.350972e-38
-1.9428742 -2.1478686 1.5403442 2.350972e-38
-1.9711112 -2.1654148 1.5404221 2.350972e-38
-2.0076289 -2.1993392 1.5406486 2.3509722e-38
-2.0421021 -2.2311635 1.5408602 2.3509722e-38
-2.0485587 -2.2184668 1.5406904 2.3509722e-38
-2.1165988 -2.1554449 1.5396963 2.3509722e-38
-2.132602 -2.1307497 1.5393522 2.3509723e-38
-2.186024 -2.0924754 1.5386972 2.3509723e-38
-2.2704806 -2.0702584 1.5380919 2.3509723e-38
-2.2844796 -2.0776937 1.5381163 2.3509723e-38
-2.2584333 -2.0310311 1.5377027 2.3509724e-38
-2.32307 -1.9338166 1.5363395 2.3509724e-38
-2.3627374 -1.9201752 1.5360192 2.3509724e-38
-2.384814 -1.8817359 1.5354948 2.3509724e-38
-2.4126649 -1.8308833 1.534807 2.3509726e-38
-2.4388523 -1.8111587 1.5344752 2.3509726e-38
-2.4368598 -1.7434942 1.5337248 2.3509726e-38
-2.4660251 -1.68577 1.5329542 2.3509727e-38
-2.4691942 -1.6454359 1.5324885 2.3509727e-38
-2.4690154 -1.6123707 1.5321184 2.3509727e-38
-2.4700644 -1.5766525 1.5317132 2.3509727e-38
-2.4675589 -1.5139002 1.53102 2.3509729e-38
-2.4596078 -1.4920475 1.5308084 2.3509729e-38
-2.446444 -1.485249 1.5307877 2.3509729e-38
-2.4352322 -1.4770383 1.5307429 2.3509729e-38
-2.387645 -1.4219155 1.5303253 2.350973e-38
-2.3684886 -1.3953844 1.5301085 2.350973e-38
-2.3555372 -1.2897677 1.5289786 2.350973e-38
-2.3784151 -1.2686388 1.528645 2.350973e-38
-2.4217429 -1.2578447 1.5283411 2.3509731e-38
-2.4426103 -1.2524296 1.5281923 2.3509731e-38
-2.4557989 -1.1919485 1.5274585 2.3509731e-38
-2.4627504 -1.1803896 1.5272995 2.3509731e-38
-2.470541 -1.1658943 1.5271039 2.3509733e-38
-2.4882169 -1.0946082 1.5262297 2.3509733e-38
-2.4957907 -1.0820206 1.5260568 2.3509733e-38
-2.5145895 -1.0423032 1.5255319 2.3509734e-38
-2.5255392 -1.0314505 1.5253639 2.3509734e-38
-2.5295298 -1.017025 1.5251853 2.3509734e-38
-2.5358145 -1.0037947 1.5250105 2.3509734e-38
-2.5905507 -0.94971162 1.5241729 2.3509736e-38
-2.5975811 -0.93686014 1.5239992 2.3509736e-38
-2.6040282 -0.92370385 1.5238245 2.3509736e-38
-2.597332 -0.91778672 1.5237863 2.3509736e-38
-2.5190153 -0.83048701 1.5231373 2.3509737e-38
-2.52737 -0.8014347 1.5227764 2.3509737e-38
-2.5260918 -0.78453541 1.5225921 2.3509737e-38
-2.5157764 -0.72941512 1.5220175 2.3509737e-38
-2.5202136 -0.69750327 1.5216407 2.3509738e-38
-2.5667236 -0.6066398 1.5204254 2.3509738e-38
-2.5270281 -0.57058179 1.5201882 2.3509738e-38
-2.5226746 -0.51847303 1.5196222 2.3509738e-38
-2.5161011 -0.49856651 1.5194268 2.350974e-38
-2.5229161 -0.45259273 1.5188824 2.350974e-38
-2.5281389 -0.43996364 1.5187186 2.350974e-38
-2.5287404 -0.37311739 1.5179663 2.3509741e-38
-2.5214541 -0.35284019 1.5177697 2.3509741e-38
-2.5339775 -0.26034123 1.5166792 2.3509741e-38
-2.5757344 -0.21794136 1.5160276 2.3509741e-38
-2.5851629 -0.20439468 1.5158358 2.3509743e-38
-2.5875943 -0.12322943 1.5149151 2.3509743e-38
-2.5851254 -0.055889726 1.5141703 2.3509743e-38
-2.6051524 -0.016774658 1.5136468 2.3509743e-38
-2.6887703 0.0024772137 1.5130783 2.3509744e-38
-2.7020988 -0.002278097 1.5130756 2.3509744e-38
-2.7092161 -0.0047885384 1.5130736 2.3509744e-38
-2.7072849 0.010302828 1.5129124 2.3509744e-38
-2.6714926 0.047825992 1.5126426 2.3509745e-38
-2.6712463 0.11392412 1.5119022 2.3509745e-38
-2.6695883 0.13234779 1.5117024 2.3509745e-38
-2.5955071 0.16974437 1.5115957 2.3509747e-38
-2.5760443 0.26233238 1.5106392 2.3509747e-38
-2.5405238 0.31374347 1.5102123 2.3509747e-38
-2.522217 0.35284707 1.509851 2.3509747e-38
-2.5224426 0.38965678 1.5094373 2.3509748e-38
-2.5241132 0.42196545 1.5090679 2.3509748e-38
-2.5232058 0.45526183 1.5086982 2.3509748e-38
-2.5274851 0.46943784 1.508521 2.3509748e-38
-2.5266876 0.50303674 1.5081476 2.350975e-38
-2.5283363 0.53512597 1.5077807 2.350975e-38
-2.5271652 0.56865662 1.5074095 2.350975e-38
-2.5275426 0.60496038 1.5070008 2.350975e-38
-2.5273583 0.63718003 1.50664 2.3509751e-38
-2.5274413 0.66936749 1.5062788 2.3509751e-38
-2.5301504 0.71558577 1.5057489 2.3509751e-38
-2.5336087 0.73027724 1.5055695 2.3509751e-38
-2.5310442 0.7480188 1.5053815 2.3509752e-38
-2.5293708 0.78117985 1.5050166 2.3509752e-38
-2.5314448 0.81385088 1.5046412 2.3509752e-38
-2.5336809 0.8459661 1.5042717 2.3509754e-38
-2.5377326 0.8575756 1.5041243 2.3509754e-38
-2.5342877 0.89483202 1.5037209 2.3509754e-38
-2.5370834 0.92369533 1.5033854 2.3509754e-38
-2.5318489 0.96201408 1.5029776 2.3509755e-38
-2.5403788 1.0069846 1.5024374 2.3509755e-38
-2.5413108 1.0380803 1.5020845 2.3509755e-38
-2.5428562 1.055586 1.5018817 2.3509755e-38
-2.5443528 1.0875161 1.5015172 2.3509757e-38
-2.5416806 1.105819 1.5013232 2.3509757e-38
-2.5434878 1.1377558 1.5009574 2.3509757e-38
-2.545893 1.1695203 1.500591 2.3509757e-38
-2.5428503 1.2040843 1.500216 2.3509758e-38
-2.5445867 1.2363644 1.4998467 2.3509758e-38
-2.5451562 1.2701591 1.4994652 2.3509758e-38
-2.5449295 1.3032222 1.4990954 2.3509758e-38
-2.5491791 1.3163391 1.4989302 2.3509759e-38
-2.5493808 1.3492792 1.49856 2.3509759e-38
-2.5451171 1.4012715 1.4979948 2.3509759e-38
-2.548444 1.4328682 1.4976263 2.3509761e-38
-2.5488322 1.4681958 1.4972284 2.3509761e-38
-2.5527701 1.4800122 1.4970793 2.3509761e-38
-2.5478311 1.5322129 1.4965146 2.3509761e-38
-2.5495584 1.5476465 1.4963342 2.3509762e-38
-2.5533111 1.5787787 1.4959692 2.3509762e-38
-2.5538311 1.6110286 1.4956053 2.3509762e-38
-2.5561931 1.6597421 1.4950488 2.3509762e-38
-2.5545552 1.6779631 1.4948514 2.3509764e-38
-2.5528009 1.7111058 1.4944872 2.3509764e-38
-2.5522997 1.7443488 1.4941163 2.3509764e-38
-2.5476713 1.7634705 1.4939214 2.3509764e-38
-2.5529711 1.8102196 1.4933748 2.3509765e-38
-2.5589459 1.8236336 1.4931989 2.3509765e-38
-2.5571389 1.8572438 1.4928298 2.3509765e-38
-2.5531013 1.8761116 1.4926351 2.3509767e-38
-2.5546079 1.9084911 1.4922656 2.3509767e-38
-2.5566716 1.940322 1.4918997 2.3509767e-38
-2.5605872 1.9541194 1.4917284 2.3509767e-38
-2.5647831 2.0018921 1.4911749 2.3509768e-38
-2.5661361 2.0343912 1.4908048 2.3509768e-38
-2.5589297 2.0536306 1.4906194 2.3509768e-38
-2.5595002 2.120261 1.4898696 2.3509768e-38
-2.56533 2.1343653 1.4896867 2.3509769e-38
-2.5049355 2.1818795 1.4894087 2.3509769e-38
-2.4904797 2.2553861 1.4886451 2.3509769e-38
-2.4761293 2.2793393 1.4884369 2.3509769e-38
-2.4702146 2.2932153 1.4883063 2.3509771e-38
-2.4195743 2.3075531 1.4883591 2.3509771e-38
-2.3789945 2.3115864 1.488485 2.3509771e-38
-2.3574364 2.3083582 1.4886122 2.3509771e-38
-2.3217831 2.307302 1.4887744 2.3509772e-38
-2.3069134 2.3097975 1.4888091 2.3509772e-38
-2.2728736 2.3188396 1.4888513 2.3509772e-38
-2.2608252 2.324995 1.4888331 2.3509774e-38
-2.2460349 2.3325913 1.4888103 2.3509774e-38
-2.2335565 2.3392994 1.4887877 2.3509774e-38
-2.1801155 2.383013 1.488523 2.3509774e-38
-2.164206 2.439966 1.4879513 2.3509775e-38
-2.1636992 2.4693563 1.4876237 2.3509775e-38
-2.1581929 2.4772112 1.4875588 2.3509775e-38
-2.1534371 2.4789231 1.4875596 2.3509775e-38
-2.1386755 2.474282 1.487674 2.3509776e-38
-2.1204252 2.4639652 1.4878666 2.3509776e-38
-2.1074524 2.4540901 1.4880321 2.3509776e-38
-2.0164428 2.4347258 1.4886333 2.3509776e-38
-1.9294877 2.4795663 1.4884971 2.3509778e-38
-1.9194686 2.5203347 1.4880822 2.3509778e-38
-1.878147 2.5402737 1.4880327 2.3509778e-38
-1.8178875 2.6541796 1.4870095 2.3509778e-38
-1.8137801 2.6558657 1.4870079 2.3509779e-38
-1.7696528 2.6554434 1.4871987 2.3509779e-38
-1.7592103 2.648212 1.4873239 2.3509779e-38
-1.6446259 2.6043363 1.4882991 2.3509781e-38
-1.626169 2.6209688 1.4881907 2.3509781e-38
-1.5907207 2.6533942 1.4879764 2.3509781e-38
2.3670452 0.73153108 1.5262291 2.3509781e-38
2.4140205 0.72293872 1.5265239 2.3509782e-38
2.4474018 0.75466317 1.5263088 2.3509782e-38
2.4891741 0.76590765 1.5263588 2.3509782e-38
2.5018723 0.76851547 1.5263832 2.3509782e-38
2.4857171 0.90276223 1.5248091 2.3509783e-38
2.4864585 0.90898597 1.5247424 2.3509783e-38
2.5310819 0.96601248 1.5242913 2.3509783e-38
2.5853279 1.0273479 1.5238322 2.3509783e-38
2.5984893 1.0334108 1.5238196 2.3509785e-38
2.6140754 1.0412335 1.5237976 2.3509785e-38
2.6279616 1.0483106 1.5237769 2.3509785e-38
2.6457007 1.05753 1.5237483 2.3509785e-38
2.654845 1.0629524 1.523726 2.3509786e-38
2.6656563 1.0682572 1.523712 2.3509786e-38
2.6710799 1.0877085 1.5235168 2.3509786e-38
2.6707644 1.1216693 1.5231347 2.3509788e-38
2.6753981 1.139336 1.5229559 2.3509788e-38
2.6907148 1.180366 1.5225604 2.3509788e-38
2.7129636 1.2116015 1.5223039 2.3509788e-38
2.6896982 1.213118 1.5221888 2.3509789e-38
2.6714778 1.2200251 1.5220344 2.3509789e-38
2.6523647 1.2266103 1.5218798 2.3509789e-38
2.5818162 1.288401 1.5208893 2.3509789e-38
2.5814314 1.3209751 1.5205221 2.350979e-38
2.5779788 1.3687321 1.519972 2.350979e-38
2.5928235 1.4758623 1.5188329 2.350979e-38
2.6224055 1.5079917 1.5185974 2.350979e-38
2.6371741 1.5157799 1.5185723 2.3509792e-38
2.641367 1.5177176 1.5185683 2.3509792e-38
2.6591363 1.5443172 1.5183449 2.3509792e-38
2.6111948 1.575564 1.5177922 2.3509793e-38
2.6062951 1.5819322 1.5177002 2.3509793e-38
2.5653133 1.5936091 1.5173962 2.3509793e-38
2.5441096 1.6008511 1.5172255 2.3509793e-38
2.5024292 1.6438676 1.5165671 2.3509795e-38
2.4815335 1.6448716 1.5164677 2.3509795e-38
2.4371405 1.6395552 1.5163401 2.3509795e-38
2.4178178 1.6329658 1.5163325 2.3509795e-38
2.4051826 1.6250578 1.5163678 2.3509796e-38
2.3896816 1.6017164 1.5165644 2.3509796e-38
2.3590131 1.5548272 1.516961 2.3509796e-38
2.3462367 1.545097 1.5170161 2.3509796e-38
2.3306165 1.5039854 1.5174114 2.3509797e-38
2.3540771 1.4676192 1.5179182 2.3509797e-38
2.3162007 1.3654528 1.5189042 2.3509797e-38
2.2465272 1.3622231 1.5186468 2.3509797e-38
2.2173569 1.3607347 1.5185403 2.3509799e-38
2.1618087 1.3672642 1.5182327 2.3509799e-38
2.1481378 1.360342 1.5182526 2.3509799e-38
2.0742741 1.3748401 1.5177785 2.35098e-38
2.0232 1.3774182 1.5175341 2.35098e-38
1.9890242 1.3761638 1.517404 2.35098e-38
1.951848 1.3699001 1.5173174 2.35098e-38
1.9001001 1.3784248 1.5170037 2.3509802e-38
1.894284 1.3770784 1.5169941 2.3509802e-38
1.8814702 1.3700509 1.5170189 2.3509802e-38
1.782248 1.4022143 1.5162394 2.3509802e-38
1.7774057 1.4477357 1.5157084 2.3509803e-38
1.7930493 1.5071977 1.5151075 2.3509803e-38
1.7890629 1.5239609 1.5149029 2.3509803e-38
1.7915313 1.5871069 1.5142049 2.3509803e-38
1.774789 1.6096882 1.5138808 2.3509804e-38
1.7732298 1.6771224 1.513118 2.3509804e-38
1.7922008 1.7056152 1.5128784 2.3509804e-38
1.7917972 1.7368984 1.5125259 2.3509804e-38
1.7951316 1.8024193 1.5118051 2.3509806e-38
1.781626 1.8478739 1.5112381 2.3509806e-38
1.7964115 1.88771 1.5108538 2.3509806e-38
1.8211933 1.9186321 1.5106115 2.3509807e-38
1.8309131 1.9325452 1.5104964 2.3509807e-38
1.8358364 1.9413863 1.5104179 2.3509807e-38
1.8430388 1.9604384 1.5102345 2.3509807e-38
1.8643897 1.9889432 1.510005 2.3509809e-38
1.8798442 2.0164547 1.5097616 2.3509809e-38
1.8900223 2.0356328 1.5095894 2.3509809e-38
1.8823483 2.0482421 1.5094156 2.3509809e-38
1.8576293 2.1638572 1.5080144 2.350981e-38
1.8888255 2.2002172 1.5077385 2.350981e-38
1.8966756 2.220696 1.5075418 2.350981e-38
1.9022236 2.2402253 1.5073462 2.350981e-38
1.9317422 2.2883494 1.5069308 2.3509811e-38
1.9377785 2.3087757 1.5067271 2.3509811e-38
1.9531145 2.3492773 1.5063376 2.3509811e-38
1.9758366 2.3940287 1.5059316 2.3509811e-38
1.9815961 2.4132552 1.50574 2.3509813e-38
1.9977167 2.4377153 1.5055338 2.3509813e-38
1.99562 2.4860542 1.5049827 2.3509813e-38
2.0083892 2.5113688 1.5047525 2.3509814e-38
2.0128634 2.5422447 1.5044254 2.3509814e-38
2.0421731 2.6427701 1.5034214 2.3509814e-38
2.0536978 2.6489902 1.5034002 2.3509814e-38
2.0768557 2.6772492 1.503181 2.3509816e-38
2.0907979 2.7017064 1.5029655 2.3509816e-38
2.101018 2.7247694 1.5027499 2.3509816e-38
2.1133752 2.7627203 1.5023763 2.3509816e-38
2.1287761 2.7875738 1.5021625 2.3509817e-38
2.1363502 2.8079884 1.5019655 2.3509817e-38
2.0653324 2.7890689 1.5018781 2.3509817e-38
2.0407381 2.7912469 1.5017498 2.3509817e-38
1.974633 2.7990162 1.5013838 2.3509818e-38
1.9466857 2.8077383 1.5011683 2.3509818e-38
1.9379267 2.8067644 1.5011423 2.3509818e-38
1.8994541 2.7848427 1.5012257 2.350982e-38
1.8823407 2.7761502 1.5012509 2.350982e-38
1.8747754 2.7727907 1.5012567 2.350982e-38
1.8318576 2.76774 1.5011325 2.350982e-38
1.7971094 2.7803266 1.5008447 2.3509821e-38
1.7824242 2.7864358 1.5007141 2.3509821e-38
1.7545776 2.7812829 1.5006546 2.3509821e-38
1.7306621 2.7795465 1.500573 2.3509821e-38
1.6950324 2.776767 1.5004538 2.3509823e-38
1.6791563 2.7745402 1.500412 2.3509823e-38
1.6023943 2.7614758 1.5002346 2.3509823e-38
1.5675064 2.7621174 1.5000801 2.3509823e-38
1.5543679 2.7532597 1.5001243 2.3509824e-38
1.4652386 2.7528355 1.499753 2.3509824e-38
1.416889 2.7465105 1.49962 2.3509824e-38
1.398092 2.7531772 1.4994659 2.3509824e-38
1.3508351 2.7479851 1.4993248 2.3509825e-38
1.3312461 2.7535443 1.4991798 2.3509825e-38
1.3265046 2.7527151 1.4991691 2.3509825e-38
1.3003166 2.7525725 1.4990602 2.3509827e-38
1.2852409 2.7124093 1.4994471 2.3509827e-38
1.2587485 2.682049 1.4996759 2.3509827e-38
1.2271547 2.6407127 1.5000062 2.3509827e-38
1.1901708 2.6115427 1.5001774 2.3509828e-38
1.1754699 2.6049163 1.5001897 2.3509828e-38
1.1434269 2.6011257 1.500097 2.3509828e-38
1.1177411 2.5926487 1.5000837 2.3509828e-38
1.0964893 2.584054 1.5000906 2.350983e-38
1.0900745 2.5789204 1.500121 2.350983e-38
1.0766253 2.5689969 1.5001756 2.350983e-38
1.0715765 2.5515792 1.5003498 2.350983e-38
1.0655394 2.530673 1.5005586 2.3509831e-38
1.0557356 2.509469 1.5007552 2.3509831e-38
1.0464423 2.4396284 1.5014993 2.3509831e-38
0.93504971 2.4400949 1.5010242 2.3509831e-38
0.9144454 2.450433 1.5008212 2.3509832e-38
0.89934576 2.4453032 1.5008152 2.3509832e-38
0.8964169 2.4276567 1.5010008 2.3509832e-38
0.87238866 2.3901551 1.5013201 2.3509834e-38
0.85239977 2.3714573 1.5014455 2.3509834e-38
0.84133005 2.3657515 1.5014627 2.3509834e-38
0.79655349 2.357796 1.5013628 2.3509834e-38
0.75805426 2.3222802 1.501599 2.3509835e-38
0.74516892 2.3155079 1.5016205 2.3509835e-38
0.73015469 2.3107705 1.5016104 2.3509835e-38
0.67207724 2.2942405 1.5015508 2.3509835e-38
0.65849942 2.292238 1.501516 2.3509837e-38
0.61248726 2.2800608 1.5014584 2.3509837e-38
0.56359869 2.2725489 1.5013363 2.3509837e-38
0.48869416 2.2952313 1.500766 2.3509837e-38
0.47743657 2.2748644 1.5009471 2.3509838e-38
0.4721531 2.256078 1.5011356 2.3509838e-38
0.46446699 2.2158637 1.501554 2.3509838e-38
0.45851752 2.1957641 1.5017544 2.3509839e-38
0.44863477 2.179816 1.5018917 2.3509839e-38
0.43671262 2.1647046 1.5020109 2.3509839e-38
0.43144223 2.1388738 1.5022783 2.3509839e-38
0.41516137 2.1100059 1.5025334 2.3509841e-38
0.34008402 2.0888515 1.502454 2.3509841e-38
0.34070563 2.0786035 1.5025716 2.3509841e-38
0.33742043 2.0544803 1.5028282 2.3509841e-38
0.33361414 2.0346909 1.5030341 2.3509842e-38
0.3298209 2.0091391 1.5033046 2.3509842e-38
0.32385397 1.9641494 1.5037841 2.3509842e-38
0.3182638 1.9436824 1.5039903 2.3509842e-38
0.31279376 1.9253023 1.5041734 2.3509844e-38
0.31248868 1.8888794 1.5045805 2.3509844e-38
0.31783807 1.8783939 1.5047207 2.3509844e-38
0.33826563 1.8725114 1.5048728 2.3509844e-38
0.39039472 1.8830837 1.5049742 2.3509845e-38
0.40273207 1.8872712 1.5049793 2.3509845e-38
0.46643442 1.8732163 1.5054057 2.3509845e-38
0.50578654 1.8606038 1.5057132 2.3509846e-38
0.52826953 1.8558497 1.5058613 2.3509846e-38
0.54714805 1.8490478 1.5060174 2.3509846e-38
0.56721884 1.8430179 1.5061697 2.3509846e-38
0.58816224 1.8373481 1.5063217 2.3509848e-38
0.63502461 1.8307385 1.5065936 2.3509848e-38
0.65041232 1.8263792 1.5067071 2.3509848e-38
0.67371452 1.8154027 1.5069287 2.3509848e-38
0.69652915 1.8069346 1.5071199 2.3509849e-38
0.71961021 1.7899418 1.5074078 2.3509849e-38
0.72861642 1.7779696 1.5075802 2.3509849e-38
0.74708438 1.7713311 1.5077325 2.3509849e-38
0.77721322 1.7541261 1.5080523 2.3509851e-38
0.79496497 1.7490963 1.5081838 2.3509851e-38
0.85657865 1.7290379 1.5086685 2.3509851e-38
0.86561406 1.7207479 1.5087999 2.3509851e-38
0.88537276 1.7108319 1.5089943 2.3509852e-38
0.93157357 1.7016201 1.5092926 2.3509852e-38
0.95572233 1.6812031 1.5096235 2.3509852e-38
0.99618977 1.669224 1.5099285 2.3509853e-38
1.0153855 1.6628335 1.5100811 2.3509853e-38
1.0627441 1.6379761 1.5105598 2.3509853e-38
1.1270883 1.6216367 1.5110148 2.3509853e-38
1.1597681 1.589213 1.5115162 2.3509855e-38
1.1968822 1.5565491 1.5120389 2.3509855e-38
1.2549484 1.5069537 1.5128403 2.3509855e-38
1.2645891 1.4948754 1.5130163 2.3509855e-38
1.2881386 1.474506 1.5133443 2.3509856e-38
1.3000678 1.4632076 1.5135214 2.3509856e-38
1.3518426 1.4248414 1.5141701 2.3509856e-38
1.3603479 1.4149202 1.5143173 2.3509856e-38
1.3832127 1.3919368 1.5146713 2.3509858e-38
1.3986208 1.3667291 1.5150192 2.3509858e-38
1.4059765 1.3563877 1.5151662 2.3509858e-38
1.4318287 1.3381724 1.5154797 2.3509858e-38
1.4594141 1.3158638 1.5158463 2.3509859e-38
1.4704194 1.3038157 1.5160277 2.3509859e-38
1.507233 1.2525454 1.5167582 2.3509859e-38
1.5167575 1.234262 1.5170035 2.350986e-38
1.6052699 1.1768199 1.5180211 2.350986e-38
1.631742 1.1576557 1.5183476 2.350986e-38
1.661436 1.1076338 1.5190341 2.350986e-38
1.6684338 1.0940454 1.5192161 2.3509862e-38
1.6731365 1.0437407 1.5198001 2.3509862e-38
1.676448 1.032657 1.5199385 2.3509862e-38
1.6832019 1.0196683 1.5201126 2.3509862e-38
1.6919982 1.0075328 1.5202858 2.3509863e-38
1.7065442 0.9837631 1.5206137 2.3509863e-38
1.7157407 0.97040129 1.5208024 2.3509863e-38
1.7427548 0.9502362 1.5211426 2.3509863e-38
1.7596405 0.91069138 1.5216573 2.3509865e-38
1.7663937 0.89770222 1.5218315 2.3509865e-38
1.7761021 0.88458586 1.5220196 2.3509865e-38
1.8087336 0.82190633 1.5228602 2.3509866e-38
1.8050137 0.78910893 1.5232123 2.3509866e-38
1.8433907 0.78895581 1.5233761 2.3509866e-38
1.8578451 0.7963841 1.5233537 2.3509866e-38
1.9007487 0.83464909 1.5231055 2.3509867e-38
1.9197149 0.84529448 1.5230662 2.3509867e-38
1.9318099 0.85146487 1.5230479 2.3509867e-38
1.9445784 0.85786575 1.52303 2.3509867e-38
1.9623027 0.86754459 1.5229962 2.3509869e-38
2.0051582 0.87314588 1.5231141 2.3509869e-38
2.0278492 0.88467354 1.5230805 2.3509869e-38
2.0366082 0.88918078 1.523067 2.3509869e-38
2.049588 0.89565635 1.5230491 2.350987e-38
2.0600009 0.9017626 1.5230244 2.350987e-38
2.0659113 0.90440422 1.5230199 2.350987e-38
2.0762162 0.9104327 1.5229958 2.350987e-38
2.0812819 0.91929966 1.5229176 2.3509872e-38
2.1106119 0.94513053 1.5227518 2.3509872e-38
2.1229148 0.9512043 1.5227355 2.3509872e-38
2.1498632 0.96486634 1.522696 2.3509873e-38
2.1648326 0.97262108 1.5226721 2.3509873e-38
2.1965022 0.97974265 1.5227258 2.3509873e-38
2.2161031 0.98229712 1.5227801 2.3509873e-38
2.2293403 0.99214393 1.5227253 2.3509874e-38
2.2531316 1.0017737 1.5227176 2.3509874e-38
2.2857952 1.0022967 1.5228493 2.3509874e-38
2.3777237 0.93466991 1.5239959 2.3509874e-38
2.3345196 0.86263698 1.5246215 2.3509876e-38
2.3178546 0.85608023 1.5246247 2.3509876e-38
2.3012044 0.84687644 1.5246577 2.3509876e-38
2.2810163 0.81883514 1.524887 2.3509876e-38
2.2526708 0.77112597 1.5253028 2.3509877e-38
2.2590272 0.75702935 1.5254877 2.3509877e-38
2.2865396 0.75562537 1.5256194 2.3509877e-38
2.323283 0.74256396 1.525921 2.3509877e-38
2.3246853 0.74257004 1.5259267 2.3509879e-38
1.5905526 1.5654705 1.5135996 2.3509879e-38
1.6497236 1.6789981 1.512576 2.3509879e-38
1.5899109 1.7626857 1.5113851 2.350988e-38
1.5602952 1.7676848 1.5112038 2.350988e-38
1.5368145 1.8018199 1.510722 2.350988e-38
1.5287511 1.8140135 1.5105512 2.350988e-38
1.5212371 1.8263888 1.5103806 2.3509881e-38
1.4557556 1.8583797 1.5097455 2.3509881e-38
1.3593469 1.8413655 1.5095298 2.3509881e-38
1.3451593 1.834047 1.509552 2.3509881e-38
1.3257413 1.7082835 1.5108807 2.3509883e-38
1.3877286 1.6892376 1.5113559 2.3509883e-38
1.426365 1.6452303 1.5120125 2.3509883e-38
1.4447248 1.638236 1.5121684 2.3509883e-38
1.4691377 1.6012406 1.5126863 2.3509884e-38
1.5313474 1.5839751 1.5131422 2.3509884e-38
1.5476694 1.5753376 1.5133082 2.3509884e-38
