# .PCD v0.7 - Point Cloud Data file format
VERSION 0.7
FIELDS x y z rgb
SIZE 4 4 4 4
TYPE F F F F
COUNT 1 1 1 1
WIDTH 110
HEIGHT 1
VIEWPOINT 0 0 0 1 0 0 0
POINTS 110
DATA ascii
2.1741173 0.93788558 0.82520854 2.3509528e-38
2.1327517 0.91707593 0.82643044 2.3509531e-38
2.0921528 0.92269474 0.82700837 2.3509534e-38
2.0775015 0.92298955 0.82725829 2.3509537e-38
2.0257568 0.9208883 0.82821572 2.3509541e-38
1.9956282 0.92280525 0.82869822 2.3509544e-38
1.9356954 0.92333424 0.82973665 2.3509547e-38
1.9016055 0.92342204 0.83033222 2.3509551e-38
1.8809644 0.92902094 0.83056062 2.3509554e-38
1.8598653 0.93480021 0.83079261 2.3509556e-38
1.826692 0.93324965 0.83141136 2.3509561e-38
1.8056178 0.93960118 0.8316294 2.3509563e-38
1.7440625 0.95714581 0.83229017 2.3509566e-38
1.7027435 0.96871465 0.83273864 2.350957e-38
1.7022346 1.0014808 0.83196568 2.3509573e-38
1.7269696 1.0307918 0.83083254 2.3509576e-38
1.7371329 1.1021347 0.82895195 2.350958e-38
1.730551 1.1152067 0.8287555 2.3509583e-38
1.7311939 1.1477778 0.82796705 2.3509586e-38
1.7376844 1.168421 0.82736057 2.350959e-38
1.7458321 1.223485 0.82590389 2.3509593e-38
1.7308549 1.2804364 0.82480758 2.3509596e-38
1.6480423 1.3034952 0.82570946 2.35096e-38
1.6345696 1.2964813 0.82611305 2.3509603e-38
1.6149129 1.3027958 0.82630712 2.3509605e-38
1.5934296 1.308131 0.82655644 2.3509608e-38
1.5663501 1.3270608 0.82657969 2.3509612e-38
1.524266 1.3382834 0.82704973 2.3509615e-38
1.5183707 1.3516661 0.82683384 2.3509618e-38
1.5115598 1.3646345 0.82664382 2.3509622e-38
1.5042454 1.3773754 0.82646817 2.3509625e-38
1.4973949 1.3903259 0.82627916 2.3509628e-38
1.5019524 1.4440004 0.82491851 2.3509632e-38
1.5018638 1.4761368 0.8241533 2.3509635e-38
1.4953501 1.5049541 0.82357985 2.3509638e-38
1.4968818 1.5204002 0.82318443 2.3509642e-38
1.4587874 1.5906861 0.82217526 2.3509645e-38
1.4327416 1.6046339 0.82229918 2.3509647e-38
1.4297934 1.6359413 0.82160378 2.3509652e-38
1.5113293 1.7277335 0.81798381 2.3509654e-38
1.4470112 1.8264917 0.81675512 2.3509657e-38
1.4470302 1.8432428 0.81635499 2.3509661e-38
1.4559381 1.85697 0.81587136 2.3509664e-38
1.4654735 1.8838052 0.81506377 2.3509667e-38
1.4710258 1.8983772 0.81461877 2.3509671e-38
1.48167 1.924067 0.81381911 2.3509674e-38
1.4880731 1.9304539 0.81355441 2.3509677e-38
1.5072029 1.9701272 0.81227231 2.350968e-38
1.5063006 2.0056558 0.81144035 2.3509684e-38
1.5124623 2.0254123 0.81086081 2.3509687e-38
1.5063906 2.0714686 0.80986845 2.3509689e-38
1.4979395 2.084754 0.80969954 2.3509694e-38
1.5067103 2.1048965 0.80906516 2.3509696e-38
1.5188372 2.1113017 0.80869961 2.3509699e-38
1.5323414 2.1183298 0.80829513 2.3509703e-38
1.5459893 2.125237 0.80789101 2.3509706e-38
1.5603788 2.1328521 0.80745697 2.3509709e-38
1.5764962 2.1418772 0.80695897 2.3509713e-38
1.5937912 2.1337388 0.8068499 2.3509716e-38
1.6141927 2.1278553 0.80663258 2.3509719e-38
1.6644921 2.1381369 0.80550528 2.3509723e-38
1.6777327 2.1439078 0.80513531 2.3509726e-38
1.6918254 2.1515207 0.80470663 2.3509729e-38
1.712621 2.1477423 0.80443215 2.3509733e-38
1.779615 2.1476154 0.80326033 2.3509736e-38
1.8288569 2.1401949 0.80257392 2.3509738e-38
1.8896821 2.1063216 0.80231553 2.3509743e-38
1.9664884 2.1290658 0.80042607 2.3509745e-38
1.9766318 2.1343627 0.8001219 2.3509748e-38
1.9999528 2.1299927 0.7998172 2.3509751e-38
2.0354028 2.1318188 0.7991519 2.3509755e-38
2.0652218 2.1307774 0.79865384 2.3509758e-38
2.1129487 2.1225338 0.79801381 2.3509761e-38
2.1304348 2.1164649 0.79785192 2.3509765e-38
2.1724362 2.1204486 0.79702032 2.3509768e-38
2.1802421 2.1080093 0.79718029 2.3509771e-38
2.1909153 2.09707 0.79725415 2.3509775e-38
2.1979275 2.0842052 0.79743814 2.3509778e-38
2.2067404 2.0722361 0.79756922 2.3509781e-38
2.2091928 2.0239394 0.79867864 2.3509785e-38
2.2071166 1.973351 0.79992223 2.3509788e-38
2.2023821 1.9378906 0.80085135 2.350979e-38
2.1958141 1.8850081 0.80222845 2.3509795e-38
2.1974764 1.8528037 0.80296767 2.3509797e-38
2.1980515 1.8202072 0.80373544 2.35098e-38
2.187825 1.7653012 0.8052249 2.3509804e-38
2.1879065 1.7488359 0.80561626 2.3509807e-38
2.1918571 1.7013812 0.80667943 2.350981e-38
2.1808968 1.662688 0.80779487 2.3509814e-38
2.178715 1.5954612 0.80943727 2.3509817e-38
2.1813712 1.5803871 0.80975038 2.350982e-38
2.191201 1.5359153 0.81063914 2.3509823e-38
2.199403 1.5236528 0.81078792 2.3509827e-38
2.1892214 1.4689189 0.81227243 2.350983e-38
2.1919761 1.4365369 0.81299698 2.3509832e-38
2.2044127 1.4129225 0.81334215 2.3509837e-38
2.2130108 1.3964078 0.81358552 2.3509839e-38
2.2160738 1.3838245 0.8138321 2.3509842e-38
2.2141111 1.3662609 0.81428558 2.3509846e-38
2.2035069 1.3112748 0.81578356 2.3509849e-38
2.2018821 1.2445767 0.81740355 2.3509852e-38
2.2093587 1.2319094 0.81757474 2.3509856e-38
2.2169993 1.2176147 0.81778181 2.3509859e-38
2.218436 1.170489 0.81888115 2.3509862e-38
2.2250607 1.1243119 0.81986684 2.3509866e-38
2.2179749 1.0876838 0.82086515 2.3509869e-38
2.2098114 1.0340035 0.82228911 2.3509872e-38
2.206409 0.98014367 0.82363397 2.3509876e-38
2.2095485 0.96774846 0.82387471 2.3509879e-38
2.1853099 0.94632137 0.82481104 2.3509881e-38
