# .PCD v0.7 - Point Cloud Data file format
VERSION 0.7
FIELDS x y z rgb
SIZE 4 4 4 4
TYPE F F F F
COUNT 1 1 1 1
WIDTH 103
HEIGHT 1
VIEWPOINT 0 0 0 1 0 0 0
POINTS 103
DATA ascii
-0.04801536 2.2549677 0.80928373 2.3509528e-38
-0.042645857 2.2412839 0.81027991 2.3509531e-38
-0.031281531 2.200789 0.81318277 2.3509534e-38
-0.03082408 2.168725 0.81539601 2.3509538e-38
-0.033949435 2.1308246 0.8179754 2.3509541e-38
0.015212706 2.0556705 0.82364315 2.3509545e-38
0.02570162 2.0301166 0.82550806 2.3509548e-38
0.095184378 1.9996456 0.82830113 2.3509552e-38
0.10417882 1.9879276 0.82919806 2.3509555e-38
0.11292467 1.9755759 0.83013618 2.3509559e-38
0.16238067 1.9186558 0.83455098 2.3509562e-38
0.16920343 1.9057505 0.83550805 2.3509566e-38
0.16829312 1.8725617 0.83778507 2.3509569e-38
0.1569601 1.8200821 0.84128666 2.3509573e-38
0.15529241 1.7994128 0.84269369 2.3509576e-38
0.15503025 1.7667745 0.84493923 2.350958e-38
0.27651682 1.7367038 0.84822416 2.3509583e-38
0.29395771 1.7729105 0.84590447 2.3509587e-38
0.29867822 1.8086028 0.84349316 2.350959e-38
0.30115661 1.8258557 0.8423295 2.3509594e-38
0.30734384 1.875508 0.83897126 2.3509597e-38
0.33303353 1.8594667 0.84033281 2.35096e-38
0.35571215 1.8543147 0.84091425 2.3509604e-38
0.37486678 1.8480499 0.84153706 2.3509607e-38
0.40823221 1.7821128 0.84641224 2.3509611e-38
0.45766667 1.7623343 0.84826851 2.3509614e-38
0.48050934 1.7543021 0.84904993 2.3509618e-38
0.50149894 1.7499491 0.84955949 2.3509621e-38
0.54808068 1.7585746 0.84943074 2.3509625e-38
0.57553852 1.7717608 0.84879673 2.3509628e-38
0.59704185 1.7984872 0.84717059 2.3509632e-38
0.60990834 1.8065869 0.84674126 2.3509635e-38
0.6500569 1.8598975 0.84347022 2.3509639e-38
0.6607734 1.880456 0.8421613 2.3509642e-38
0.67983556 1.8856338 0.84199506 2.3509646e-38
0.67427516 1.8545524 0.84408033 2.3509649e-38
0.6899491 1.7955971 0.84829783 2.3509653e-38
0.69643283 1.7835646 0.84919143 2.3509656e-38
0.69089842 1.7635221 0.85051668 2.350966e-38
0.68683511 1.7283477 0.8528989 2.3509663e-38
0.68598723 1.7115154 0.8540498 2.3509667e-38
0.68140703 1.6791465 0.85623372 2.350967e-38
0.67690188 1.6579152 0.85765111 2.3509673e-38
0.6695112 1.6377301 0.85896766 2.3509677e-38
0.66141349 1.6168455 0.86032528 2.350968e-38
0.65822905 1.598487 0.86155808 2.3509684e-38
0.64614636 1.5752672 0.86303669 2.3509687e-38
0.64306062 1.5600512 0.86405396 2.3509691e-38
0.62479687 1.5312719 0.86585391 2.3509694e-38
0.60683268 1.5051914 0.86747086 2.3509698e-38
0.58820069 1.4767321 0.86924493 2.3509701e-38
0.57646674 1.4634911 0.87003976 2.3509705e-38
0.56110704 1.4502964 0.87079525 2.3509708e-38
0.54172742 1.4299593 0.87200248 2.3509712e-38
0.50961173 1.4221307 0.87222081 2.3509715e-38
0.46219876 1.3800472 0.87464601 2.3509719e-38
0.4279733 1.376251 0.87456554 2.3509722e-38
0.41280645 1.3715436 0.87473822 2.3509726e-38
0.39806998 1.3649442 0.87504554 2.3509729e-38
0.38619635 1.3575066 0.87543923 2.3509733e-38
0.34212407 1.3418996 0.87607402 2.3509736e-38
0.32445428 1.341848 0.87590098 2.350974e-38
0.29090863 1.3388087 0.87577522 2.3509743e-38
0.25455114 1.3384141 0.87543917 2.3509745e-38
0.23324463 1.3442566 0.87482393 2.350975e-38
0.21334004 1.3476218 0.87439322 2.3509752e-38
0.19067171 1.3553624 0.87363368 2.3509757e-38
0.1693984 1.3628349 0.87290645 2.3509759e-38
0.14860785 1.3666149 0.87243837 2.3509764e-38
0.11464886 1.3635439 0.87231058 2.3509767e-38
0.086790554 1.3838615 0.87063283 2.3509771e-38
0.06583035 1.3914249 0.86990243 2.3509774e-38
0.031383473 1.4210114 0.86752039 2.3509778e-38
-0.0021713739 1.4525948 0.86500973 2.3509781e-38
-0.031161193 1.4709756 0.86345398 2.3509785e-38
-0.038112633 1.4838434 0.86249816 2.3509788e-38
-0.052867521 1.5093346 0.86059499 2.3509792e-38
-0.059896491 1.5221803 0.85963988 2.3509795e-38
-0.066910096 1.5333959 0.85879731 2.3509799e-38
-0.074419886 1.5477376 0.85773438 2.3509802e-38
-0.088197693 1.5735097 0.85582155 2.3509806e-38
-0.095075496 1.5863993 0.85486507 2.3509809e-38
-0.10231027 1.5991856 0.853912 2.3509813e-38
-0.11025392 1.644695 0.85069793 2.3509816e-38
-0.11736666 1.6575165 0.84974372 2.3509818e-38
-0.13395415 1.7147963 0.84563255 2.3509823e-38
-0.13761871 1.7630767 0.84227037 2.3509825e-38
-0.13319905 1.7801552 0.84113812 2.350983e-38
-0.12788357 1.8018289 0.83969843 2.3509832e-38
-0.1202292 1.8213267 0.83843178 2.3509837e-38
-0.11779231 1.8524325 0.83631355 2.3509839e-38
-0.099279016 1.8815305 0.83449417 2.3509844e-38
-0.083129227 1.9230211 0.83179772 2.3509846e-38
-0.079183161 1.9404467 0.83063674 2.3509851e-38
-0.073983505 1.9610432 0.82927006 2.3509853e-38
-0.065987498 2.0143294 0.82567954 2.3509858e-38
-0.10511696 2.0767989 0.82098567 2.350986e-38
-0.1456871 2.0951786 0.81931442 2.3509865e-38
-0.14994496 2.1039796 0.81866562 2.3509867e-38
-0.081812337 2.1722815 0.81464165 2.3509872e-38
-0.085243493 2.2094588 0.81204647 2.3509874e-38
-0.080224797 2.2220483 0.81122947 2.3509879e-38
-0.075717062 2.256886 0.80887496 2.3509881e-38
