# .PCD v0.7 - Point Cloud Data file format
VERSION 0.7
FIELDS x y z rgb
SIZE 4 4 4 4
TYPE F F F F
COUNT 1 1 1 1
WIDTH 157
HEIGHT 1
VIEWPOINT 0 0 0 1 0 0 0
POINTS 157
DATA ascii
-2.4651694 2.2700949 -1.0636035 2.3509528e-38
-2.4562335 2.2755179 -1.0805216 2.350953e-38
-2.4499524 2.2813253 -1.0538913 2.3509532e-38
-2.4463961 2.2845323 -1.0403945 2.3509534e-38
-2.4419918 2.2883563 -1.0265268 2.3509537e-38
-2.4400325 2.2921655 -0.97966743 2.3509539e-38
-2.4438891 2.2911243 -0.94729227 2.3509541e-38
-2.4433799 2.2938788 -0.9010666 2.3509544e-38
-2.4498923 2.2903521 -0.88052297 2.3509545e-38
-2.450798 2.2913921 -0.84813011 2.3509548e-38
-2.4539511 2.2908623 -0.81544763 2.3509551e-38
-2.4529202 2.2940321 -0.76829726 2.3509552e-38
-2.4531379 2.2954397 -0.73817742 2.3509555e-38
-2.4538736 2.2955327 -0.72637659 2.3509558e-38
-2.45697 2.295198 -0.69070041 2.3509559e-38
-2.4545999 2.2975376 -0.67780238 2.3509562e-38
-2.452697 2.2996619 -0.66269916 2.3509563e-38
-2.454659 2.3000028 -0.6294235 2.3509566e-38
-2.4561806 2.30054 -0.59834903 2.3509569e-38
-2.4542103 2.3024542 -0.58822262 2.350957e-38
-2.4562755 2.302855 -0.55238736 2.3509573e-38
-2.455853 2.3055465 -0.5061996 2.3509576e-38
-2.4608984 2.3037562 -0.47210389 2.3509577e-38
-2.4590073 2.3074517 -0.42652088 2.350958e-38
-2.4576828 2.3107476 -0.38093239 2.3509582e-38
-2.4600506 2.3106923 -0.34977567 2.3509584e-38
-2.4583635 2.312624 -0.33545855 2.3509587e-38
-2.4613106 2.3122568 -0.30245414 2.3509589e-38
-2.4621007 2.3134823 -0.26804239 2.3509591e-38
-2.4623923 2.3139536 -0.25497651 2.3509594e-38
-2.4631648 2.3151121 -0.22211502 2.3509596e-38
-2.4629867 2.3175802 -0.17690705 2.3509598e-38
-2.4641418 2.3183939 -0.14549765 2.35096e-38
-2.469419 2.3164191 -0.11180991 2.3509603e-38
-2.4732561 2.3155112 -0.077119932 2.3509605e-38
-2.4747119 2.3160973 -0.046002135 2.3509607e-38
-2.4726839 2.3180563 -0.035785213 2.350961e-38
-2.4676583 2.3224676 -0.019034341 2.3509612e-38
-2.4727693 2.3198013 -0.00095248222 2.3509614e-38
-2.4740624 2.321378 0.047060281 2.3509617e-38
-2.4753575 2.3222039 0.080629855 2.3509618e-38
-2.4744539 2.3235185 0.093687519 2.3509621e-38
-2.4750943 2.3247707 0.1265707 2.3509624e-38
-2.4785783 2.3239839 0.15880099 2.3509625e-38
-2.4820781 2.3231902 0.1910954 2.3509628e-38
-2.4832473 2.3247168 0.23646171 2.3509631e-38
-2.4846237 2.3254862 0.27003527 2.3509632e-38
-2.4898167 2.3235412 0.30315232 2.3509635e-38
-2.4883804 2.3261459 0.33386838 2.3509636e-38
-2.4862964 2.3283606 0.34826422 2.3509639e-38
-2.4869878 2.3302917 0.3949402 2.3509642e-38
-2.4922771 2.3281724 0.42600217 2.3509643e-38
-2.4995301 2.3242075 0.44816315 2.3509646e-38
-2.4997747 2.3256698 0.47970808 2.3509649e-38
-2.4988134 2.3271043 0.49431342 2.350965e-38
-2.4987738 2.3287532 0.52559805 2.3509653e-38
-2.4999557 2.3303008 0.57153231 2.3509654e-38
-2.5044343 2.3288846 0.60514605 2.3509657e-38
-2.5052199 2.3300066 0.63748944 2.350966e-38
-2.5051396 2.3308008 0.65171742 2.3509661e-38
-2.5067067 2.3313224 0.68309838 2.3509664e-38
-2.5050693 2.3331831 0.69673949 2.3509667e-38
-2.5098512 2.3307786 0.71539235 2.3509668e-38
-2.5134318 2.3291943 0.73353249 2.3509671e-38
-2.5192695 2.3269253 0.76916617 2.3509673e-38
-2.5180154 2.3284523 0.78157651 2.3509675e-38
-2.5222588 2.3264263 0.80020863 2.3509678e-38
-2.5219424 2.3290403 0.8463499 2.350968e-38
-2.5205698 2.3306696 0.85912073 2.3509682e-38
-2.5253518 2.3290701 0.89330608 2.3509685e-38
-2.5254307 2.3306508 0.92488921 2.3509687e-38
-2.5271492 2.3317716 0.96990007 2.3509689e-38
-2.5259113 2.3350306 1.0159481 2.3509691e-38
-2.5287938 2.3347363 1.0494862 2.3509694e-38
-2.530766 2.3341963 1.0659 2.3509696e-38
-2.5355213 2.3333712 1.1146672 2.3509698e-38
-2.542346 2.3295512 1.1338025 2.3509701e-38
-2.5490732 2.3258023 1.1529802 2.3509703e-38
-2.5570245 2.3211627 1.1716233 2.3509705e-38
-2.5641444 2.3169808 1.1877892 2.3509708e-38
-2.5661213 2.3133373 1.144372 2.3509709e-38
-2.5695384 2.3102005 1.1303271 2.3509712e-38
-2.5639367 2.3125119 1.0987139 2.3509715e-38
-2.5639057 2.310138 1.0524879 2.3509716e-38
-2.5640125 2.3100407 1.0520612 2.3509719e-38
-2.5649543 2.3070407 1.0069829 2.3509722e-38
-2.5644367 2.3049967 0.96048623 2.3509723e-38
-2.5617144 2.3051825 0.92704189 2.3509726e-38
-2.5583696 2.3061633 0.90046686 2.3509727e-38
-2.5550895 2.3072472 0.87675124 2.350973e-38
-2.5596161 2.3025901 0.84846878 2.3509733e-38
-2.5556843 2.3037012 0.81641442 2.3509734e-38
-2.5510588 2.3059781 0.79742533 2.3509737e-38
-2.5467288 2.3072727 0.76349759 2.350974e-38
-2.5441022 2.306819 0.71900672 2.3509741e-38
-2.5426507 2.3062265 0.68782771 2.3509744e-38
-2.5430357 2.3034539 0.63955778 2.3509745e-38
-2.5434804 2.3023825 0.62493026 2.3509748e-38
-2.5426641 2.3021481 0.60930514 2.3509751e-38
-2.5416951 2.3020377 0.59399164 2.3509752e-38
-2.5377858 2.302995 0.55927384 2.3509755e-38
-2.5374815 2.301574 0.52771205 2.3509758e-38
-2.5334315 2.3027558 0.49542171 2.3509759e-38
-2.5358641 2.3002472 0.48009664 2.3509762e-38
-2.527895 2.3032546 0.42972022 2.3509764e-38
-2.5293288 2.3015294 0.4159379 2.3509767e-38
-2.526566 2.3018379 0.38429791 2.3509769e-38
-2.5281792 2.2982807 0.33758989 2.3509771e-38
-2.5241094 2.2995348 0.3064248 2.3509774e-38
-2.5226803 2.2987514 0.27187198 2.3509776e-38
-2.5204327 2.2985339 0.23709466 2.3509778e-38
-2.5209868 2.2959962 0.19566318 2.3509781e-38
-2.5176475 2.2965658 0.1612103 2.3509782e-38
-2.5197129 2.2943418 0.14640369 2.3509785e-38
-2.5145702 2.2962916 0.11405045 2.3509788e-38
-2.5088365 2.2992804 0.093733758 2.3509789e-38
-2.5075045 2.2985859 0.062198579 2.3509792e-38
-2.5082531 2.2956574 0.015868276 2.3509795e-38
-2.5047364 2.2964509 -0.016655579 2.3509796e-38
-2.5049498 2.29406 -0.059890792 2.3509799e-38
-2.5025802 2.2938709 -0.095776752 2.35098e-38
-2.5059762 2.2907424 -0.10995746 2.3509803e-38
-2.5033932 2.2909055 -0.14195472 2.3509806e-38
-2.4998875 2.2916815 -0.17466359 2.3509807e-38
-2.5015378 2.2880826 -0.22166206 2.350981e-38
-2.5003965 2.2880983 -0.23688768 2.3509813e-38
-2.4955459 2.2907205 -0.25228915 2.3509814e-38
-2.4937699 2.290298 -0.28459281 2.3509817e-38
-2.4948697 2.2890322 -0.29406548 2.3509818e-38
-2.4929152 2.2884579 -0.33174378 2.3509821e-38
-2.4933429 2.2857628 -0.37793368 2.3509824e-38
-2.4904013 2.2861378 -0.41070902 2.3509825e-38
-2.4916091 2.2828708 -0.45733663 2.3509828e-38
-2.4854746 2.2838094 -0.52267981 2.3509831e-38
-2.4853215 2.2815368 -0.56861609 2.3509832e-38
-2.4856706 2.278899 -0.6147719 2.3509835e-38
-2.487633 2.2767525 -0.62949872 2.3509837e-38
-2.4866807 2.2757797 -0.66121644 2.3509839e-38
-2.4860044 2.2738903 -0.70688069 2.3509842e-38
-2.4858005 2.2716527 -0.75283796 2.3509844e-38
-2.4842842 2.2709918 -0.78623569 2.3509846e-38
-2.4842367 2.2686422 -0.83221829 2.3509849e-38
-2.4822946 2.2682908 -0.86542994 2.3509851e-38
-2.4771872 2.270242 -0.89725846 2.3509853e-38
-2.4800582 2.265749 -0.94490135 2.3509855e-38
-2.475976 2.2669351 -0.97754818 2.3509858e-38
-2.4736736 2.266885 -1.0098469 2.350986e-38
-2.4686239 2.268832 -1.0409689 2.3509862e-38
-2.6089559 2.2949276 1.3718737 2.3509865e-38
-2.6224639 2.2857034 1.3776468 2.3509867e-38
-2.6132274 2.2912009 1.3580644 2.3509869e-38
-2.6084304 2.2929566 1.3266795 2.3509872e-38
-2.5994959 2.2988524 1.3188984 2.3509873e-38
-2.5843158 2.3083749 1.2961465 2.3509876e-38
-2.5809379 2.311476 1.3100344 2.3509879e-38
-2.5821989 2.3120699 1.3386487 2.350988e-38
-2.5982358 2.302201 1.3663838 2.3509883e-38
