# .PCD v0.7 - Point Cloud Data file format
VERSION 0.7
FIELDS x y z rgb
SIZE 4 4 4 4
TYPE F F F F
COUNT 1 1 1 1
WIDTH 381
HEIGHT 1
VIEWPOINT 0 0 0 1 0 0 0
POINTS 381
DATA ascii
-2.6503601 1.1249307 -0.66270149 2.3509528e-38
-2.65167 1.1302713 -0.65493226 2.3509528e-38
-2.6577861 1.1427872 -0.61637163 2.350953e-38
-2.6598082 1.1448172 -0.60323524 2.3509531e-38
-2.6689851 1.1460567 -0.5421465 2.3509531e-38
-2.6707633 1.1486105 -0.53073645 2.3509532e-38
-2.6775019 1.1492604 -0.48583359 2.3509534e-38
-2.6889594 1.1481333 -0.40907186 2.3509534e-38
-2.6946039 1.1591846 -0.37339073 2.3509535e-38
-2.6963451 1.1561432 -0.3611964 2.3509537e-38
-2.6976357 1.1548393 -0.35233665 2.3509537e-38
-2.7023716 1.1516742 -0.32010806 2.3509538e-38
-2.7069867 1.1529496 -0.28950545 2.3509539e-38
-2.7106507 1.1551558 -0.26543057 2.3509539e-38
-2.7129221 1.1571602 -0.25062525 2.3509541e-38
-2.7213664 1.1529695 -0.19343255 2.3509542e-38
-2.7225504 1.1554474 -0.18597654 2.3509542e-38
-2.7306902 1.1492277 -0.13044333 2.3509544e-38
-2.7318957 1.1501294 -0.12255585 2.3509545e-38
-2.7332764 1.1520561 -0.11368531 2.3509545e-38
-2.7373688 1.1449773 -0.08503899 2.3509547e-38
-2.7420845 1.1460272 -0.053722858 2.3509548e-38
-2.745259 1.1522176 -0.033652544 2.3509548e-38
-2.7467132 1.1528125 -0.024045527 2.3509549e-38
-2.7491572 1.1419014 -0.0057088137 2.3509551e-38
-2.7578018 1.1418045 0.05207026 2.3509551e-38
-2.7599759 1.1441247 0.066169322 2.3509552e-38
-2.7619219 1.1465153 0.07873112 2.3509554e-38
-2.7628508 1.1467944 0.084886253 2.3509554e-38
-2.7648296 1.146323 0.098193794 2.3509555e-38
-2.7696476 1.1484938 0.12998477 2.3509556e-38
-2.7741034 1.1466341 0.16010094 2.3509556e-38
-2.7763596 1.145861 0.17531806 2.3509558e-38
-2.7782683 1.147542 0.18776119 2.3509559e-38
-2.7793491 1.1483487 0.19483441 2.3509559e-38
-2.7802715 1.1491042 0.20085806 2.3509561e-38
-2.7825565 1.1506332 0.21584421 2.3509562e-38
-2.7853858 1.1504431 0.23478323 2.3509562e-38
-2.7872808 1.1509149 0.24735644 2.3509563e-38
-2.7892325 1.1505259 0.26046827 2.3509565e-38
-2.7903633 1.1449857 0.26904395 2.3509565e-38
-2.7916765 1.139217 0.27888292 2.3509566e-38
-2.7943676 1.1318984 0.29821086 2.3509568e-38
-2.7991998 1.1268443 0.33142775 2.3509568e-38
-2.8036981 1.1222626 0.36232698 2.3509569e-38
-2.8140311 1.13131 0.42969975 2.350957e-38
-2.8157051 1.1393473 0.43940729 2.350957e-38
-2.8169997 1.1470814 0.44663015 2.3509572e-38
-2.8192313 1.1301718 0.46465695 2.3509573e-38
-2.8265598 1.1061182 0.51805103 2.3509573e-38
-2.8297038 1.1020586 0.53980732 2.3509575e-38
-2.8356416 1.1079826 0.57839113 2.3509576e-38
-2.833092 1.0612149 0.56996477 2.3509576e-38
-2.8315887 1.0224757 0.56705594 2.3509577e-38
-2.8309343 1.0085447 0.56524718 2.3509579e-38
-2.8265243 1.0207986 0.53352803 2.3509579e-38
-2.816668 1.0732701 0.45800865 2.350958e-38
-2.8074129 1.0894326 0.39319274 2.3509582e-38
-2.7955015 1.0190091 0.32657772 2.3509582e-38
-2.799001 0.94486046 0.36361235 2.3509583e-38
-2.7980745 0.89553857 0.36650366 2.3509584e-38
-2.8054292 0.84733212 0.42452264 2.3509584e-38
-2.8064394 0.84632039 0.43146008 2.3509586e-38
-2.807775 0.84226441 0.44112903 2.3509587e-38
-2.8217912 0.84167564 0.53488803 2.3509587e-38
-2.824892 0.84986341 0.55409861 2.3509589e-38
-2.83041 0.86284184 0.58857638 2.350959e-38
-2.8321626 0.86367846 0.60013354 2.350959e-38
-2.832792 0.86050808 0.60492265 2.3509591e-38
-2.8321528 0.8494662 0.60268569 2.3509593e-38
-2.8309691 0.83973867 0.59656858 2.3509593e-38
-2.8227341 0.78191912 0.55219257 2.3509594e-38
-2.8210127 0.67948413 0.55955362 2.3509596e-38
-2.8242328 0.66416317 0.58388853 2.3509596e-38
-2.8251271 0.65888822 0.59083754 2.3509597e-38
-2.8274465 0.65048921 0.60788155 2.3509598e-38
-2.8278432 0.6142056 0.61721385 2.3509598e-38
-2.8254199 0.58169293 0.60700893 2.35096e-38
-2.8246181 0.56639194 0.60447037 2.3509601e-38
-2.8238966 0.53904414 0.60468423 2.3509601e-38
-2.8222027 0.50130147 0.60031348 2.3509603e-38
-2.8226526 0.47475204 0.60821164 2.3509604e-38
-2.8225608 0.44426647 0.61321259 2.3509604e-38
-2.8220751 0.43184945 0.61225283 2.3509605e-38
-2.8210516 0.35170677 0.62017637 2.3509607e-38
-2.8225558 0.33989722 0.63239753 2.3509607e-38
-2.8226607 0.33547792 0.63391256 2.3509608e-38
-2.8220983 0.27063644 0.64209449 2.350961e-38
-2.8220723 0.26322418 0.64328563 2.350961e-38
-2.8188882 0.24016249 0.62625945 2.3509611e-38
-2.8160808 0.15579386 0.62303972 2.3509612e-38
-2.8154922 0.14864491 0.62042224 2.3509612e-38
-2.8112757 0.097556084 0.60165793 2.3509614e-38
-2.8109381 0.08372023 0.60195243 2.3509615e-38
-2.8087425 0.035647981 0.5961327 2.3509615e-38
-2.8068402 -0.020756193 0.59380919 2.3509617e-38
-2.8066907 -0.039743349 0.59630656 2.3509618e-38
-2.8080261 -0.075792387 0.61186814 2.3509618e-38
-2.8089483 -0.085566238 0.6198293 2.3509619e-38
-2.8070767 -0.11853845 0.61339462 2.3509621e-38
-2.8055222 -0.12023826 0.60332298 2.3509621e-38
-2.8044722 -0.11594174 0.59551799 2.3509622e-38
-2.8035843 -0.11050048 0.5885818 2.3509624e-38
-2.8029437 -0.10214894 0.58276421 2.3509624e-38
-2.8012879 -0.047145613 0.5615713 2.3509625e-38
-2.7989798 -0.031967491 0.54335439 2.3509626e-38
-2.7996147 -0.016661044 0.54477757 2.3509626e-38
-2.8019035 -4.0732324e-05 0.55700743 2.3509628e-38
-2.8012636 0.11475164 0.5315944 2.3509629e-38
-2.7949686 0.12002585 0.48856094 2.3509629e-38
-2.8009081 0.1322296 0.52600062 2.3509631e-38
-2.8129909 0.22376263 0.58987683 2.3509632e-38
-2.8134646 0.23689038 0.59062397 2.3509632e-38
-2.8142667 0.25210041 0.5931825 2.3509633e-38
-2.8146071 0.3081587 0.58513421 2.3509635e-38
-2.8151536 0.3270061 0.58531553 2.3509635e-38
-2.8133857 0.36771911 0.56600577 2.3509636e-38
-2.8163292 0.40097001 0.57954895 2.3509638e-38
-2.8172462 0.41325298 0.58341485 2.3509638e-38
-2.8185189 0.48732314 0.57827854 2.3509639e-38
-2.8194385 0.52286196 0.57787645 2.350964e-38
-2.8223121 0.56149042 0.58996475 2.350964e-38
-2.8226373 0.56697851 0.59112489 2.3509642e-38
-2.8165669 0.64857543 0.5355404 2.3509643e-38
-2.8161263 0.66520369 0.52953482 2.3509643e-38
-2.8135436 0.70368576 0.50519204 2.3509645e-38
-2.8080139 0.7265017 0.46404296 2.3509646e-38
-2.8037028 0.7733506 0.42660967 2.3509647e-38
-2.7986958 0.83706474 0.38142455 2.3509647e-38
-2.7971137 0.84183764 0.36997312 2.3509649e-38
-2.7885718 0.86605084 0.30844349 2.350965e-38
-2.7873638 0.87133628 0.29939583 2.350965e-38
-2.783155 0.89249259 0.26737794 2.3509652e-38
-2.7823586 0.89579582 0.26144913 2.3509653e-38
-2.7815747 0.90389657 0.25472182 2.3509653e-38
-2.7811065 0.94019771 0.24490574 2.3509654e-38
-2.7806869 0.9588902 0.23866031 2.3509656e-38
-2.7808506 0.98472309 0.2349976 2.3509656e-38
-2.7809918 0.99257386 0.23449624 2.3509657e-38
-2.7819655 1.0178472 0.23634791 2.3509659e-38
-2.7858989 1.0739465 0.25229773 2.3509659e-38
-2.7804351 1.1396362 0.20369419 2.350966e-38
-2.7794099 1.1415786 0.19648761 2.3509661e-38
-2.7775981 1.1432266 0.18407816 2.3509661e-38
-2.7761683 1.1433378 0.1745066 2.3509663e-38
-2.7737563 1.1434346 0.15837008 2.3509664e-38
-2.7717261 1.1429001 0.14490509 2.3509664e-38
-2.7708321 1.1423048 0.13903975 2.3509666e-38
-2.758544 1.065194 0.07113564 2.3509667e-38
-2.7577879 1.0517571 0.068556339 2.3509667e-38
-2.7572036 1.0385084 0.067093015 2.3509668e-38
-2.7566535 1.0198824 0.066850096 2.350967e-38
-2.7567585 1.0031229 0.070636958 2.350967e-38
-2.7559547 0.97276449 0.070858538 2.3509671e-38
-2.7552059 0.93975616 0.071932703 2.3509673e-38
-2.7547915 0.91717499 0.073320597 2.3509673e-38
-2.7535253 0.88614917 0.070575833 2.3509674e-38
-2.7529321 0.87289023 0.069051355 2.3509675e-38
-2.7523375 0.85963047 0.067521662 2.3509675e-38
-2.7517912 0.84642339 0.066305608 2.3509677e-38
-2.7514095 0.82698345 0.06733501 2.3509678e-38
-2.7504423 0.80711877 0.064530164 2.3509678e-38
-2.7502933 0.78040612 0.068451166 2.350968e-38
-2.7504523 0.77361059 0.07076779 2.3509681e-38
-2.7503779 0.7413395 0.076210558 2.3509681e-38
-2.749753 0.72804654 0.074484885 2.3509682e-38
-2.749234 0.71486926 0.073443949 2.3509684e-38
-2.748214 0.67459476 0.074045926 2.3509684e-38
-2.7474675 0.64855874 0.073853135 2.3509685e-38
-2.7473848 0.64149845 0.074600041 2.3509687e-38
-2.7472003 0.62868702 0.075726837 2.3509687e-38
-2.7466023 0.61542273 0.074171513 2.3509688e-38
-2.7461307 0.60229743 0.07343924 2.3509689e-38
-2.7459145 0.58945072 0.074356735 2.3509689e-38
-2.7458417 0.58016753 0.075583637 2.3509691e-38
-2.7458973 0.56292033 0.079131901 2.3509692e-38
-2.7447996 0.53656161 0.07665199 2.3509692e-38
-2.7443717 0.52020562 0.076804429 2.3509694e-38
-2.7443411 0.49680236 0.080908537 2.3509695e-38
-2.7437308 0.48352537 0.079276711 2.3509695e-38
-2.7433162 0.45088241 0.082516044 2.3509696e-38
-2.7431226 0.43178651 0.084739834 2.3509698e-38
-2.7421541 0.41742232 0.080915421 2.3509698e-38
-2.7413759 0.40396166 0.078194678 2.3509699e-38
-2.7408853 0.39081481 0.077334404 2.3509701e-38
-2.7406266 0.37792239 0.077982426 2.3509701e-38
-2.7397199 0.35038152 0.076995909 2.3509702e-38
-2.7395716 0.32405886 0.080851823 2.3509703e-38
-2.7384555 0.2915895 0.079372257 2.3509703e-38
-2.7381401 0.28376788 0.078705937 2.3509705e-38
-2.7379689 0.25189856 0.083432764 2.3509706e-38
-2.7370133 0.23824376 0.079562664 2.3509706e-38
-2.7360811 0.21200442 0.078164756 2.3509708e-38
-2.7354436 0.18563929 0.078761488 2.3509709e-38
-2.7354763 0.15260448 0.085062534 2.3509709e-38
-2.7352004 0.12011352 0.08920294 2.350971e-38
-2.7331662 0.067449778 0.085309774 2.3509712e-38
-2.7333908 0.050564677 0.089917511 2.3509712e-38
-2.7328179 0.022750229 0.091213375 2.3509713e-38
-2.7326636 0.0081159994 0.092876941 2.3509715e-38
-2.7321606 -0.01063861 0.092969924 2.3509715e-38
-2.7316265 -0.023832526 0.091830432 2.3509716e-38
-2.7307725 -0.037376322 0.088618606 2.3509717e-38
-2.7292852 -0.072521873 0.085154235 2.3509717e-38
-2.7295315 -0.096142635 0.091147661 2.3509719e-38
-2.7294326 -0.11018999 0.093075871 2.350972e-38
-2.7292602 -0.14660823 0.098627806 2.350972e-38
-2.7277687 -0.17713217 0.094285131 2.3509722e-38
-2.726943 -0.21776491 0.096250892 2.3509723e-38
-2.7266831 -0.23505032 0.097696811 2.3509723e-38
-2.7261679 -0.24822563 0.096680939 2.3509724e-38
-2.7256081 -0.26314169 0.095687628 2.3509726e-38
-2.7248461 -0.30360794 0.098049074 2.3509726e-38
-2.7244043 -0.31690824 0.097544968 2.3509727e-38
-2.7236857 -0.32919076 0.095006704 2.3509729e-38
-2.7229269 -0.37579122 0.09851709 2.3509729e-38
-2.7214036 -0.39846137 0.092512488 2.350973e-38
-2.7209032 -0.42183253 0.093472242 2.3509731e-38
-2.720607 -0.44439402 0.095649838 2.3509731e-38
-2.7194693 -0.4693166 0.092637807 2.3509733e-38
-2.7190685 -0.50019455 0.095646918 2.3509734e-38
-2.7177956 -0.52322632 0.091382325 2.3509734e-38
-2.7174432 -0.55262744 0.094442248 2.3509736e-38
-2.7169275 -0.57074183 0.09433338 2.3509737e-38
-2.7169795 -0.58361793 0.097051412 2.3509737e-38
-2.7166073 -0.59884232 0.097366869 2.3509738e-38
-2.7163742 -0.61319709 0.098453522 2.350974e-38
-2.7146647 -0.64137065 0.092218727 2.350974e-38
-2.7144361 -0.65423036 0.093060017 2.3509741e-38
-2.7144189 -0.65815341 0.093668759 2.3509743e-38
-2.7142913 -0.68657768 0.098051608 2.3509743e-38
-2.7132542 -0.71293175 0.095973253 2.3509744e-38
-2.7127326 -0.72023141 0.093830854 2.3509745e-38
-2.7108629 -0.7572428 0.088156223 2.3509745e-38
-2.7092605 -0.78056794 0.081743151 2.3509747e-38
-2.7086847 -0.79356313 0.080290049 2.3509748e-38
-2.7083488 -0.83999765 0.086597085 2.3509748e-38
-2.7079482 -0.85351133 0.086408436 2.350975e-38
-2.7060847 -0.86135507 0.075401902 2.3509751e-38
-2.7029517 -0.86246854 0.054671884 2.3509751e-38
-2.6982439 -0.86160266 0.023058921 2.3509752e-38
-2.6960983 -0.86386263 0.0091391206 2.3509754e-38
-2.6947768 -0.86251485 6.1303377e-05 2.3509754e-38
-2.6902552 -0.86562896 -0.029576123 2.3509755e-38
-2.6883345 -0.86677128 -0.042201281 2.3509757e-38
-2.6842456 -0.85780436 -0.071172088 2.3509757e-38
-2.675983 -0.85824275 -0.12629643 2.3509758e-38
-2.6740341 -0.86010134 -0.1389769 2.3509759e-38
-2.6684155 -0.85151374 -0.17810035 2.3509759e-38
-2.6636226 -0.84995997 -0.2104107 2.3509761e-38
-2.6590393 -0.8430444 -0.24230659 2.3509762e-38
-2.6546345 -0.84317887 -0.27171212 2.3509762e-38
-2.6486115 -0.83330977 -0.31377169 2.3509764e-38
-2.6459997 -0.83579051 -0.33076894 2.3509765e-38
-2.6455595 -0.83522165 -0.33381307 2.3509767e-38
-2.6436348 -0.83328515 -0.34703085 2.3509767e-38
-2.6411719 -0.82858765 -0.36434945 2.3509768e-38
-2.635843 -0.80742759 -0.40385348 2.3509769e-38
-2.6338696 -0.77711731 -0.42262119 2.3509769e-38
-2.638397 -0.76059318 -0.39541593 2.3509771e-38
-2.6428046 -0.74181151 -0.3694208 2.3509772e-38
-2.6500473 -0.70840287 -0.32718098 2.3509772e-38
-2.6512823 -0.69574261 -0.32126087 2.3509774e-38
-2.6525307 -0.68300164 -0.31526601 2.3509775e-38
-2.655164 -0.66537905 -0.30091631 2.3509775e-38
-2.6568062 -0.6610207 -0.29074728 2.3509776e-38
-2.6665261 -0.58171815 -0.24040708 2.3509778e-38
-2.6685181 -0.54627216 -0.23362593 2.3509778e-38
-2.6732836 -0.48684373 -0.21272665 2.3509779e-38
-2.6743958 -0.46604767 -0.20912412 2.3509781e-38
-2.6752172 -0.43296033 -0.20973127 2.3509781e-38
-2.6749225 -0.40109333 -0.21756826 2.3509782e-38
-2.6768043 -0.36684561 -0.21129969 2.3509783e-38
-2.6777897 -0.35315827 -0.20723705 2.3509783e-38
-2.6787951 -0.31934673 -0.20674624 2.3509785e-38
-2.6813915 -0.28876263 -0.19502918 2.3509786e-38
-2.6833782 -0.26995844 -0.18521817 2.3509786e-38
-2.6839085 -0.17327294 -0.19947921 2.3509788e-38
-2.6840189 -0.15717164 -0.2017086 2.3509789e-38
-2.6883178 -0.13875747 -0.17637572 2.3509789e-38
-2.6933613 -0.024958849 -0.16363363 2.350979e-38
-2.6942246 0.038077824 -0.1694725 2.3509792e-38
-2.6865826 0.093182087 -0.23068133 2.3509792e-38
-2.6818483 0.095239401 -0.26269162 2.3509793e-38
-2.6804163 0.093394659 -0.27192122 2.3509795e-38
-2.6771252 0.095821731 -0.29435748 2.3509795e-38
-2.675046 0.094502129 -0.30800849 2.3509796e-38
-2.6654382 0.046015985 -0.36327431 2.3509797e-38
-2.6629295 -0.0025953203 -0.37108275 2.3509797e-38
-2.6563044 -0.020604312 -0.41203466 2.3509799e-38
-2.6518846 -0.029501848 -0.43992701 2.35098e-38
-2.6427684 -0.071972743 -0.49301419 2.35098e-38
-2.6312723 -0.15495744 -0.55454558 2.3509802e-38
-2.6308694 -0.16808426 -0.55481923 2.3509803e-38
-2.6308479 -0.20145693 -0.54881722 2.3509803e-38
-2.6301739 -0.23331295 -0.54745448 2.3509804e-38
-2.6283193 -0.24992689 -0.55678743 2.3509806e-38
-2.6207719 -0.29969144 -0.59805036 2.3509806e-38
-2.6210854 -0.36359429 -0.58418751 2.3509807e-38
-2.6233377 -0.38205814 -0.56573975 2.3509809e-38
-2.6256599 -0.39796227 -0.54729539 2.3509809e-38
-2.6229534 -0.4285267 -0.55974972 2.350981e-38
-2.6159258 -0.49402013 -0.59464395 2.3509811e-38
-2.6136882 -0.513695 -0.60597175 2.3509811e-38
-2.6113029 -0.52010345 -0.62072951 2.3509813e-38
-2.6125507 -0.49803305 -0.61645901 2.3509814e-38
-2.612973 -0.47280106 -0.61828125 2.3509814e-38
-2.6121151 -0.43300039 -0.63134235 2.3509816e-38
-2.6131551 -0.39276651 -0.63180459 2.3509817e-38
-2.6147947 -0.36363742 -0.62621164 2.3509817e-38
-2.6149988 -0.26122016 -0.64370936 2.3509818e-38
-2.6150737 -0.23486622 -0.64806116 2.350982e-38
-2.6174622 -0.20301268 -0.63796902 2.350982e-38
-2.6182427 -0.16673076 -0.63943499 2.3509821e-38
-2.6183691 -0.16098799 -0.6396488 2.3509823e-38
-2.6189339 -0.13567856 -0.64053762 2.3509823e-38
-2.6208792 -0.11141682 -0.63200402 2.3509824e-38
-2.621244 -0.040165156 -0.64268976 2.3509825e-38
-2.6212254 -0.030021094 -0.6446799 2.3509825e-38
-2.6215501 -0.016122133 -0.64507174 2.3509827e-38
-2.6221061 -0.0036015734 -0.6436612 2.3509828e-38
-2.6225054 0.011396915 -0.64375472 2.3509828e-38
-2.6268084 0.029411107 -0.61832225 2.350983e-38
-2.631366 0.10281496 -0.60138714 2.3509831e-38
-2.6314034 0.11167627 -0.60276991 2.3509831e-38
-2.6323576 0.12464124 -0.59878063 2.3509832e-38
-2.6333759 0.14268854 -0.5953021 2.3509834e-38
-2.6347203 0.15612108 -0.58879107 2.3509834e-38
-2.6373854 0.18769267 -0.57679796 2.3509835e-38
-2.6439588 0.18783411 -0.53290588 2.3509837e-38
-2.645848 0.1890952 -0.52051234 2.3509837e-38
-2.6564069 0.18176115 -0.44861442 2.3509838e-38
-2.6616027 0.19861503 -0.41700318 2.3509839e-38
-2.665993 0.19562477 -0.38711652 2.3509839e-38
-2.6684155 0.1993112 -0.37160781 2.3509841e-38
-2.6836777 0.29203072 -0.2867083 2.3509842e-38
-2.6886747 0.39608854 -0.27248469 2.3509842e-38
-2.6888008 0.41186163 -0.27454463 2.3509844e-38
-2.6908493 0.4470942 -0.26734802 2.3509845e-38
-2.693361 0.46211958 -0.25333387 2.3509845e-38
-2.6979907 0.52410662 -0.23381358 2.3509846e-38
-2.6982114 0.57483137 -0.24167806 2.3509848e-38
-2.6962659 0.59487069 -0.25836632 2.3509848e-38
-2.6943281 0.63973051 -0.27957779 2.3509849e-38
-2.6988852 0.67340052 -0.25532809 2.3509851e-38
-2.7014797 0.72079229 -0.24671978 2.3509851e-38
-2.703424 0.75545824 -0.24011238 2.3509852e-38
-2.6995707 0.83468747 -0.28044924 2.3509853e-38
-2.6929696 0.8512913 -0.32761219 2.3509853e-38
-2.6892867 0.86428988 -0.35461259 2.3509855e-38
-2.6843204 0.88441908 -0.39150363 2.3509856e-38
-2.6821229 0.89813221 -0.40870988 2.3509856e-38
-2.6846929 0.92921376 -0.39726189 2.3509858e-38
-2.6869178 0.93320882 -0.38313153 2.3509859e-38
-2.6917267 0.93650329 -0.35160941 2.3509859e-38
-2.69572 0.94660902 -0.32678735 2.350986e-38
-2.7008641 1.0783608 -0.31667936 2.3509862e-38
-2.6943686 1.0950335 -0.36314988 2.3509862e-38
-2.6920485 1.0933306 -0.37833741 2.3509863e-38
-2.6905229 1.0907512 -0.38805553 2.3509865e-38
-2.6862531 1.1203511 -0.42203626 2.3509865e-38
-2.679498 1.1253349 -0.46808815 2.3509866e-38
-2.6784232 1.1256826 -0.47533548 2.3509867e-38
-2.6744008 1.1218691 -0.50150788 2.3509867e-38
-2.6726139 1.1213964 -0.51335967 2.3509869e-38
-2.6655993 1.1141273 -0.55888867 2.350987e-38
-2.6619599 1.1138605 -0.58315802 2.350987e-38
-2.654706 1.1036305 -0.62974066 2.3509872e-38
-2.6498625 1.101992 -0.66180015 2.3509873e-38
-2.6492765 1.1086539 -0.66694319 2.3509873e-38
-2.649524 1.1199533 -0.66737056 2.3509874e-38
-2.6995678 -0.16388184 -0.096580923 2.3509876e-38
-2.7023015 -0.074317418 -0.094810903 2.3509876e-38
-2.7050049 -0.043825239 -0.082361996 2.3509877e-38
-2.7073321 -0.010712788 -0.072911024 2.3509879e-38
-2.7207825 0.04472179 0.0067518651 2.3509879e-38
-2.7258911 -0.053995132 0.059063286 2.350988e-38
-2.7267709 -0.10358782 0.074073613 2.3509881e-38
-2.7254262 -0.12585193 0.069189131 2.3509881e-38
-2.7094932 -0.1910098 -0.025270045 2.3509883e-38
-2.7046456 -0.18975818 -0.057888359 2.3509884e-38
