# .PCD v0.7 - Point Cloud Data file format
VERSION 0.7
FIELDS x y z rgb
SIZE 4 4 4 4
TYPE F F F F
COUNT 1 1 1 1
WIDTH 65
HEIGHT 1
VIEWPOINT 0 0 0 1 0 0 0
POINTS 65
DATA ascii
2.2104788 -2.1499212 0.80744988 2.3509528e-38
2.2067573 -2.1495366 0.81661344 2.3509532e-38
2.2175043 -2.1497598 0.80917877 2.3509538e-38
2.3124247 -2.148638 0.8098442 2.3509544e-38
2.3228621 -2.148735 0.80519348 2.3509549e-38
2.3886659 -2.1481538 0.80143338 2.3509555e-38
2.4208658 -2.1476007 0.80536282 2.3509561e-38
2.4342124 -2.1475239 0.80371875 2.3509566e-38
2.5094321 -2.1507711 0.71553534 2.3509572e-38
2.5304611 -2.1516261 0.69201398 2.3509577e-38
2.5386655 -2.1517837 0.68661243 2.3509583e-38
2.5694039 -2.151603 0.6829195 2.3509589e-38
2.5978775 -2.1519544 0.66835105 2.3509594e-38
2.6293871 -2.1515367 0.66954577 2.35096e-38
2.636385 -2.1514635 0.66939163 2.3509604e-38
2.672765 -2.1508904 0.67271882 2.350961e-38
2.7030046 -2.1507208 0.66889876 2.3509615e-38
2.7369854 -2.1504364 0.66662842 2.3509621e-38
2.7729023 -2.149832 0.67073798 2.3509626e-38
2.8149924 -2.1493127 0.67150718 2.3509632e-38
2.8273134 -2.1493273 0.66815609 2.3509638e-38
2.8618104 -2.1487362 0.67233884 2.3509643e-38
2.8954797 -2.1483376 0.67258811 2.3509649e-38
2.9108903 -2.1483054 0.66947615 2.3509654e-38
2.9287786 -2.1483545 0.66401297 2.350966e-38
2.9397304 -2.148308 0.66230953 2.3509666e-38
2.9627531 -2.1481609 0.65978652 2.3509671e-38
2.9950132 -2.1479573 0.65620273 2.3509675e-38
3.025485 -2.1483259 0.64079124 2.3509681e-38
3.0376325 -2.1484535 0.63506395 2.3509687e-38
3.0433581 -2.1485395 0.63180244 2.3509692e-38
3.0494597 -2.1485696 0.62964994 2.3509698e-38
3.038347 -2.1483178 0.63779622 2.3509703e-38
3.0189652 -2.1474102 0.66203052 2.3509709e-38
3.0026093 -2.1470094 0.67466861 2.3509715e-38
2.9868889 -2.1466184 0.68693274 2.350972e-38
2.9653237 -2.1441057 0.74614096 2.3509726e-38
2.9501817 -2.1433544 0.76599288 2.3509731e-38
2.9445703 -2.1403966 0.83081263 2.3509737e-38
2.9271891 -2.1402483 0.83828002 2.3509743e-38
2.881628 -2.1379786 0.89819705 2.3509747e-38
2.875927 -2.1373703 0.91263562 2.3509752e-38
2.8662741 -2.1359153 0.94622988 2.3509758e-38
2.8582847 -2.1337154 0.99538559 2.3509764e-38
2.8389857 -2.1314507 1.0487144 2.3509769e-38
2.8086843 -2.1321421 1.0413567 2.3509775e-38
2.7844043 -2.1328683 1.0317594 2.3509781e-38
2.7628591 -2.133281 1.0282196 2.3509786e-38
2.7460432 -2.1338837 1.0194384 2.3509792e-38
2.704663 -2.1353941 0.9972446 2.3509797e-38
2.6870439 -2.135987 0.98886305 2.3509803e-38
2.6133759 -2.1385646 0.95173627 2.3509809e-38
2.5886936 -2.1391101 0.94611847 2.3509814e-38
2.5672722 -2.1395195 0.94261295 2.3509818e-38
2.5360935 -2.1403725 0.9320085 2.3509824e-38
2.5099399 -2.141557 0.9130373 2.350983e-38
2.4792149 -2.1422694 0.90534055 2.3509835e-38
2.459959 -2.1429162 0.89621174 2.3509841e-38
2.4428599 -2.1435983 0.88578975 2.3509846e-38
2.4241593 -2.1442549 0.87631702 2.3509852e-38
2.405159 -2.1447072 0.87129515 2.3509858e-38
2.3754752 -2.1454961 0.86168659 2.3509863e-38
2.352138 -2.1459663 0.85736752 2.3509869e-38
2.3300767 -2.1464028 0.853441 2.3509874e-38
2.321877 -2.1466844 0.84941572 2.350988e-38
