# .PCD v0.7 - Point Cloud Data file format
VERSION 0.7
FIELDS x y z rgb
SIZE 4 4 4 4
TYPE F F F F
COUNT 1 1 1 1
WIDTH 88
HEIGHT 1
VIEWPOINT 0 0 0 1 0 0 0
POINTS 88
DATA ascii
2.2172232 -0.21647884 0.8294242 2.3509528e-38
2.196655 -0.22197789 0.83030891 2.3509531e-38
2.1646252 -0.22436184 0.83178306 2.3509535e-38
2.1394944 -0.22505684 0.83295786 2.3509539e-38
2.0723691 -0.25882658 0.83560002 2.3509544e-38
2.061012 -0.26444918 0.83604848 2.3509548e-38
2.0406721 -0.25850895 0.83710033 2.3509552e-38
2.0216351 -0.25174168 0.83810353 2.3509556e-38
2.0014627 -0.24569513 0.83914924 2.3509561e-38
1.9837607 -0.23840782 0.84009755 2.3509565e-38
1.9406595 -0.22773722 0.84229684 2.3509568e-38
1.9199228 -0.22162656 0.84336996 2.3509572e-38
1.8827022 -0.22484896 0.84507585 2.3509576e-38
1.8518258 -0.22439949 0.8465395 2.350958e-38
1.8075448 -0.23078516 0.84852934 2.3509584e-38
1.801375 -0.21752277 0.8490265 2.3509589e-38
1.8323784 -0.21789284 0.84755802 2.3509593e-38
1.855544 -0.090265438 0.84844798 2.3509597e-38
1.7812015 -0.046372086 0.85263711 2.3509601e-38
1.760766 -0.040492553 0.85369253 2.3509605e-38
1.7210555 0.03788995 0.85678369 2.3509608e-38
1.639855 0.028686043 0.86047161 2.3509612e-38
1.5795969 0.11299874 0.86462414 2.3509617e-38
1.5590916 0.11883382 0.8656823 2.3509621e-38
1.5386442 0.12470558 0.86673814 2.3509625e-38
1.5325975 0.17107584 0.86774379 2.3509629e-38
1.526183 0.21741837 0.86876631 2.3509633e-38
1.5201235 0.23063095 0.86925745 2.3509638e-38
1.5262949 0.28317031 0.86978257 2.3509642e-38
1.5344775 0.30277088 0.86970109 2.3509646e-38
1.5354422 0.33759883 0.87019658 2.3509649e-38
1.5359305 0.37298593 0.87072331 2.3509653e-38
1.5290873 0.41671675 0.87172556 2.3509657e-38
1.524591 0.46438551 0.87267822 2.3509661e-38
1.5239739 0.49662286 0.87320817 2.3509666e-38
1.529948 0.51609337 0.87322885 2.350967e-38
1.5232769 0.56206709 0.87425774 2.3509674e-38
1.5177708 0.57598054 0.87473381 2.3509678e-38
1.5299867 0.58200467 0.87425101 2.3509682e-38
1.5554092 0.59496921 0.87325299 2.3509687e-38
1.5728482 0.60422659 0.87257415 2.3509689e-38
1.6010641 0.61838657 0.87146294 2.3509694e-38
1.6209708 0.61297584 0.87043971 2.3509698e-38
1.658549 0.60655946 0.86856711 2.3509702e-38
1.6719033 0.606332 0.86793363 2.3509706e-38
1.6924235 0.60019112 0.86687016 2.350971e-38
1.7330611 0.60494483 0.86502683 2.3509715e-38
1.7426029 0.61001986 0.86465549 2.3509719e-38
1.7761431 0.60883641 0.86305475 2.3509723e-38
1.8116114 0.61258852 0.86143976 2.3509726e-38
1.8778558 0.61412358 0.85833836 2.350973e-38
1.9153941 0.61726069 0.85661614 2.3509734e-38
1.9329025 0.60746706 0.85563803 2.3509738e-38
1.9501108 0.60221493 0.85474461 2.3509743e-38
1.9854668 0.60385382 0.85310203 2.3509747e-38
2.0001817 0.60966957 0.85249817 2.3509751e-38
2.0196652 0.61386091 0.85164416 2.3509755e-38
2.0351608 0.61144376 0.85087544 2.3509759e-38
2.0690608 0.61445516 0.84932297 2.3509764e-38
2.1017754 0.61266947 0.84775192 2.3509767e-38
2.1366611 0.61610079 0.84615934 2.3509771e-38
2.1574373 0.61072296 0.84509563 2.3509775e-38
2.1924751 0.61419052 0.84349656 2.3509779e-38
2.2104542 0.60680377 0.84253365 2.3509783e-38
2.2286019 0.59816599 0.8415432 2.3509788e-38
2.2623136 0.57805812 0.83964038 2.3509792e-38
2.2778022 0.57433128 0.83885175 2.3509796e-38
2.2785759 0.50872767 0.83779609 2.35098e-38
2.2856693 0.49596548 0.83726323 2.3509804e-38
2.2904181 0.44899318 0.83630937 2.3509807e-38
2.2460008 0.39239177 0.83752549 2.3509811e-38
2.264266 0.33246186 0.83573276 2.3509816e-38
2.2676356 0.32168728 0.83540636 2.350982e-38
2.2884231 0.28579453 0.83386827 2.3509824e-38
2.2647989 0.23460941 0.83418745 2.3509828e-38
2.2670856 0.15575197 0.83285457 2.3509832e-38
2.2661095 0.089814425 0.83187616 2.3509837e-38
2.2601693 0.070221245 0.83185202 2.3509841e-38
2.2480571 0.051391646 0.83213091 2.3509845e-38
2.2381787 0.042215906 0.83245438 2.3509848e-38
2.2202394 -0.00011529587 0.83264309 2.3509852e-38
2.2239475 -0.031019758 0.8319881 2.3509856e-38
2.203232 -0.058261774 0.83254212 2.350986e-38
2.1900749 -0.065229587 0.83305466 2.3509865e-38
2.1671045 -0.15958714 0.83267236 2.3509869e-38
2.1738739 -0.17255506 0.83215147 2.3509873e-38
2.2291265 -0.21414784 0.82889867 2.3509877e-38
2.2465978 -0.21747163 0.8280229 2.3509881e-38
