# .PCD v0.7 - Point Cloud Data file format
VERSION 0.7
FIELDS x y z rgb
SIZE 4 4 4 4
TYPE F F F F
COUNT 1 1 1 1
WIDTH 518
HEIGHT 1
VIEWPOINT 0 0 0 1 0 0 0
POINTS 518
DATA ascii
-1.7529848 2.54953 -0.99994743 2.3509528e-38
-1.7228075 2.5458164 -1.0435734 2.3509528e-38
-1.6907599 2.5437047 -1.054088 2.3509528e-38
-1.6752311 2.5426652 -1.0595046 2.350953e-38
-1.6396508 2.5411258 -1.0554364 2.350953e-38
-1.5879154 2.5380123 -1.0666471 2.3509531e-38
-1.5553744 2.5362368 -1.0701154 2.3509531e-38
-1.528237 2.5348516 -1.071146 2.3509532e-38
-1.4983361 2.5333581 -1.071638 2.3509532e-38
-1.4288194 2.5303011 -1.0646676 2.3509534e-38
-1.4150306 2.5295351 -1.0664089 2.3509534e-38
-1.3989105 2.5285616 -1.0699635 2.3509535e-38
-1.3832445 2.527914 -1.0675861 2.3509535e-38
-1.3613179 2.526773 -1.0688436 2.3509537e-38
-1.3167465 2.5246994 -1.0665954 2.3509537e-38
-1.2898558 2.5234265 -1.0656574 2.3509538e-38
-1.2751814 2.5225828 -1.0680748 2.3509538e-38
-1.2361678 2.5208223 -1.065043 2.3509539e-38
-1.222014 2.5201545 -1.0645051 2.3509539e-38
-1.2069757 2.5194376 -1.0640863 2.3509541e-38
-1.1805085 2.5180893 -1.0650313 2.3509541e-38
-1.1726598 2.5177412 -1.0643028 2.3509542e-38
-1.1513181 2.5169418 -1.0594437 2.3509542e-38
-1.1440955 2.5166144 -1.0589142 2.3509544e-38
-1.1291368 2.5158403 -1.05969 2.3509544e-38
-1.1235969 2.5155308 -1.0604223 2.3509545e-38
-1.1042612 2.5145202 -1.061614 2.3509545e-38
-1.0899801 2.5137608 -1.0627511 2.3509547e-38
-1.0744026 2.5130515 -1.0616579 2.3509547e-38
-1.0686269 2.512948 -1.0581354 2.3509548e-38
-0.98782575 2.5103412 -1.0315435 2.3509548e-38
-0.95549142 2.5075769 -1.0545381 2.3509549e-38
-0.87164807 2.5063865 -0.99733365 2.3509549e-38
-0.8358444 2.5046668 -0.99657625 2.3509551e-38
-0.77285349 2.4990864 -1.0452023 2.3509551e-38
-0.76005751 2.4983659 -1.0469962 2.3509552e-38
-0.73877752 2.4975455 -1.0426148 2.3509552e-38
-0.70215136 2.49582 -1.0411785 2.3509554e-38
-0.69372034 2.4953532 -1.0422159 2.3509554e-38
-0.6533792 2.4933889 -1.0418947 2.3509555e-38
-0.63203973 2.4923935 -1.0408626 2.3509555e-38
-0.58305538 2.4901745 -1.0372192 2.3509556e-38
-0.57091355 2.4893858 -1.040989 2.3509556e-38
-0.56091726 2.4889622 -1.0396676 2.3509558e-38
-0.54179907 2.488035 -1.0394514 2.3509558e-38
-0.52780038 2.4874411 -1.0376133 2.3509559e-38
-0.51736164 2.4869835 -1.0365454 2.3509559e-38
-0.50071871 2.4861581 -1.0367024 2.3509561e-38
-0.43679631 2.4832432 -1.032323 2.3509561e-38
-0.42869911 2.4828086 -1.0330504 2.3509562e-38
-0.40998855 2.4818506 -1.0338132 2.3509562e-38
-0.39178467 2.4809637 -1.0336721 2.3509563e-38
-0.3752203 2.480202 -1.0326644 2.3509563e-38
-0.30435255 2.4790461 -0.98724055 2.3509565e-38
-0.28319201 2.478143 -0.98458648 2.3509565e-38
-0.20964354 2.471982 -1.0344166 2.3509566e-38
-0.17801973 2.4700429 -1.0419668 2.3509566e-38
-0.16799763 2.4693761 -1.0453831 2.3509568e-38
-0.14991979 2.4683146 -1.0487748 2.3509568e-38
-0.12111974 2.4663675 -1.0591953 2.3509569e-38
-0.086603478 2.4647655 -1.0573727 2.3509569e-38
-0.030968189 2.4619687 -1.0586482 2.350957e-38
0.0078911856 2.4602616 -1.0547193 2.350957e-38
0.059375659 2.4576576 -1.0562013 2.3509572e-38
0.095326066 2.455996 -1.0541716 2.3509572e-38
0.14572938 2.4534779 -1.0550152 2.3509572e-38
0.1876242 2.4515147 -1.0531799 2.3509573e-38
0.22809292 2.4497352 -1.0491205 2.3509573e-38
0.24937396 2.4483385 -1.0559919 2.3509575e-38
0.28431159 2.4468174 -1.0521938 2.3509575e-38
0.32653937 2.4447196 -1.0526688 2.3509576e-38
0.36740118 2.442817 -1.0506338 2.3509576e-38
0.38062134 2.4419551 -1.0547968 2.3509577e-38
0.42176163 2.4400542 -1.0524666 2.3509577e-38
0.46916127 2.4376614 -1.0537388 2.3509579e-38
0.50592053 2.4360278 -1.0503808 2.3509579e-38
0.5244056 2.435596 -1.0410851 2.350958e-38
0.54599786 2.4350569 -1.0309005 2.350958e-38
0.63600844 2.4305634 -1.0323292 2.3509582e-38
0.64892888 2.4297061 -1.0366898 2.3509582e-38
0.6587764 2.4289999 -1.0410453 2.3509583e-38
0.68823433 2.429409 -1.0047711 2.3509583e-38
0.71317899 2.4293075 -0.98281562 2.3509584e-38
0.83890462 2.4217415 -1.0100319 2.3509584e-38
0.85268849 2.4207706 -1.0157738 2.3509586e-38
0.87822223 2.4183385 -1.0388094 2.3509586e-38
0.89851135 2.4169981 -1.0455302 2.3509587e-38
0.93663597 2.4152923 -1.0422877 2.3509587e-38
0.98657227 2.4127698 -1.0436689 2.3509589e-38
1.027482 2.4108095 -1.0427073 2.3509589e-38
1.036449 2.4102168 -1.0456871 2.350959e-38
1.0686301 2.4087822 -1.0428448 2.350959e-38
1.1123096 2.40677 -1.040253 2.3509591e-38
1.1459591 2.4053378 -1.0359473 2.3509591e-38
1.1940165 2.402909 -1.0372952 2.3509593e-38
1.1908324 2.4038291 -1.0223691 2.3509593e-38
1.1875188 2.4056482 -0.9899931 2.3509594e-38
1.1943228 2.4083765 -0.93012941 2.3509594e-38
1.199139 2.4088614 -0.91603464 2.3509596e-38
1.202256 2.4094121 -0.9022699 2.3509596e-38
1.2004958 2.4111416 -0.87015843 2.3509597e-38
1.2099774 2.4128246 -0.82816148 2.3509597e-38
1.2078493 2.4145846 -0.79579854 2.3509598e-38
1.2171037 2.4154549 -0.76990366 2.3509598e-38
1.2101202 2.4162281 -0.76150405 2.35096e-38
1.2009912 2.416712 -0.76079589 2.35096e-38
1.123884 2.4242408 -0.68764395 2.3509601e-38
1.1284899 2.426333 -0.64233005 2.3509601e-38
1.1324347 2.426913 -0.62720668 2.3509603e-38
1.117069 2.4286611 -0.60778749 2.3509603e-38
1.1039786 2.4311283 -0.5721277 2.3509604e-38
1.1017009 2.4320426 -0.55644619 2.3509604e-38
1.0921372 2.4333906 -0.53927207 2.3509605e-38
1.0786331 2.4352088 -0.51669061 2.3509605e-38
1.0701656 2.4357505 -0.5142312 2.3509607e-38
1.0555972 2.4366472 -0.51068711 2.3509607e-38
1.0347446 2.4373174 -0.5176003 2.3509608e-38
0.91577137 2.4428864 -0.52294153 2.3509608e-38
0.91382855 2.4470725 -0.44297618 2.350961e-38
0.90601277 2.4514549 -0.36482072 2.350961e-38
0.93061578 2.4530406 -0.3102178 2.3509611e-38
1.0223279 2.4500513 -0.28061652 2.3509611e-38
1.0527087 2.4479523 -0.29248226 2.3509612e-38
1.0676793 2.4473796 -0.28931582 2.3509612e-38
1.0807801 2.4468966 -0.2861762 2.3509614e-38
1.1099818 2.4465735 -0.26446828 2.3509614e-38
1.1012931 2.4478984 -0.24690771 2.3509615e-38
1.0764995 2.450381 -0.22218089 2.3509615e-38
1.0402683 2.4536209 -0.1936205 2.3509617e-38
1.0006496 2.4569824 -0.16594158 2.3509617e-38
0.97723252 2.4585865 -0.15706992 2.3509617e-38
0.93031555 2.4608788 -0.15729102 2.3509618e-38
0.83822966 2.4686818 -0.093151569 2.3509618e-38
0.84212977 2.4699838 -0.063963518 2.3509619e-38
0.84069747 2.4709868 -0.045731902 2.3509619e-38
0.84037733 2.4716983 -0.032134213 2.3509621e-38
0.84008914 2.4740531 0.01361917 2.3509621e-38
0.83938652 2.4756944 0.045026585 2.3509622e-38
0.83881629 2.4763451 0.057202414 2.3509622e-38
0.83229053 2.4775238 0.073972061 2.3509624e-38
0.82538015 2.4784214 0.084888935 2.3509624e-38
0.80963171 2.4824538 0.14858401 2.3509625e-38
0.83465999 2.4831889 0.18698336 2.3509625e-38
0.84431946 2.4833245 0.19890663 2.3509626e-38
0.82882905 2.4875124 0.26589978 2.3509626e-38
0.83025098 2.4889584 0.29552576 2.3509628e-38
0.82847857 2.4907532 0.32890019 2.3509628e-38
0.82082838 2.4951751 0.40799522 2.3509629e-38
0.81793165 2.4969819 0.44052964 2.3509629e-38
0.81537521 2.4987826 0.47327876 2.3509631e-38
0.79966187 2.5021605 0.52422166 2.3509631e-38
0.80776238 2.5031948 0.55221289 2.3509632e-38
0.81397259 2.5035744 0.56560004 2.3509632e-38
0.8090573 2.5054936 0.59838527 2.3509633e-38
0.80640584 2.5072558 0.63028389 2.3509633e-38
0.78361827 2.5103703 0.66929549 2.3509635e-38
0.78291357 2.512794 0.71599185 2.3509635e-38
0.77986133 2.5137386 0.73152435 2.3509636e-38
0.77103567 2.5143278 0.73457533 2.3509636e-38
0.75784087 2.5144768 0.72481817 2.3509638e-38
0.75231135 2.5140955 0.71206188 2.3509638e-38
0.63289404 2.5192196 0.69760704 2.3509639e-38
0.60126841 2.5221441 0.7244069 2.3509639e-38
0.5504809 2.5244973 0.72165525 2.350964e-38
0.51116747 2.5265176 0.7234177 2.350964e-38
0.40508282 2.5318825 0.72646594 2.3509642e-38
0.39470965 2.5332725 0.74367017 2.3509642e-38
0.38268757 2.5347934 0.76186395 2.3509643e-38
0.37857601 2.5351834 0.76553601 2.3509643e-38
0.33541557 2.5395977 0.81039828 2.3509645e-38
0.32684425 2.5413194 0.83582371 2.3509645e-38
0.28761417 2.5433908 0.83866262 2.3509646e-38
0.26678643 2.5449507 0.84915322 2.3509646e-38
0.26273823 2.5451732 0.84961855 2.3509647e-38
0.24303663 2.5463076 0.85288191 2.3509647e-38
0.16723105 2.5507176 0.86632979 2.3509649e-38
0.15490644 2.5515823 0.87140441 2.3509649e-38
0.11704551 2.5531538 0.86577755 2.350965e-38
0.060908593 2.5557942 0.8635087 2.350965e-38
0.037739851 2.5569518 0.86389512 2.3509652e-38
0.026067384 2.557435 0.86213946 2.3509652e-38
0.004440017 2.5583999 0.86023819 2.3509653e-38
-0.0051367655 2.5588841 0.86050814 2.3509653e-38
-0.059029229 2.5624352 0.87819564 2.3509654e-38
-0.10684443 2.5648341 0.87919354 2.3509654e-38
-0.16385341 2.5702941 0.93119669 2.3509656e-38
-0.17597517 2.5710769 0.93486142 2.3509656e-38
-0.21568033 2.5729835 0.93401825 2.3509657e-38
-0.2464312 2.574928 0.94251442 2.3509657e-38
-0.26509267 2.5762377 0.95020556 2.3509659e-38
-0.30203122 2.5779023 0.94728744 2.3509659e-38
-0.36235362 2.5811701 0.9532584 2.350966e-38
-0.4036929 2.5839238 0.96740687 2.350966e-38
-0.41424665 2.5841794 0.96227741 2.3509661e-38
-0.48634756 2.5862818 0.93416059 2.3509661e-38
-0.51254916 2.5872128 0.92721272 2.3509661e-38
-0.53109258 2.5867391 0.90016031 2.3509663e-38
-0.58191574 2.5862484 0.84178799 2.3509663e-38
-0.58659792 2.5856273 0.82515079 2.3509664e-38
-0.6086278 2.5840204 0.7725929 2.3509664e-38
-0.67132205 2.5851259 0.7340309 2.3509666e-38
-0.69853157 2.5853081 0.71147561 2.3509666e-38
-0.7430402 2.5861416 0.68505168 2.3509667e-38
-0.75073922 2.5863054 0.68085974 2.3509667e-38
-0.76840717 2.5868344 0.67423987 2.3509668e-38
-0.79041934 2.5874686 0.66551745 2.3509668e-38
-0.85775453 2.5909808 0.66952962 2.350967e-38
-0.86444849 2.591543 0.67408943 2.350967e-38
-0.91383958 2.5939267 0.67327571 2.3509671e-38
-0.95337796 2.5957239 0.67045826 2.3509671e-38
-0.9694649 2.5967615 0.67529786 2.3509673e-38
-0.97848916 2.5973434 0.67800969 2.3509673e-38
-1.0058321 2.5986674 0.67765206 2.3509674e-38
-1.0722102 2.6028788 0.69625968 2.3509674e-38
-1.0994241 2.6045663 0.70312065 2.3509675e-38
-1.1461372 2.6062136 0.69048655 2.3509675e-38
-1.169757 2.6069589 0.68238384 2.3509677e-38
-1.2778488 2.6127045 0.69094318 2.3509677e-38
-1.3020294 2.6149631 0.71187854 2.3509678e-38
-1.3444976 2.6187298 0.74474603 2.3509678e-38
-1.3526785 2.6198542 0.75886482 2.350968e-38
-1.3662535 2.6214666 0.7773608 2.350968e-38
-1.4012994 2.6230323 0.77432239 2.3509681e-38
-1.4442699 2.623755 0.74720478 2.3509681e-38
-1.4649972 2.6243689 0.73931372 2.3509682e-38
-1.5144062 2.6269143 0.74163723 2.3509682e-38
-1.5673759 2.6299334 0.74981093 2.3509684e-38
-1.5899041 2.6302593 0.73455888 2.3509684e-38
-1.6092402 2.6307425 0.72544456 2.3509685e-38
-1.6464875 2.6324301 0.72267848 2.3509685e-38
-1.6782941 2.6342437 0.72759807 2.3509687e-38
-1.6995194 2.6351264 0.72448164 2.3509687e-38
-1.7371864 2.6365342 0.71584886 2.3509688e-38
-1.7684636 2.6385384 0.72499621 2.3509688e-38
-1.7991884 2.6386652 0.69798112 2.3509689e-38
-1.8051759 2.6388235 0.69534087 2.3509689e-38
-1.8147221 2.637897 0.66806346 2.3509691e-38
-1.8074754 2.6358168 0.63436341 2.3509691e-38
-1.8037194 2.6324439 0.57203764 2.3509692e-38
-1.8082131 2.6309683 0.53889281 2.3509692e-38
-1.8064595 2.6302743 0.5269931 2.3509694e-38
-1.8068092 2.629467 0.51088583 2.3509694e-38
-1.809942 2.6279917 0.47903848 2.3509695e-38
-1.8082404 2.6271799 0.46480536 2.3509695e-38
-1.8073357 2.6261845 0.4462114 2.3509696e-38
-1.8070033 2.6254711 0.43259251 2.3509696e-38
-1.8090717 2.6249046 0.41953093 2.3509698e-38
-1.8039644 2.6235678 0.39831021 2.3509698e-38
-1.8018223 2.622009 0.3698926 2.3509699e-38
-1.8093526 2.6208994 0.34097505 2.3509699e-38
-1.8093895 2.6200454 0.32424521 2.3509701e-38
-1.8102325 2.6192338 0.30757344 2.3509701e-38
-1.8093017 2.6190619 0.30511206 2.3509702e-38
-1.803645 2.6172407 0.27493301 2.3509702e-38
-1.8022856 2.6164534 0.26085258 2.3509703e-38
-1.7998078 2.6154866 0.24433929 2.3509703e-38
-1.7981012 2.6146703 0.23001595 2.3509705e-38
-1.7967572 2.6136703 0.21175854 2.3509705e-38
-1.795964 2.6128423 0.19633539 2.3509706e-38
-1.8007399 2.6107221 0.15030883 2.3509706e-38
-1.8045839 2.6101227 0.13490894 2.3509706e-38
-1.8054211 2.6085722 0.10379367 2.3509708e-38
-1.8071094 2.6078653 0.088361591 2.3509708e-38
-1.8052204 2.607053 0.074291304 2.3509709e-38
-1.7997233 2.6060543 0.060044989 2.3509709e-38
-1.7882479 2.6024203 3.0040741e-05 2.350971e-38
-1.77605 2.5993962 -0.047371514 2.350971e-38
-1.7750812 2.5970821 -0.091673069 2.3509712e-38
-1.7722079 2.5936825 -0.15536916 2.3509712e-38
-1.7745895 2.5930998 -0.16904224 2.3509713e-38
-1.7828169 2.5925303 -0.18807113 2.3509713e-38
-1.7805271 2.5916195 -0.20368254 2.3509715e-38
-1.778666 2.5906663 -0.2205292 2.3509715e-38
-1.7753156 2.5900111 -0.23011577 2.3509716e-38
-1.7744381 2.5879457 -0.26964283 2.3509716e-38
-1.7918234 2.5854356 -0.33539695 2.3509717e-38
-1.796736 2.5849373 -0.34985155 2.3509717e-38
-1.7805336 2.5822082 -0.38764936 2.3509719e-38
-1.7597563 2.5790384 -0.42966342 2.3509719e-38
-1.7716577 2.5767758 -0.48531082 2.350972e-38
-1.7538482 2.5724363 -0.55303121 2.350972e-38
-1.7565453 2.5717075 -0.56987768 2.3509722e-38
-1.7683002 2.5709534 -0.59589362 2.3509722e-38
-1.7695742 2.5700145 -0.61547536 2.3509723e-38
-1.7544758 2.5659573 -0.68027896 2.3509723e-38
-1.7578483 2.5639043 -0.72365481 2.3509724e-38
-1.7575319 2.5637796 -0.72578406 2.3509724e-38
-1.7566148 2.5628979 -0.74213672 2.3509726e-38
-1.7644736 2.5617378 -0.77235842 2.3509726e-38
-1.7613082 2.5609879 -0.78398532 2.3509727e-38
-1.7600362 2.559865 -0.80470145 2.3509727e-38
-1.7606665 2.5586109 -0.82982862 2.3509729e-38
-1.7631526 2.5578806 -0.84647626 2.3509729e-38
-1.7633522 2.5565643 -0.87240922 2.350973e-38
-1.7626361 2.5551825 -0.89873028 2.350973e-38
-1.7613146 2.5545137 -0.91053283 2.3509731e-38
-1.7605693 2.5538535 -0.92272198 2.3509731e-38
-1.7579762 2.5533886 -0.92931372 2.3509733e-38
-1.7543166 2.5526958 -0.93934834 2.3509733e-38
-1.7531073 2.5508702 -0.97387463 2.3509734e-38
-1.7520535 2.5499818 -0.99022567 2.3509734e-38
-0.7600714 2.5677207 0.3086386 2.3509736e-38
-0.70758265 2.5649557 0.30496699 2.3509736e-38
-0.68945783 2.5645957 0.31532592 2.3509737e-38
-0.64818996 2.5632048 0.32775086 2.3509737e-38
-0.60224897 2.5603006 0.31507465 2.3509738e-38
-0.54574507 2.5580831 0.32596421 2.3509738e-38
-0.50891745 2.5568037 0.33630645 2.350974e-38
-0.47561291 2.5550287 0.3335768 2.350974e-38
-0.43350258 2.5522246 0.31918621 2.3509741e-38
-0.40712145 2.5506239 0.31322172 2.3509741e-38
-0.39160171 2.5495677 0.30747151 2.3509743e-38
-0.37125146 2.5490725 0.31732076 2.3509743e-38
-0.35016197 2.5491152 0.33840084 2.3509744e-38
-0.32473317 2.5485976 0.35268524 2.3509744e-38
-0.24581644 2.5441375 0.34125501 2.3509745e-38
-0.19400355 2.5390601 0.29174569 2.3509745e-38
-0.19010833 2.5378807 0.2724238 2.3509747e-38
-0.18968064 2.5377731 0.27073944 2.3509747e-38
-0.18002883 2.5363979 0.25311571 2.3509748e-38
-0.17314002 2.5351894 0.23610662 2.3509748e-38
-0.1748099 2.5328941 0.18963955 2.350975e-38
-0.17565569 2.531606 0.16365352 2.350975e-38
-0.1721929 2.5310576 0.15625142 2.3509751e-38
-0.16543597 2.5289531 0.12159984 2.3509751e-38
-0.16690513 2.5282609 0.10666187 2.3509751e-38
-0.16437197 2.5273688 0.091654405 2.3509752e-38
-0.16246316 2.5264642 0.075811654 2.3509752e-38
-0.16248462 2.5255988 0.058875412 2.3509754e-38
-0.15768638 2.5236943 0.026251614 2.3509754e-38
-0.15732947 2.5227587 0.0083075762 2.3509755e-38
-0.15427342 2.5218074 -0.0073565245 2.3509755e-38
-0.15212283 2.5183914 -0.07206732 2.3509757e-38
-0.15217012 2.5177331 -0.084979303 2.3509757e-38
-0.15390202 2.5171659 -0.097727105 2.3509758e-38
-0.15161458 2.5153289 -0.13143277 2.3509758e-38
-0.15636832 2.512768 -0.18605398 2.3509759e-38
-0.16060182 2.5121529 -0.20215017 2.3509759e-38
-0.15113249 2.5105569 -0.22424543 2.3509761e-38
-0.13529198 2.5071378 -0.27587232 2.3509761e-38
-0.15225497 2.5058477 -0.31737241 2.3509762e-38
-0.17520937 2.5057664 -0.34100235 2.3509762e-38
-0.19023308 2.505343 -0.36369389 2.3509764e-38
-0.15111327 2.5008817 -0.41335231 2.3509764e-38
-0.15166816 2.4992611 -0.44556069 2.3509765e-38
-0.20453143 2.4964993 -0.55028081 2.3509765e-38
-0.23556662 2.4965 -0.5800525 2.3509767e-38
-0.2293267 2.4955449 -0.59273744 2.3509767e-38
-0.22319254 2.4945245 -0.60679603 2.3509768e-38
-0.18787917 2.488739 -0.68598533 2.3509768e-38
-0.17031324 2.4860325 -0.72202611 2.3509769e-38
-0.17177334 2.4845555 -0.75230038 2.3509769e-38
-0.17542069 2.48401 -0.76645899 2.3509771e-38
-0.17134392 2.4832063 -0.77825916 2.3509771e-38
-0.17094073 2.4814758 -0.81170434 2.3509772e-38
-0.17167088 2.4812813 -0.81620836 2.3509772e-38
-0.17041397 2.4806945 -0.8264662 2.3509774e-38
-0.17763656 2.4785254 -0.87579405 2.3509774e-38
-0.17550066 2.4776058 -0.8917197 2.3509775e-38
-0.17500466 2.4768901 -0.9052341 2.3509775e-38
-0.2027068 2.4755089 -0.95881528 2.3509776e-38
-0.24592176 2.4767358 -0.97631741 2.3509776e-38
-0.27262804 2.4780686 -0.97590429 2.3509778e-38
-0.29604393 2.4792306 -0.97565657 2.3509778e-38
-0.32920504 2.4807608 -0.97757638 2.3509779e-38
-0.34300271 2.4814689 -0.97698677 2.3509779e-38
-0.36630526 2.4825923 -0.97738159 2.3509781e-38
-0.37883419 2.4832194 -0.97715425 2.3509781e-38
-0.41064227 2.4849696 -0.97347063 2.3509782e-38
-0.44378069 2.4867885 -0.96973228 2.3509782e-38
-0.47879389 2.4884415 -0.97103286 2.3509783e-38
-0.48101625 2.4884987 -0.97204137 2.3509783e-38
-0.51575851 2.4898577 -0.9788233 2.3509785e-38
-0.52265167 2.4901266 -0.98018658 2.3509785e-38
-0.54843557 2.491425 -0.97955215 2.3509786e-38
-0.57135725 2.4924762 -0.98100084 2.3509786e-38
-0.59365606 2.4936535 -0.97939718 2.3509788e-38
-0.60567319 2.4941776 -0.9806841 2.3509788e-38
-0.62575412 2.4952152 -0.97968698 2.3509789e-38
-0.64230692 2.4959326 -0.98154509 2.3509789e-38
-0.64686775 2.4961491 -0.98168886 2.350979e-38
-0.66146564 2.4967771 -0.9834255 2.350979e-38
-0.6739825 2.4973533 -0.98417532 2.3509792e-38
-0.67769045 2.4974976 -0.98491943 2.3509792e-38
-0.71049416 2.4990485 -0.98607951 2.3509793e-38
-0.72830367 2.5001881 -0.98090768 2.3509793e-38
-0.75768346 2.5014243 -0.98493612 2.3509795e-38
-0.7647239 2.501811 -0.98413444 2.3509795e-38
-0.77101827 2.5021248 -0.98404956 2.3509796e-38
-0.80014896 2.503365 -0.98776698 2.3509796e-38
-0.81401968 2.5039699 -0.98925745 2.3509796e-38
-0.83665466 2.5050321 -0.99021971 2.3509797e-38
-0.8566699 2.5059676 -0.99114323 2.3509797e-38
-0.86345673 2.506247 -0.99219775 2.3509799e-38
-0.89661622 2.5080669 -0.98845494 2.3509799e-38
-0.90495002 2.5083599 -0.99072182 2.35098e-38
-0.91932988 2.5089688 -0.99262321 2.35098e-38
-0.9411062 2.5098779 -0.99575317 2.3509802e-38
-0.94754171 2.5101924 -0.99578643 2.3509802e-38
-0.95560348 2.5104842 -0.99781919 2.3509803e-38
-0.97664917 2.511286 -1.0023509 2.3509803e-38
-1.005131 2.5126131 -1.0037491 2.3509804e-38
-1.0254408 2.5136268 -1.0034164 2.3509804e-38
-1.0385919 2.5143211 -1.0024725 2.3509806e-38
-1.0583575 2.5150254 -1.007681 2.3509806e-38
-1.0639968 2.5152578 -1.0085508 2.3509807e-38
-1.0759691 2.5157955 -1.0095271 2.3509807e-38
-1.0898684 2.5164931 -1.0092332 2.3509809e-38
-1.1032019 2.5172472 -1.007296 2.3509809e-38
-1.1163241 2.5180936 -1.0033443 2.350981e-38
-1.152372 2.5197811 -1.0049572 2.350981e-38
-1.1723262 2.5210142 -1.0000098 2.3509811e-38
-1.1846225 2.5214574 -1.0031418 2.3509811e-38
-1.206745 2.5222661 -1.0085689 2.3509813e-38
-1.2244095 2.5229373 -1.0123978 2.3509813e-38
-1.2430108 2.5237987 -1.0134264 2.3509814e-38
-1.2772692 2.5255055 -1.0129433 2.3509814e-38
-1.2978485 2.5264928 -1.0133932 2.3509816e-38
-1.3210417 2.5277243 -1.0115885 2.3509816e-38
-1.3436556 2.5291314 -1.0057844 2.3509817e-38
-1.3814726 2.5319386 -0.98721981 2.3509817e-38
-1.3927696 2.5327158 -0.98286974 2.3509818e-38
-1.405266 2.5336041 -0.97749215 2.3509818e-38
-1.426832 2.5342546 -0.98547912 2.350982e-38
-1.4398708 2.5346913 -0.98946863 2.350982e-38
-1.4587624 2.5353377 -0.99496293 2.3509821e-38
-1.4784458 2.5360119 -1.0006794 2.3509821e-38
-1.4915965 2.5364449 -1.0048292 2.3509823e-38
-1.527923 2.5374696 -1.0196701 2.3509823e-38
-1.5764207 2.5397003 -1.0226151 2.3509824e-38
-1.5875741 2.5404205 -1.0192449 2.3509824e-38
-1.6097431 2.5415006 -1.0194116 2.3509825e-38
-1.622952 2.5422044 -1.0183324 2.3509825e-38
-1.6302315 2.5424972 -1.0195975 2.3509827e-38
-1.6510397 2.5434618 -1.0207134 2.3509827e-38
-1.7283555 2.5490005 -0.98666215 2.3509828e-38
-1.7397374 2.551728 -0.94427192 2.3509828e-38
-1.7414818 2.5525758 -0.92937136 2.350983e-38
-1.7478909 2.5543013 -0.90179777 2.350983e-38
-1.7488133 2.5561841 -0.86588359 2.3509831e-38
-1.7317046 2.5579159 -0.81561315 2.3509831e-38
-1.7404524 2.5591941 -0.7990182 2.3509832e-38
-1.7510345 2.5618019 -0.75820136 2.3509832e-38
-1.7511468 2.5618548 -0.75727433 2.3509834e-38
-1.7385399 2.5640333 -0.70260102 2.3509834e-38
-1.7379872 2.5642033 -0.6987443 2.3509835e-38
-1.7347205 2.5654874 -0.67050385 2.3509835e-38
-1.7384887 2.5665874 -0.65262139 2.3509837e-38
-1.7393148 2.5675571 -0.63446224 2.3509837e-38
-1.7419527 2.5698333 -0.59250081 2.3509838e-38
-1.7400292 2.5715764 -0.55658126 2.3509838e-38
-1.7404189 2.5724139 -0.54058903 2.3509839e-38
-1.7402833 2.5729692 -0.52960378 2.3509839e-38
-1.7323619 2.57411 -0.499704 2.3509841e-38
-1.7375271 2.576205 -0.46370456 2.3509841e-38
-1.7394841 2.5769205 -0.45159525 2.3509841e-38
-1.7415998 2.5785666 -0.42145559 2.3509842e-38
-1.7415771 2.5795884 -0.40146238 2.3509842e-38
-1.7371939 2.5809104 -0.37140656 2.3509844e-38
-1.733801 2.5815434 -0.35578328 2.3509844e-38
-1.7376266 2.5832613 -0.32587945 2.3509845e-38
-1.740765 2.5851068 -0.29281175 2.3509845e-38
-1.7400527 2.5858912 -0.27680445 2.3509846e-38
-1.7494658 2.5880361 -0.24391335 2.3509846e-38
-1.7538999 2.5891325 -0.22673813 2.3509848e-38
-1.7521442 2.5906446 -0.19549042 2.3509848e-38
-1.749483 2.5919993 -0.1664634 2.3509849e-38
-1.7493799 2.5936346 -0.13439108 2.3509849e-38
-1.7519877 2.5946205 -0.11763019 2.3509851e-38
-1.754099 2.5952098 -0.10813696 2.3509851e-38
-1.7548079 2.5972013 -0.069890693 2.3509852e-38
-1.7587126 2.5990963 -0.036592476 2.3509852e-38
-1.7583956 2.6012461 0.0057293624 2.3509853e-38
-1.7675906 2.60429 0.05640246 2.3509853e-38
-1.7703338 2.6050184 0.068004698 2.3509855e-38
-1.7707235 2.6061492 0.089737952 2.3509855e-38
-1.7661343 2.6075239 0.12100862 2.3509856e-38
-1.7775518 2.6096826 0.15224521 2.3509856e-38
-1.773219 2.6111932 0.18593316 2.3509858e-38
-1.7004873 2.6123805 0.27894777 2.3509858e-38
-1.680648 2.6112783 0.27644688 2.3509859e-38
-1.6575795 2.6106694 0.28668481 2.3509859e-38
-1.6390713 2.6099017 0.28944445 2.350986e-38
-1.6319858 2.6096594 0.29151729 2.350986e-38
-1.6063554 2.608732 0.29797897 2.3509862e-38
-1.5657129 2.6068122 0.29946727 2.3509862e-38
-1.5501357 2.6057763 0.29417074 2.3509863e-38
-1.5031497 2.6026719 0.27858996 2.3509863e-38
-1.4840506 2.6021731 0.28716838 2.3509865e-38
-1.4466013 2.6004796 0.29001218 2.3509865e-38
-1.3892297 2.5982621 0.30173707 2.3509866e-38
-1.3406283 2.595767 0.29961503 2.3509866e-38
-1.3219399 2.5945933 0.29460931 2.3509867e-38
-1.3009413 2.5940011 0.30318439 2.3509867e-38
-1.1957163 2.5886168 0.29894432 2.3509869e-38
-1.1708722 2.5867822 0.28692168 2.3509869e-38
-1.1458558 2.5864644 0.30472487 2.350987e-38
-1.1075932 2.5849206 0.31127721 2.350987e-38
-1.0770915 2.5831115 0.30519611 2.3509872e-38
-1.0540218 2.5823538 0.3125205 2.3509872e-38
-1.0083103 2.5796874 0.30427808 2.3509873e-38
-0.99753058 2.5793452 0.30793458 2.3509873e-38
-0.98533368 2.5789387 0.31169492 2.3509874e-38
-0.96355546 2.5779893 0.31404406 2.3509874e-38
-0.95066202 2.5772729 0.31241256 2.3509876e-38
-0.92991114 2.5763025 0.31336135 2.3509876e-38
-0.91651249 2.5755553 0.31161243 2.3509877e-38
-0.90951002 2.5752225 0.31183255 2.3509877e-38
-0.88253725 2.5738199 0.31030554 2.3509879e-38
-0.86630452 2.5731237 0.31228346 2.3509879e-38
-0.84621632 2.5723183 0.31581587 2.350988e-38
-0.81329346 2.5703862 0.30965251 2.350988e-38
-0.7991401 2.5693841 0.30365351 2.3509881e-38
-1.2811399 2.6095133 0.62539905 2.3509881e-38
-1.3787344 2.6104796 0.55061549 2.3509883e-38
-1.2462795 2.6023421 0.51869416 2.3509883e-38
-1.2400219 2.6026952 0.53160465 2.3509884e-38
-1.2354355 2.6032872 0.5475769 2.3509884e-38
