# .PCD v0.7 - Point Cloud Data file format
VERSION 0.7
FIELDS x y z rgb
SIZE 4 4 4 4
TYPE F F F F
COUNT 1 1 1 1
WIDTH 289
HEIGHT 1
VIEWPOINT 0 0 0 1 0 0 0
POINTS 289
DATA ascii
-1.2188339 -2.2193234 -1.1183592 2.3509528e-38
-1.2824483 -2.2265155 -1.1112778 2.3509528e-38
-1.3028449 -2.2452903 -1.0927776 2.350953e-38
-1.2679602 -2.2428727 -1.0951569 2.3509531e-38
-1.2517281 -2.2408652 -1.0971334 2.3509532e-38
-1.2331331 -2.2417264 -1.0962828 2.3509534e-38
-1.198154 -2.2436619 -1.0943724 2.3509535e-38
-1.1621746 -2.2419858 -1.0960207 2.3509537e-38
-1.1040957 -2.2469978 -1.0910755 2.3509538e-38
-1.0730633 -2.245677 -1.0923742 2.3509538e-38
-1.0347896 -2.2461715 -1.0918834 2.3509539e-38
-1.015775 -2.2481759 -1.0899062 2.3509541e-38
-0.97808778 -2.2503026 -1.0878067 2.3509542e-38
-0.94731241 -2.2495291 -1.0885658 2.3509544e-38
-0.9295727 -2.2491617 -1.0889263 2.3509545e-38
-0.88814431 -2.2534277 -1.0847181 2.3509547e-38
-0.85399127 -2.2545466 -1.0836122 2.3509548e-38
-0.83481842 -2.2535801 -1.0845629 2.3509549e-38
-0.81731176 -2.2539253 -1.0842209 2.3509549e-38
-0.79775143 -2.2551243 -1.0830371 2.3509551e-38
-0.77864051 -2.2559288 -1.0822427 2.3509552e-38
-0.76064819 -2.2566128 -1.0815669 2.3509554e-38
-0.73926383 -2.2606421 -1.0775944 2.3509555e-38
-0.70090371 -2.2640128 -1.0742693 2.3509556e-38
-0.67121524 -2.2585938 -1.0796061 2.3509558e-38
-0.65528166 -2.2576056 -1.0805786 2.3509559e-38
-0.6380769 -2.2578516 -1.0803344 2.3509559e-38
-0.61883014 -2.2565577 -1.0816077 2.3509561e-38
-0.5719263 -2.2544365 -1.0836935 2.3509562e-38
-0.51870489 -2.2528331 -1.0852684 2.3509563e-38
-0.48139125 -2.2538617 -1.084251 2.3509565e-38
-0.44908974 -2.2491212 -1.0889194 2.3509566e-38
-0.43476281 -2.2487831 -1.0892515 2.3509568e-38
-0.37891522 -2.2347167 -1.1031079 2.3509569e-38
-0.35677132 -2.2379177 -1.0999513 2.350957e-38
-0.34416083 -2.2421131 -1.0958157 2.350957e-38
-0.33370408 -2.2452011 -1.0927714 2.3509572e-38
-0.30070844 -2.243191 -1.0947492 2.3509573e-38
-0.27833435 -2.2482018 -1.0898089 2.3509575e-38
-0.2580142 -2.247776 -1.0902268 2.3509576e-38
-0.21715364 -2.2539048 -1.084183 2.3509577e-38
-0.14632562 -2.253916 -1.084165 2.3509579e-38
-0.11266621 -2.2531404 -1.0849259 2.350958e-38
-0.096769758 -2.2505486 -1.0874786 2.350958e-38
-0.058038842 -2.2545352 -1.0835459 2.3509582e-38
-0.024625152 -2.2519231 -1.0861173 2.3509583e-38
0.01520412 -2.2569163 -1.0811927 2.3509584e-38
0.046774771 -2.2532525 -1.0848 2.3509586e-38
0.065654948 -2.2540138 -1.084048 2.3509587e-38
0.10376679 -2.2571864 -1.0809178 2.3509589e-38
0.12006389 -2.2550011 -1.08307 2.350959e-38
0.13749874 -2.2543924 -1.0836681 2.3509591e-38
0.15354036 -2.254889 -1.0831771 2.3509591e-38
0.17078662 -2.2541394 -1.0839142 2.3509593e-38
0.18947436 -2.2555814 -1.0824914 2.3509594e-38
0.2087211 -2.2542419 -1.0838093 2.3509596e-38
0.23547781 -2.2476883 -1.0902653 2.3509597e-38
0.27487865 -2.2516427 -1.0863643 2.3509598e-38
0.34154338 -2.2475288 -1.0904121 2.35096e-38
0.37702239 -2.247741 -1.0901995 2.3509601e-38
0.39422745 -2.2477055 -1.0902327 2.3509601e-38
0.43303016 -2.2473264 -1.0906029 2.3509603e-38
0.46123612 -2.245086 -1.092808 2.3509604e-38
0.48143426 -2.2457986 -1.0921036 2.3509605e-38
0.49664152 -2.2429626 -1.094897 2.3509607e-38
0.54813451 -2.2412987 -1.0965316 2.3509608e-38
0.58549118 -2.2435117 -1.0943471 2.350961e-38
0.60214406 -2.2403581 -1.0974534 2.3509611e-38
0.63721997 -2.240871 -1.0969446 2.3509612e-38
0.65339899 -2.2402794 -1.0975258 2.3509612e-38
0.6718201 -2.2419751 -1.0958531 2.3509614e-38
0.68901891 -2.2407107 -1.0970974 2.3509615e-38
0.72264963 -2.2383966 -1.0993745 2.3509617e-38
0.73808986 -2.23806 -1.0997047 2.3509618e-38
0.77649236 -2.239923 -1.0978651 2.3509619e-38
0.82752305 -2.2398052 -1.0979764 2.3509621e-38
0.84989148 -2.238663 -1.0990996 2.3509622e-38
0.88082904 -2.2379079 -1.0998409 2.3509622e-38
0.89446104 -2.2371833 -1.1005535 2.3509624e-38
0.9158197 -2.2340236 -1.1036654 2.3509625e-38
0.93467057 -2.2339203 -1.1037652 2.3509626e-38
0.96676195 -2.2344816 -1.103209 2.3509628e-38
0.99457282 -2.2311275 -1.1065118 2.3509629e-38
1.0189438 -2.2346292 -1.1030585 2.3509631e-38
1.0343792 -2.2307739 -1.1068561 2.3509632e-38
1.0493884 -2.228986 -1.1086168 2.3509633e-38
1.0851768 -2.2296753 -1.1079338 2.3509633e-38
1.0994993 -2.2274859 -1.1100903 2.3509635e-38
1.1346009 -2.2300575 -1.1075525 2.3509636e-38
1.1535169 -2.2267685 -1.1107918 2.3509638e-38
1.1867831 -2.225008 -1.1125233 2.3509639e-38
1.2036707 -2.2230511 -1.1144506 2.350964e-38
1.2226762 -2.2239153 -1.1135969 2.3509642e-38
1.2572078 -2.2243938 -1.113122 2.3509643e-38
1.2753733 -2.2253056 -1.112222 2.3509643e-38
1.2937163 -2.2250469 -1.1124749 2.3509645e-38
1.3392093 -2.2220511 -1.1154226 2.3509646e-38
1.3594629 -2.221019 -1.1164378 2.3509647e-38
1.395368 -2.2208917 -1.11656 2.3509649e-38
1.4513762 -2.2221026 -1.115361 2.350965e-38
1.4884022 -2.2214866 -1.1159644 2.3509652e-38
1.4992678 -2.218452 -1.1189542 2.3509653e-38
1.5345391 -2.2162986 -1.1210725 2.3509654e-38
1.5491037 -2.2151787 -1.1221746 2.3509654e-38
1.5888262 -2.2191293 -1.1182778 2.3509656e-38
1.6564692 -2.2161055 -1.1212512 2.3509657e-38
1.6726253 -2.2141907 -1.1231365 2.3509659e-38
1.7065426 -2.2122962 -1.1250001 2.350966e-38
1.7221848 -2.2106493 -1.1266217 2.3509661e-38
1.7725577 -2.2078974 -1.1293286 2.3509663e-38
1.8243476 -2.2064295 -1.1307704 2.3509664e-38
1.8597993 -2.2071738 -1.1300333 2.3509664e-38
1.9152081 -2.2075212 -1.1296856 2.3509666e-38
1.932848 -2.2093539 -1.127878 2.3509667e-38
1.9635837 -2.2043271 -1.1328282 2.3509668e-38
1.9825389 -2.2053146 -1.1318536 2.350967e-38
2.0371671 -2.2056234 -1.1315441 2.3509671e-38
2.0695891 -2.202796 -1.1343268 2.3509673e-38
2.0843155 -2.2014403 -1.1356618 2.3509674e-38
2.1048367 -2.2020097 -1.1350987 2.3509675e-38
2.1218884 -2.2017193 -1.1353831 2.3509675e-38
2.1695483 -2.1964002 -1.1406202 2.3509677e-38
2.2077994 -2.1996105 -1.1374531 2.3509678e-38
2.2251601 -2.2000084 -1.1370593 2.350968e-38
2.24017 -2.1988835 -1.1381662 2.3509681e-38
2.2753782 -2.1963153 -1.1406939 2.3509682e-38
2.2924895 -2.1954827 -1.1415124 2.3509684e-38
2.3108943 -2.196389 -1.1406176 2.3509685e-38
2.3260648 -2.1937885 -1.1431787 2.3509685e-38
2.3627899 -2.1960385 -1.1409577 2.3509687e-38
2.3783624 -2.1946054 -1.1423688 2.3509688e-38
2.4140432 -2.1920776 -1.1448562 2.3509689e-38
2.4370492 -2.1942072 -1.1427553 2.3509691e-38
2.4742746 -2.1933074 -1.1436386 2.3509692e-38
2.5163836 -2.188684 -1.1481905 2.3509694e-38
2.5527635 -2.1904092 -1.1464872 2.3509695e-38
2.5671141 -2.1880035 -1.1488562 2.3509696e-38
2.5829356 -2.1869361 -1.1499066 2.3509696e-38
2.619642 -2.1862025 -1.1506259 2.3509698e-38
2.6357756 -2.1863909 -1.150439 2.3509699e-38
2.6713419 -2.1866097 -1.1502197 2.3509701e-38
2.6884391 -2.1860242 -1.1507951 2.3509702e-38
2.7087147 -2.1866562 -1.1501703 2.3509703e-38
2.7290812 -2.1887503 -1.1481047 2.3509705e-38
2.7544403 -2.1847501 -1.1520445 2.3509706e-38
2.7944059 -2.185535 -1.1512669 2.3509706e-38
2.8307171 -2.1853809 -1.1514151 2.3509708e-38
2.862731 -2.1806095 -1.1561141 2.3509709e-38
2.8783863 -2.1791267 -1.1575737 2.350971e-38
2.8882549 -2.170301 -1.1662705 2.3509712e-38
2.8596103 -2.1590753 -1.1773357 2.3509713e-38
2.838258 -2.1569021 -1.1794796 2.3509715e-38
2.823688 -2.1581969 -1.178205 2.3509716e-38
2.8076487 -2.1610339 -1.1754107 2.3509717e-38
2.7657695 -2.1575799 -1.1788185 2.3509717e-38
2.7200105 -2.1615837 -1.1748774 2.3509719e-38
2.6979113 -2.1575456 -1.178859 2.350972e-38
2.6817355 -2.1587057 -1.1777176 2.3509722e-38
2.6663532 -2.1611447 -1.175315 2.3509723e-38
2.6287858 -2.1590977 -1.1773365 2.3509724e-38
2.5744839 -2.1580982 -1.1783264 2.3509726e-38
2.5608897 -2.1620855 -1.1743983 2.3509727e-38
2.5131688 -2.1674974 -1.1690698 2.3509727e-38
2.4963822 -2.1642714 -1.1722505 2.3509729e-38
2.4573245 -2.1646214 -1.1719093 2.350973e-38
2.4091666 -2.1694427 -1.1671629 2.3509731e-38
2.3879158 -2.1658289 -1.1707261 2.3509733e-38
2.3406415 -2.1717243 -1.164921 2.3509734e-38
2.3057201 -2.1720634 -1.1645902 2.3509736e-38
2.2838821 -2.1691322 -1.1674809 2.3509737e-38
2.2666259 -2.1684427 -1.168162 2.3509738e-38
2.216058 -2.1741924 -1.1625009 2.3509738e-38
2.1847816 -2.1756439 -1.1610737 2.350974e-38
2.1639318 -2.1725183 -1.164156 2.3509741e-38
2.1487386 -2.1725054 -1.16417 2.3509743e-38
2.1302698 -2.1743894 -1.1623151 2.3509744e-38
2.1114411 -2.1737232 -1.1629734 2.3509745e-38
2.0782135 -2.1781859 -1.1585789 2.3509747e-38
2.0452383 -2.177175 -1.1595781 2.3509748e-38
2.0117326 -2.1792369 -1.1575495 2.3509748e-38
1.9783497 -2.1806295 -1.1561804 2.350975e-38
1.9571785 -2.1779308 -1.1588418 2.3509751e-38
1.9244202 -2.1809022 -1.1559169 2.3509752e-38
1.9032955 -2.1776228 -1.1591508 2.3509754e-38
1.8518636 -2.1799343 -1.156878 2.3509755e-38
1.8176904 -2.1812658 -1.1555691 2.3509757e-38
1.7802306 -2.182776 -1.1540843 2.3509758e-38
1.7487127 -2.1829152 -1.1539501 2.3509759e-38
1.7138419 -2.1833162 -1.1535585 2.3509759e-38
1.6789529 -2.1836948 -1.1531887 2.3509761e-38
1.6445456 -2.1846061 -1.1522942 2.3509762e-38
1.6115047 -2.1872869 -1.1496553 2.3509764e-38
1.5764281 -2.1905484 -1.1464443 2.3509765e-38
1.5443769 -2.1912694 -1.1457374 2.3509767e-38
1.5094128 -2.1915565 -1.1454576 2.3509768e-38
1.4895188 -2.1895936 -1.1473939 2.3509769e-38
1.4771864 -2.1906657 -1.1463387 2.3509769e-38
1.453909 -2.1890955 -1.1478884 2.3509771e-38
1.4216632 -2.1905813 -1.1464276 2.3509772e-38
1.3860189 -2.1905613 -1.1464505 2.3509774e-38
1.3720069 -2.1947737 -1.1423006 2.3509775e-38
1.3383435 -2.1975574 -1.1395607 2.3509776e-38
1.3172308 -2.1941118 -1.1429584 2.3509778e-38
1.28485 -2.194788 -1.1422951 2.3509779e-38
1.2669215 -2.1963148 -1.1407921 2.3509781e-38
1.2336117 -2.201052 -1.136127 2.3509781e-38
1.1996937 -2.199935 -1.1372311 2.3509782e-38
1.18062 -2.1993368 -1.1378224 2.3509783e-38
1.163963 -2.1985507 -1.1385988 2.3509785e-38
1.1488947 -2.2017829 -1.1354146 2.3509786e-38
1.1133478 -2.2013609 -1.1358342 2.3509788e-38
1.0806881 -2.203526 -1.1337037 2.3509789e-38
1.0469997 -2.2062919 -1.1309813 2.350979e-38
1.0295796 -2.2080445 -1.1292558 2.350979e-38
1.0135872 -2.2087674 -1.128545 2.3509792e-38
0.99426317 -2.2074101 -1.1298845 2.3509793e-38
0.95648342 -2.2089484 -1.1283722 2.3509795e-38
0.90810531 -2.208612 -1.1287084 2.3509796e-38
0.89176017 -2.2113335 -1.1260281 2.3509797e-38
0.85897923 -2.2139099 -1.1234922 2.3509799e-38
0.83510566 -2.2103293 -1.1270231 2.35098e-38
0.8029229 -2.2107763 -1.1265857 2.3509802e-38
0.76900989 -2.2123427 -1.1250455 2.3509802e-38
0.74945927 -2.2107971 -1.1265705 2.3509803e-38
0.71476263 -2.2114098 -1.1259699 2.3509804e-38
0.68029147 -2.2146444 -1.1227856 2.3509806e-38
0.66172069 -2.2116616 -1.1257269 2.3509807e-38
0.6267103 -2.2121749 -1.1252247 2.3509809e-38
0.59283245 -2.213784 -1.1236422 2.350981e-38
0.55737048 -2.2134657 -1.1239589 2.3509811e-38
0.52179217 -2.2130058 -1.1244159 2.3509811e-38
0.50365674 -2.2131824 -1.1242437 2.3509813e-38
0.46735805 -2.2118459 -1.1255642 2.3509814e-38
0.43327367 -2.2139184 -1.1235249 2.3509816e-38
0.41962731 -2.2171865 -1.1203058 2.3509817e-38
0.38464847 -2.2174561 -1.1200435 2.3509818e-38
0.36442101 -2.2150872 -1.1223801 2.350982e-38
0.33246154 -2.2190299 -1.1184977 2.3509821e-38
0.31221494 -2.2162063 -1.1212822 2.3509823e-38
0.27741995 -2.2171311 -1.1203742 2.3509823e-38
0.24381843 -2.2190762 -1.1184604 2.3509824e-38
0.22762825 -2.2202573 -1.1172984 2.3509825e-38
0.2081393 -2.2184937 -1.1190381 2.3509827e-38
0.17487343 -2.2208476 -1.1167219 2.3509828e-38
0.12158159 -2.2191572 -1.1183929 2.350983e-38
0.086792439 -2.2199223 -1.117642 2.3509831e-38
0.052768171 -2.2213533 -1.1162354 2.3509832e-38
0.019328211 -2.2232742 -1.1143454 2.3509832e-38
-0.018734951 -2.2244115 -1.1132283 2.3509834e-38
-0.037246503 -2.2197306 -1.1178429 2.3509835e-38
-0.072027296 -2.2202411 -1.1173433 2.3509837e-38
-0.10534763 -2.2192557 -1.1183176 2.3509838e-38
-0.14312917 -2.2193882 -1.1181908 2.3509839e-38
-0.16230217 -2.218302 -1.1192629 2.3509841e-38
-0.19622324 -2.2194767 -1.118109 2.3509842e-38
-0.23402146 -2.2192085 -1.1183767 2.3509844e-38
-0.25352842 -2.2152054 -1.1223235 2.3509844e-38
-0.26861763 -2.2175791 -1.1199858 2.3509845e-38
-0.28674027 -2.2176249 -1.1199424 2.3509846e-38
-0.30751157 -2.2145944 -1.1229308 2.3509848e-38
-0.34149337 -2.2160769 -1.1214734 2.3509849e-38
-0.36062855 -2.2148428 -1.1226914 2.3509851e-38
-0.38029715 -2.2144752 -1.1230552 2.3509852e-38
-0.41601422 -2.2130358 -1.1244774 2.3509853e-38
-0.46611384 -2.2151775 -1.1223716 2.3509853e-38
-0.47913054 -2.2199266 -1.1176928 2.3509855e-38
-0.49103501 -2.224576 -1.1131121 2.3509856e-38
-0.52269989 -2.2292602 -1.1084991 2.3509858e-38
-0.55881846 -2.2290568 -1.1087031 2.3509859e-38
-0.61552918 -2.2284009 -1.109355 2.350986e-38
-0.62817645 -2.2277224 -1.1100247 2.3509862e-38
-0.68015432 -2.2300193 -1.1077664 2.3509863e-38
-0.69769841 -2.2263756 -1.1113585 2.3509865e-38
-0.73304415 -2.2297189 -1.1080675 2.3509865e-38
-0.75538683 -2.2263203 -1.111419 2.3509866e-38
-0.76890868 -2.2289109 -1.1088674 2.3509867e-38
-0.80418646 -2.2288163 -1.1089637 2.3509869e-38
-0.82418728 -2.2267234 -1.1110284 2.350987e-38
-0.84307665 -2.2238479 -1.1138638 2.3509872e-38
-0.86374497 -2.2237861 -1.1139268 2.3509873e-38
-0.89897114 -2.2230983 -1.1146082 2.3509874e-38
-0.93463773 -2.2223601 -1.115339 2.3509874e-38
-0.97284907 -2.2250285 -1.1127129 2.3509876e-38
-1.0050707 -2.2220559 -1.1156454 2.3509877e-38
-1.0229648 -2.2215204 -1.1161748 2.3509879e-38
-1.0562929 -2.2235322 -1.1141956 2.350988e-38
-1.0917466 -2.2232239 -1.1145029 2.3509881e-38
-1.1275263 -2.2191257 -1.1185449 2.3509883e-38
-1.1866455 -2.2156591 -1.1219668 2.3509884e-38
