# .PCD v0.7 - Point Cloud Data file format
VERSION 0.7
FIELDS x y z rgb
SIZE 4 4 4 4
TYPE F F F F
COUNT 1 1 1 1
WIDTH 202
HEIGHT 1
VIEWPOINT 0 0 0 1 0 0 0
POINTS 202
DATA ascii
-1.0005853 -4.7819848 -0.82509947 2.3509528e-38
-0.99252748 -4.7803864 -0.84392691 2.350953e-38
-0.99667764 -4.7802253 -0.8564536 2.3509531e-38
-1.0026939 -4.780211 -0.86964953 2.3509532e-38
-1.0085496 -4.780179 -0.88292742 2.3509535e-38
-1.0919334 -4.7867165 -0.91392529 2.3509537e-38
-1.0988549 -4.7870193 -0.92191648 2.3509538e-38
-1.083913 -4.7811484 -1.0224557 2.3509539e-38
-1.0627538 -4.7782145 -1.043372 2.3509542e-38
-1.0689495 -4.7786317 -1.0472252 2.3509544e-38
-1.0929484 -4.7809458 -1.0463815 2.3509545e-38
-1.1148165 -4.7831521 -1.0434062 2.3509547e-38
-1.1387596 -4.7853236 -1.0456668 2.3509549e-38
-1.223453 -4.7928758 -1.0565673 2.3509551e-38
-1.2461516 -4.7949543 -1.0582597 2.3509552e-38
-1.2907841 -4.7985225 -1.0733012 2.3509554e-38
-1.293485 -4.7987347 -1.0742896 2.3509556e-38
-1.3349264 -4.8027902 -1.0714926 2.3509558e-38
-1.3589545 -4.8049741 -1.0736654 2.3509559e-38
-1.3984947 -4.8086286 -1.0758345 2.3509561e-38
-1.4075699 -4.8093605 -1.0787474 2.3509563e-38
-1.4347377 -4.8122702 -1.0712483 2.3509565e-38
-1.4718661 -4.8155246 -1.0772963 2.3509566e-38
-1.5082246 -4.8185291 -1.0873408 2.3509569e-38
-1.5568458 -4.8235292 -1.0786144 2.350957e-38
-1.5922179 -4.826776 -1.0810573 2.3509572e-38
-1.6442251 -4.8320436 -1.0735216 2.3509573e-38
-1.6577587 -4.8331127 -1.0783746 2.3509576e-38
-1.6841656 -4.8354716 -1.081696 2.3509577e-38
-1.7262177 -4.8387747 -1.0971811 2.3509579e-38
-1.748722 -4.8406887 -1.1021762 2.350958e-38
-1.7823486 -4.8437214 -1.1057297 2.3509583e-38
-1.8264785 -4.8477335 -1.1096606 2.3509584e-38
-1.8444624 -4.8496585 -1.1047283 2.3509586e-38
-1.8989141 -4.8549457 -1.1019833 2.3509587e-38
-1.9240904 -4.8572044 -1.1049139 2.350959e-38
-1.9753559 -4.8622165 -1.1015611 2.3509591e-38
-1.9983587 -4.8645806 -1.0974553 2.3509593e-38
-2.0315232 -4.8675103 -1.102352 2.3509594e-38
-2.0357509 -4.8678937 -1.1027485 2.3509597e-38
-2.0423172 -4.8686528 -1.0996782 2.3509598e-38
-2.0424442 -4.8693624 -1.083937 2.35096e-38
-2.0204103 -4.8701997 -1.0178454 2.3509603e-38
-2.0259662 -4.8722682 -0.98303366 2.3509604e-38
-2.0227382 -4.8725419 -0.96994197 2.3509605e-38
-2.0190482 -4.8736591 -0.93680954 2.3509607e-38
-2.0240924 -4.8749795 -0.91780585 2.350961e-38
-2.0227721 -4.8754029 -0.90541542 2.3509611e-38
-2.0503786 -4.8806143 -0.84690845 2.3509612e-38
-2.1336267 -4.8907013 -0.79746795 2.3509614e-38
-2.136162 -4.8909297 -0.79774165 2.3509617e-38
-2.1887906 -4.8960147 -0.79565579 2.3509618e-38
-2.1845989 -4.8963513 -0.77908307 2.3509619e-38
-2.1784236 -4.8980012 -0.72862482 2.3509621e-38
-2.2138071 -4.9035249 -0.6796912 2.3509624e-38
-2.2110455 -4.9053936 -0.63158107 2.3509625e-38
-2.1988578 -4.9068131 -0.57344228 2.3509626e-38
-2.1840515 -4.9066591 -0.5452081 2.3509628e-38
-2.1773946 -4.9066081 -0.53209662 2.3509631e-38
-2.1727483 -4.9073958 -0.50435495 2.3509632e-38
-2.1713059 -4.9078288 -0.49149728 2.3509633e-38
-2.1664491 -4.9085298 -0.46526846 2.3509636e-38
-2.1676934 -4.9098482 -0.43816748 2.3509638e-38
-2.1622918 -4.9099779 -0.42366606 2.3509639e-38
-2.1573632 -4.910852 -0.39339 2.350964e-38
-2.1574941 -4.9112358 -0.38499179 2.3509643e-38
-2.1241796 -4.9110966 -0.31679589 2.3509645e-38
-2.1082675 -4.9108462 -0.28835976 2.3509646e-38
-2.0990911 -4.9106359 -0.27345723 2.3509647e-38
-2.0866976 -4.911212 -0.23388878 2.350965e-38
-2.0845165 -4.9115148 -0.22238567 2.3509652e-38
-2.0416741 -4.9096022 -0.1737975 2.3509653e-38
-2.0391638 -4.9108491 -0.14029047 2.3509654e-38
-2.0356941 -4.9111457 -0.12615538 2.3509657e-38
-2.0346432 -4.9115882 -0.11390853 2.3509659e-38
-2.0234807 -4.9117103 -0.087241888 2.350966e-38
-2.0152876 -4.9122348 -0.057851896 2.3509661e-38
-2.000844 -4.9113288 -0.047374994 2.3509664e-38
-1.9776781 -4.911737 0.011471033 2.3509666e-38
-1.9641008 -4.9109011 0.021668434 2.3509667e-38
-1.9327664 -4.9112086 0.095730007 2.3509668e-38
-1.9225063 -4.9109535 0.11193985 2.3509671e-38
-1.9008906 -4.9100285 0.13735026 2.3509673e-38
-1.8953054 -4.9100971 0.15086669 2.3509674e-38
-1.8872554 -4.9108481 0.18505949 2.3509677e-38
-1.8707566 -4.9130836 0.27087229 2.3509678e-38
-1.8437567 -4.9111652 0.28539407 2.350968e-38
-1.8254232 -4.9130678 0.36762351 2.3509681e-38
-1.8174996 -4.9133272 0.39045453 2.3509684e-38
-1.7899603 -4.9132981 0.44876114 2.3509685e-38
-1.7742801 -4.913054 0.47685552 2.3509687e-38
-1.7697809 -4.9132414 0.49071026 2.3509688e-38
-1.744282 -4.9126558 0.53210706 2.3509691e-38
-1.7379096 -4.9127598 0.54809767 2.3509692e-38
-1.732286 -4.9137769 0.58310831 2.3509694e-38
-1.7202399 -4.9133844 0.60004455 2.3509695e-38
-1.709765 -4.9136033 0.62742627 2.3509698e-38
-1.7042105 -4.9137897 0.64353299 2.3509699e-38
-1.6955521 -4.9140191 0.66725767 2.3509701e-38
-1.6889563 -4.9140749 0.68265319 2.3509702e-38
-1.6809232 -4.9139452 0.69691437 2.3509705e-38
-1.6641519 -4.9134388 0.72140837 2.3509706e-38
-1.6543456 -4.9140062 0.75521314 2.3509708e-38
-1.6444806 -4.9135537 0.76612484 2.350971e-38
-1.6292539 -4.912621 0.77770066 2.3509712e-38
-1.5929468 -4.9111881 0.82311094 2.3509713e-38
-1.5853407 -4.9145932 0.91628349 2.3509715e-38
-1.5490742 -4.9143519 0.98850548 2.3509717e-38
-1.5460923 -4.9150286 1.010164 2.3509719e-38
-1.5342083 -4.9130044 0.98990548 2.350972e-38
-1.5329635 -4.9127331 0.98647678 2.3509722e-38
-1.5302817 -4.9122128 0.98046136 2.3509724e-38
-1.5160198 -4.9097505 0.95541513 2.3509726e-38
-1.518927 -4.9086161 0.92357659 2.3509727e-38
-1.5317343 -4.9086933 0.89789522 2.3509729e-38
-1.538183 -4.907403 0.85494661 2.3509731e-38
-1.5317224 -4.9059081 0.83503735 2.3509733e-38
-1.5445453 -4.9044533 0.7747342 2.3509734e-38
-1.5403811 -4.9020419 0.72920978 2.3509736e-38
-1.5380946 -4.9001441 0.69125086 2.3509738e-38
-1.5431883 -4.8985724 0.64486885 2.350974e-38
-1.5380918 -4.8971944 0.62467015 2.3509741e-38
-1.535291 -4.8957667 0.59842229 2.3509744e-38
-1.5426941 -4.894381 0.55129349 2.3509745e-38
-1.5416951 -4.8932233 0.52728891 2.3509747e-38
-1.5436285 -4.8924527 0.50576162 2.3509748e-38
-1.5341458 -4.889915 0.46877587 2.3509751e-38
-1.5267084 -4.8874555 0.42919421 2.3509752e-38
-1.5187792 -4.8858266 0.40938437 2.3509754e-38
-1.5258628 -4.885231 0.38076508 2.3509755e-38
-1.5245965 -4.8844047 0.36482394 2.3509758e-38
-1.5251346 -4.8843746 0.36299658 2.3509759e-38
-1.5305182 -4.8829947 0.32031167 2.3509761e-38
-1.5295585 -4.8826098 0.31367397 2.3509762e-38
-1.5334939 -4.8823805 0.3000744 2.3509765e-38
-1.5371923 -4.8811054 0.26335806 2.3509767e-38
-1.5322239 -4.8784528 0.21410462 2.3509768e-38
-1.5128211 -4.8751078 0.18016094 2.3509769e-38
-1.511196 -4.873539 0.14820734 2.3509772e-38
-1.5144237 -4.873137 0.13221845 2.3509774e-38
-1.5151845 -4.8726702 0.1200716 2.3509775e-38
-1.5198408 -4.8720131 0.095253348 2.3509776e-38
-1.5121089 -4.8686614 0.036139145 2.3509779e-38
-1.5127425 -4.8660645 -0.023838311 2.3509781e-38
-1.5057145 -4.8645711 -0.042505756 2.3509782e-38
-1.4137437 -4.8544517 -0.07397297 2.3509785e-38
-1.3236287 -4.8473659 -0.040932596 2.3509786e-38
-1.2891299 -4.8454795 -0.009626776 2.3509788e-38
-1.2538633 -4.8419843 -0.013002783 2.3509789e-38
-1.2452724 -4.8412051 -0.012197196 2.3509792e-38
-1.1697994 -4.8366766 0.047219455 2.3509793e-38
-1.162527 -4.8366313 0.061774641 2.3509795e-38
-1.1583741 -4.8370686 0.080540717 2.3509796e-38
-1.1517578 -4.8375139 0.10476094 2.3509799e-38
-1.1454599 -4.8367825 0.10174376 2.35098e-38
-1.1343921 -4.835536 0.097292513 2.3509802e-38
-1.1297681 -4.8335853 0.063167989 2.3509803e-38
-1.1137779 -4.8303986 0.025470227 2.3509806e-38
-1.1454506 -4.8302684 -0.045306966 2.3509807e-38
-1.1433554 -4.8289137 -0.071402624 2.3509809e-38
-1.1404868 -4.8259168 -0.13292846 2.350981e-38
-1.1479412 -4.82514 -0.16641182 2.3509813e-38
-1.1766787 -4.82512 -0.22841628 2.3509814e-38
-1.1736804 -4.8240304 -0.24659675 2.3509816e-38
-1.1941347 -4.8242764 -0.28485924 2.3509818e-38
-1.192886 -4.8227429 -0.31680548 2.350982e-38
-1.1960331 -4.8228493 -0.32114249 2.3509821e-38
-1.2041283 -4.8231525 -0.33163685 2.3509823e-38
-1.2157134 -4.8238716 -0.34021759 2.3509825e-38
-1.2394637 -4.8258467 -0.34649122 2.3509827e-38
-1.2496622 -4.8266807 -0.34949341 2.3509828e-38
-1.2868856 -4.8305149 -0.34268016 2.350983e-38
-1.3213503 -4.8337755 -0.34287745 2.3509832e-38
-1.3648176 -4.8372579 -0.35736543 2.3509834e-38
-1.4416353 -4.844202 -0.36512175 2.3509835e-38
-1.5045605 -4.84656 -0.44665945 2.3509837e-38
-1.5159383 -4.8448434 -0.50978786 2.3509839e-38
-1.518994 -4.8444924 -0.52425885 2.3509841e-38
-1.5148462 -4.8418493 -0.57502395 2.3509842e-38
-1.5082207 -4.8403745 -0.59413803 2.3509844e-38
-1.3997973 -4.8274913 -0.65277666 2.3509846e-38
-1.3799106 -4.8258562 -0.64709133 2.3509848e-38
-1.3516728 -4.8230247 -0.65053344 2.3509849e-38
-1.311942 -4.8195658 -0.6435343 2.3509852e-38
-1.29339 -4.8184009 -0.63009942 2.3509853e-38
-1.2829731 -4.8175955 -0.62596405 2.3509855e-38
-1.2353594 -4.8140011 -0.60513371 2.3509856e-38
-1.2249037 -4.8132086 -0.60062802 2.3509859e-38
-1.2042354 -4.8111296 -0.60329562 2.350986e-38
-1.2027847 -4.8109851 -0.6034565 2.3509862e-38
-1.1261189 -4.8035011 -0.60820311 2.3509863e-38
-1.1167294 -4.8027616 -0.60480976 2.3509866e-38
-1.068728 -4.7991338 -0.58388609 2.3509867e-38
-1.0506237 -4.7967515 -0.59887296 2.3509869e-38
-1.0296453 -4.7942343 -0.61080295 2.350987e-38
-1.045048 -4.7913194 -0.70958662 2.3509873e-38
-1.0076526 -4.7833786 -0.80877149 2.3509874e-38
-1.9080415 -4.9008398 -0.085404083 2.3509876e-38
-1.8182285 -4.8886142 -0.16905823 2.3509877e-38
-1.883786 -4.8916645 -0.24060296 2.350988e-38
-1.9602406 -4.9000096 -0.21594571 2.3509881e-38
-1.9367723 -4.9036965 -0.082441986 2.3509883e-38
