# .PCD v0.7 - Point Cloud Data file format
VERSION 0.7
FIELDS x y z rgb
SIZE 4 4 4 4
TYPE F F F F
COUNT 1 1 1 1
WIDTH 177
HEIGHT 1
VIEWPOINT 0 0 0 1 0 0 0
POINTS 177
DATA ascii
2.8025804 2.3722939 -1.019272 2.3509528e-38
2.8276329 2.3735442 -1.0125101 2.350953e-38
2.8340542 2.3755014 -0.96603012 2.3509531e-38
2.8358357 2.3760893 -0.95191264 2.3509534e-38
2.8359249 2.3771441 -0.92316103 2.3509535e-38
2.8396628 2.3784447 -0.89170158 2.3509538e-38
2.8404152 2.3789921 -0.87755841 2.3509539e-38
2.8402135 2.3800323 -0.84887642 2.3509542e-38
2.8421934 2.3814137 -0.81328225 2.3509544e-38
2.8424561 2.3825731 -0.78187633 2.3509545e-38
2.8446484 2.3848977 -0.72069854 2.3509548e-38
2.8444474 2.3860691 -0.68846071 2.3509549e-38
2.8473961 2.3866959 -0.67454606 2.3509552e-38
2.8468699 2.3883932 -0.62757313 2.3509554e-38
2.8402519 2.3904727 -0.56345844 2.3509556e-38
2.8446541 2.3911777 -0.54900956 2.3509558e-38
2.8374798 2.3915954 -0.52972078 2.3509561e-38
2.8303573 2.39202 -0.51031542 2.3509562e-38
2.8161564 2.3949759 -0.41393006 2.3509563e-38
2.8209608 2.3956716 -0.40018526 2.3509566e-38
2.8297367 2.3971956 -0.36813036 2.3509568e-38
2.8356771 2.3980656 -0.35082695 2.350957e-38
2.8253527 2.3980484 -0.33999842 2.3509572e-38
2.7878969 2.3976393 -0.31016409 2.3509575e-38
2.7662606 2.3986995 -0.25748295 2.3509576e-38
2.8234994 2.4037206 -0.18287256 2.3509579e-38
2.8413856 2.4047656 -0.17388433 2.350958e-38
2.8474383 2.4055068 -0.16025384 2.3509582e-38
2.8522646 2.4062026 -0.14651094 2.3509584e-38
2.8404493 2.4075871 -0.095717534 2.3509586e-38
2.8417261 2.4093785 -0.048137359 2.3509589e-38
2.8672578 2.4116385 -0.014296152 2.350959e-38
2.8693891 2.4123006 0.00146842 2.3509593e-38
2.873951 2.4129865 0.015235417 2.3509594e-38
2.8733432 2.4141312 0.047202751 2.3509596e-38
2.886559 2.4168601 0.10733791 2.3509598e-38
2.8883071 2.4191239 0.16731828 2.35096e-38
2.8929229 2.42099 0.2133 2.3509603e-38
2.8938603 2.421562 0.22790536 2.3509604e-38
2.892837 2.4226844 0.25971195 2.3509607e-38
2.8926361 2.4232278 0.27480412 2.3509608e-38
2.8924675 2.4243989 0.30701107 2.3509611e-38
2.8960128 2.425035 0.32052183 2.3509612e-38
2.9000998 2.4257059 0.33439034 2.3509614e-38
2.8994367 2.4269025 0.36782527 2.3509617e-38
2.9014425 2.4274318 0.38010174 2.3509618e-38
2.905014 2.4292142 0.4249309 2.3509621e-38
2.8998086 2.4302471 0.45887518 2.3509622e-38
2.8989079 2.4307606 0.47391224 2.3509625e-38
2.9085627 2.4328489 0.52043366 2.3509626e-38
2.9004567 2.4343245 0.56965905 2.3509629e-38
2.8986354 2.4359429 0.61590236 2.3509631e-38
2.8985381 2.4364769 0.6306026 2.3509632e-38
2.8726673 2.4357431 0.63887084 2.3509635e-38
2.8598728 2.4355586 0.64782929 2.3509636e-38
2.8114161 2.435195 0.6909492 2.3509639e-38
2.8057246 2.435087 0.69424087 2.350964e-38
2.8019447 2.4350045 0.69612628 2.3509643e-38
2.7942371 2.4347596 0.69786406 2.3509645e-38
2.7588937 2.4332891 0.69636047 2.3509647e-38
2.7327669 2.4321177 0.69294083 2.3509649e-38
2.7241018 2.4316967 0.69092262 2.350965e-38
2.7028553 2.4307356 0.68790841 2.3509653e-38
2.6952136 2.4303288 0.68514848 2.3509654e-38
2.6686859 2.4290845 0.68017668 2.3509657e-38
2.6402128 2.4271669 0.65893662 2.3509659e-38
2.6207223 2.4261634 0.65282685 2.3509661e-38
2.5533857 2.423718 0.6597057 2.3509663e-38
2.5374963 2.4232364 0.66393149 2.3509664e-38
2.4943721 2.4208763 0.64662564 2.3509667e-38
2.4448199 2.4189517 0.64825273 2.3509668e-38
2.393585 2.4169941 0.65083796 2.3509671e-38
2.370656 2.4165785 0.66458672 2.3509673e-38
2.3389499 2.4171021 0.71362716 2.3509675e-38
2.341188 2.4188561 0.75913465 2.3509677e-38
2.3616228 2.4211893 0.80054998 2.350968e-38
2.3665855 2.4217932 0.81162941 2.3509681e-38
2.3767405 2.4238386 0.85643381 2.3509682e-38
2.3872869 2.42518 0.88156104 2.3509685e-38
2.3875723 2.4257691 0.89734709 2.3509687e-38
2.3864808 2.4263043 0.91319102 2.3509689e-38
2.3758626 2.425988 0.91617191 2.3509691e-38
2.3667755 2.4257424 0.91940594 2.3509694e-38
2.3609715 2.425559 0.92074955 2.3509695e-38
2.3303397 2.4242916 0.9196322 2.3509698e-38
2.3029737 2.4229686 0.91343093 2.3509699e-38
2.2645464 2.4217882 0.92323291 2.3509701e-38
2.239397 2.4205081 0.91576976 2.3509703e-38
2.2138546 2.4187336 0.89521718 2.3509705e-38
2.2096143 2.4181197 0.88306224 2.3509708e-38
2.2150645 2.4170296 0.84730017 2.3509709e-38
2.2137623 2.416424 0.83217132 2.3509712e-38
2.2094517 2.4151063 0.80086339 2.3509713e-38
2.21136 2.4146459 0.7861799 2.3509715e-38
2.2121246 2.4140489 0.7690137 2.3509717e-38
2.2121673 2.4135213 0.75454938 2.3509719e-38
2.2119849 2.4129443 0.73896962 2.3509722e-38
2.2053537 2.4115686 0.70861918 2.3509723e-38
2.2022483 2.4104075 0.68027794 2.3509726e-38
2.1985219 2.4097409 0.66612482 2.3509727e-38
2.1975338 2.4091294 0.65048325 2.350973e-38
2.1955743 2.4085288 0.63620555 2.3509731e-38
2.1928778 2.4079807 0.62416917 2.3509733e-38
2.202363 2.4069626 0.58594769 2.3509736e-38
2.201663 2.4063847 0.57091665 2.3509737e-38
2.1988041 2.405741 0.55644166 2.350974e-38
2.1969244 2.4051211 0.54154533 2.3509741e-38
2.2039011 2.4042232 0.5093649 2.3509744e-38
2.1978016 2.4028511 0.47851726 2.3509745e-38
2.20227 2.4013214 0.43180519 2.3509748e-38
2.2039101 2.400789 0.4154442 2.350975e-38
2.2065504 2.4003277 0.39994383 2.3509751e-38
2.2001846 2.3983874 0.35386389 2.3509754e-38
2.1929901 2.39765 0.34157547 2.3509755e-38
2.1931553 2.3970213 0.32419375 2.3509758e-38
2.2045038 2.395648 0.27423286 2.3509759e-38
2.1998503 2.3943892 0.24489737 2.3509762e-38
2.1931822 2.3936474 0.23192842 2.3509764e-38
2.1911023 2.3924339 0.20102368 2.3509767e-38
2.1906636 2.3921096 0.1926308 2.3509768e-38
2.1897297 2.3912702 0.17070697 2.3509769e-38
2.1749196 2.388577 0.1132751 2.3509772e-38
2.1522307 2.3857408 0.060578451 2.3509774e-38
2.1509664 2.3847892 0.035947122 2.3509776e-38
2.1506734 2.3838849 0.011530384 2.3509778e-38
2.1679494 2.3815324 -0.071703427 2.3509781e-38
2.1585894 2.3801515 -0.099215902 2.3509782e-38
2.1371989 2.3767025 -0.17009705 2.3509783e-38
2.1329811 2.3761098 -0.18168141 2.3509786e-38
2.1435323 2.3763454 -0.18679565 2.3509788e-38
2.1835759 2.3745837 -0.27881461 2.350979e-38
2.1516342 2.3714275 -0.33013594 2.3509792e-38
2.1361041 2.3704419 -0.3400771 2.3509795e-38
2.1170743 2.3693233 -0.34983024 2.3509796e-38
2.108551 2.367382 -0.39356226 2.3509799e-38
2.0912237 2.3640888 -0.46464741 2.35098e-38
2.0892043 2.3629081 -0.49472037 2.3509802e-38
2.099853 2.3614349 -0.54666269 2.3509804e-38
2.1012678 2.3610055 -0.5599516 2.3509806e-38
2.1029668 2.3604152 -0.57795137 2.3509809e-38
2.1199355 2.3591559 -0.63098037 2.350981e-38
2.1184685 2.3585527 -0.64586163 2.3509813e-38
2.1160634 2.3579187 -0.6605463 2.3509814e-38
2.1175387 2.3575096 -0.67335737 2.3509817e-38
2.1039345 2.3552585 -0.72001952 2.3509818e-38
2.0998912 2.3546598 -0.73195016 2.350982e-38
2.1041694 2.3541048 -0.75181746 2.3509823e-38
2.1526065 2.3543835 -0.79723197 2.3509824e-38
2.1618433 2.3534944 -0.83166277 2.3509827e-38
2.153507 2.3504221 -0.90654385 2.3509828e-38
2.1579149 2.3500319 -0.9220373 2.3509831e-38
2.163517 2.3497128 -0.93688798 2.3509832e-38
2.1652629 2.3479986 -0.98567307 2.3509834e-38
2.1610312 2.3466935 -1.0167357 2.3509837e-38
2.1650548 2.3461902 -1.0349016 2.3509838e-38
2.175504 2.3465273 -1.0371273 2.3509841e-38
2.2238224 2.3483989 -1.0388585 2.3509842e-38
2.231827 2.3487456 -1.0381492 2.3509845e-38
2.2586024 2.3498995 -1.035912 2.3509846e-38
2.2703509 2.3503349 -1.0368729 2.3509849e-38
2.3165367 2.3521543 -1.0377069 2.3509851e-38
2.3524854 2.3537104 -1.0345136 2.3509852e-38
2.386471 2.3551657 -1.0319407 2.3509855e-38
2.4039068 2.3556881 -1.0367409 2.3509856e-38
2.4156175 2.3561087 -1.0380733 2.3509859e-38
2.4367831 2.3571377 -1.0331123 2.350986e-38
2.4877672 2.3591051 -1.0351456 2.3509863e-38
2.4988167 2.3594437 -1.03799 2.3509865e-38
2.5068336 2.3597703 -1.0378308 2.3509867e-38
2.5374253 2.3610241 -1.0370574 2.3509869e-38
2.5727229 2.3625572 -1.0338044 2.350987e-38
2.6053274 2.3639605 -1.031126 2.3509873e-38
2.622072 2.3644638 -1.0356883 2.3509874e-38
2.6578748 2.3660154 -1.0324817 2.3509877e-38
2.709903 2.3679969 -1.0352652 2.3509879e-38
2.7532127 2.3698478 -1.0320909 2.3509881e-38
2.7868044 2.3713021 -1.029107 2.3509883e-38
